-0.26  -0.74  0.0402932437036
-0.26  -0.72  0.0476881880345
-0.26  -0.7  0.0564403127914
-0.26  -0.68  0.0667986987824
-0.26  -0.66  0.0790581401544
-0.26  -0.64  0.0935675340778
-0.26  -0.62  0.110739810174
-0.26  -0.6  0.131063682272
-0.26  -0.58  0.155117556945
-0.26  -0.56  0.183585994651
-0.26  -0.54  0.217279191961
-0.26  -0.52  0.257156039321
-0.26  -0.5  0.304351410563
-0.26  -0.48  0.360208460809
-0.26  -0.46  0.426316851953
-0.26  -0.44  0.504557993587
-0.26  -0.42  0.597158586921
-0.26  -0.4  0.706753995508
-0.26  -0.38  0.836463246291
-0.26  -0.36  0.989977795446
-0.26  -0.34  1.17166658526
-0.26  -0.32  1.38670038189
-0.26  -0.3  1.64119893265
-0.26  -0.28  1.94240513069
-0.26  -0.26  2.29889114396
-0.26  -0.24  2.72080237448
-0.26  -0.22  3.22014619109
-0.26  -0.2  2.8205848757
-0.26  -0.18  2.82090558325
-0.26  -0.16  2.81091640866
-0.26  -0.14  2.79160577124
-0.26  -0.12  2.76491277647
-0.26  -0.1  2.7335812974
-0.26  -0.08  2.70093013599
-0.26  -0.06  2.67053656464
-0.26  -0.04  2.64584536744
-0.26  -0.02  2.6297407405
-0.26  6.17561557e-16  2.62414700737
-0.26  0.02  2.6297407405
-0.26  0.04  2.64584536744
-0.26  0.06  2.67053656464
-0.26  0.08  2.70093013599
-0.26  0.1  2.7335812974
-0.26  0.12  2.76491277647
-0.26  0.14  2.79160577124
-0.26  0.16  2.81091640866
-0.26  0.18  2.82090558325
-0.26  0.2  3.8111336528
-0.26  0.22  3.22014619109
-0.26  0.24  2.72080237448
-0.26  0.26  2.29889114396
-0.26  0.28  1.94240513069
-0.26  0.3  1.64119893265
-0.26  0.32  1.3867003819
-0.26  0.34  1.17166658526
-0.26  0.36  0.989977795446
-0.26  0.38  0.836463246291
-0.26  0.4  0.706753995508
-0.26  0.42  0.597158586921
-0.26  0.44  0.504557993587
-0.26  0.46  0.426316851953
-0.26  0.48  0.360208460809
-0.26  0.5  0.304351410563
-0.26  0.52  0.257156039321
-0.26  0.54  0.217279191961
-0.26  0.56  0.183585994651
-0.26  0.58  0.155117556945
-0.26  0.6  0.131063682272
-0.26  0.62  0.110739810174
-0.26  0.64  0.0935675340778
-0.26  0.66  0.0790581401544
-0.26  0.68  0.0667986987824
-0.26  0.7  0.0564403127914
-0.26  0.72  0.0476881880345
-0.26  0.74  0.0402932437036
-0.26  0.76  0.0340450236227
-0.26  0.78  0.0287657067769
-0.26  0.8  0.0243050466214
-0.26  0.82  0.0205360951445
-0.26  0.84  0.0173515899949
-0.26  0.86  0.0146609018528
-0.26  0.88  0.0123874551669
-0.26  0.9  0.0104665488558
-0.26  0.92  0.00884351494919
-0.26  0.94  0.00747216276673
-0.26  0.96  0.00631346435589
-0.26  0.98  0.00533444377719
-0.24  -1  0.00549662379015
-0.24  -0.98  0.00650540896603
-0.24  -0.96  0.00769933461538
-0.24  -0.94  0.00911237922615
-0.24  -0.92  0.0107847572952
-0.24  -0.9  0.0127640638113
-0.24  -0.88  0.0151066287836
-0.24  -0.86  0.0178791203632
-0.24  -0.84  0.0211604421834
-0.24  -0.82  0.0250439789152
-0.24  -0.8  0.0296402539449
-0.24  -0.78  0.0350800748114
-0.24  -0.76  0.0415182559184
-0.24  -0.74  0.0491380244704
-0.24  -0.72  0.0581562350211
-0.24  -0.7  0.0688295410383
-0.24  -0.68  0.0814616991253
-0.24  -0.66  0.0964122137714
-0.24  -0.64  0.114106568659
-0.24  -0.62  0.135048335701
-0.24  -0.6  0.159833506432
-0.24  -0.58  0.189167453606
-0.24  -0.56  0.223885005733
-0.24  -0.54  0.26497420585
-0.24  -0.52  0.313604430704
-0.24  -0.5  0.371159670586
-0.24  -0.48  0.439277916961
-0.24  -0.46  0.519897778832
-0.24  -0.44  0.615313654518
-0.24  -0.42  0.72824102901
-0.24  -0.4  0.861893755224
-0.24  -0.38  1.02007551855
-0.24  -0.36  1.20728808769
-0.24  -0.34  1.42885943264
-0.24  -0.32  1.69109535584
-0.24  -0.3  2.00145895194
-0.24  -0.28  2.36878300357
-0.24  -0.26  2.80352135752
-0.24  -0.24  3.31804643577
-0.24  -0.22  3.92700134792
-0.24  -0.2  3.43973222068
-0.24  -0.18  3.44012332684
-0.24  -0.16  3.42794142585
-0.24  -0.14  3.4043919052
-0.24  -0.12  3.37183952397
-0.24  -0.1  3.3336304635
-0.24  -0.08  3.29381203687
-0.24  -0.06  3.25674676449
-0.24  -0.04  3.22663559595
-0.24  -0.02  3.20699583801
-0.24  6.17561557e-16  3.20017422303
-0.24  0.02  3.20699583801
-0.24  0.04  3.22663559595
-0.24  0.06  3.25674676449
-0.24  0.08  3.29381203687
-0.24  0.1  3.3336304635
-0.24  0.12  3.37183952397
-0.24  0.14  3.4043919052
-0.24  0.16  3.42794142585
-0.24  0.18  3.44012332684
-0.24  0.2  4.64771662636
-0.24  0.22  3.92700134792
-0.24  0.24  3.31804643577
-0.24  0.26  2.80352135752
-0.24  0.28  2.36878300357
-0.24  0.3  2.00145895194
-0.24  0.32  1.69109535584
-0.24  0.34  1.42885943264
-0.24  0.36  1.20728808769
-0.24  0.38  1.02007551855
-0.24  0.4  0.861893755224
-0.24  0.42  0.72824102901
-0.24  0.44  0.615313654518
-0.24  0.46  0.519897778832
-0.24  0.48  0.439277916961
-0.24  0.5  0.371159670586
-0.24  0.52  0.313604430704
-0.24  0.54  0.26497420585
-0.24  0.56  0.223885005733
-0.24  0.58  0.189167453606
-0.24  0.6  0.159833506432
-0.24  0.62  0.135048335701
-0.24  0.64  0.114106568659
-0.24  0.66  0.0964122137714
-0.24  0.68  0.0814616991253
-0.24  0.7  0.0688295410384
-0.24  0.72  0.0581562350211
-0.24  0.74  0.0491380244704
-0.24  0.76  0.0415182559184
-0.24  0.78  0.0350800748114
-0.24  0.8  0.0296402539449
-0.24  0.82  0.0250439789152
-0.24  0.84  0.0211604421834
-0.24  0.86  0.0178791203632
-0.24  0.88  0.0151066287836
-0.24  0.9  0.0127640638113
-0.24  0.92  0.0107847572952
-0.24  0.94  0.00911237922615
-0.24  0.96  0.00769933461538
-0.24  0.98  0.00650540896603
-0.22  -1  0.00670318915728
-0.22  -0.98  0.00793341303853
-0.22  -0.96  0.00938941762842
-0.22  -0.94  0.0111126400419
-0.22  -0.92  0.0131521222708
-0.22  -0.9  0.0155659068929
-0.22  -0.88  0.0184226889326
-0.22  -0.86  0.0218037708848
-0.22  -0.84  0.0258053765406
-0.22  -0.82  0.0305413894653
-0.22  -0.8  0.0361465940635
-0.22  -0.78  0.042780511472
-0.22  -0.76  0.0506319394461
-0.22  -0.74  0.0599243254432
-0.22  -0.72  0.0709221258184
-0.22  -0.7  0.0839383321113
-0.22  -0.68  0.0993433786187
-0.22  -0.66  0.117575684758
-0.22  -0.64  0.139154132247
-0.22  -0.62  0.164692832208
-0.22  -0.6  0.194918602434
-0.22  -0.58  0.230691652246
-0.22  -0.56  0.273030063581
-0.22  -0.54  0.323138765072
-0.22  -0.52  0.382443823668
-0.22  -0.5  0.452633029742
-0.22  -0.48  0.535703930707
-0.22  -0.46  0.634020680149
-0.22  -0.44  0.750381320381
-0.22  -0.42  0.888097413232
-0.22  -0.4  1.05108828534
-0.22  -0.38  1.24399257009
-0.22  -0.36  1.47230022066
-0.22  -0.34  1.74250875116
-0.22  -0.32  2.06230815241
-0.22  -0.3  2.44079974501
-0.22  -0.28  2.88875519803
-0.22  -0.26  3.41892308504
-0.22  -0.24  4.04639170165
-0.22  -0.22  4.78901847042
-0.22  -0.2  4.19478876596
-0.22  -0.18  4.19526572392
-0.22  -0.16  4.18040977057
-0.22  -0.14  4.15169088832
-0.22  -0.12  4.11199292512
-0.22  -0.1  4.0653965835
-0.22  -0.08  4.01683760333
-0.22  -0.06  3.97163612304
-0.22  -0.04  3.93491524378
-0.22  -0.02  3.9109643573
-0.22  6.17561557e-16  3.90264532778
-0.22  0.02  3.9109643573
-0.22  0.04  3.93491524378
-0.22  0.06  3.97163612304
-0.22  0.08  4.01683760333
-0.22  0.1  4.0653965835
-0.22  0.12  4.11199292512
-0.22  0.14  4.15169088832
-0.22  0.16  4.18040977057
-0.22  0.18  4.19526572392
-0.22  0.2  5.66793815355
-0.22  0.22  4.78901847042
-0.22  0.24  4.04639170165
-0.22  0.26  3.41892308504
-0.22  0.28  2.88875519803
-0.22  0.3  2.44079974501
-0.22  0.32  2.06230815241
-0.22  0.34  1.74250875116
-0.22  0.36  1.47230022066
-0.22  0.38  1.24399257009
-0.22  0.4  1.05108828534
-0.22  0.42  0.888097413232
-0.22  0.44  0.750381320381
-0.22  0.46  0.634020680149
-0.22  0.48  0.535703930707
-0.22  0.5  0.452633029742
-0.22  0.52  0.382443823668
-0.22  0.54  0.323138765072
-0.22  0.56  0.273030063581
-0.22  0.58  0.230691652246
-0.22  0.6  0.194918602435
-0.22  0.62  0.164692832208
-0.22  0.64  0.139154132247
-0.22  0.66  0.117575684758
-0.22  0.68  0.0993433786188
-0.22  0.7  0.0839383321113
-0.22  0.72  0.0709221258184
-0.22  0.74  0.0599243254432
-0.22  0.76  0.0506319394461
-0.22  0.78  0.042780511472
-0.22  0.8  0.0361465940635
-0.22  0.82  0.0305413894653
-0.22  0.84  0.0258053765406
-0.22  0.86  0.0218037708848
-0.22  0.88  0.0184226889326
-0.22  0.9  0.0155659068929
-0.22  0.92  0.0131521222708
-0.22  0.94  0.0111126400419
-0.22  0.96  0.00938941762842
-0.22  0.98  0.00793341303854
-0.2  -1  0.00817460801278
-0.2  -0.98  0.00967487866922
-0.2  -0.96  0.0114504912184
-0.2  -0.94  0.0135519786475
-0.2  -0.92  0.0160391481693
-0.2  -0.9  0.0189827833032
-0.2  -0.88  0.0224666583371
-0.2  -0.86  0.0265899224983
-0.2  -0.84  0.0314699216884
-0.2  -0.82  0.0372455380844
-0.2  -0.8  0.0440811426521
-0.2  -0.78  0.0521712730559
-0.2  -0.76  0.0617461700972
-0.2  -0.74  0.0730783302448
-0.2  -0.72  0.0864902607394
-0.2  -0.7  0.102363657978
-0.2  -0.68  0.121150270389
-0.2  -0.66  0.143384754954
-0.2  -0.64  0.169699893258
-0.2  -0.62  0.200844600119
-0.2  -0.6  0.237705237301
-0.2  -0.58  0.281330838901
-0.2  -0.56  0.3329629663
-0.2  -0.54  0.394071042338
-0.2  -0.52  0.466394170303
-0.2  -0.5  0.551990627888
-0.2  -0.48  0.653296444676
-0.2  -0.46  0.773194730242
-0.2  -0.44  0.915097725918
-0.2  -0.42  1.08304391537
-0.2  -0.4  1.28181295766
-0.2  -0.38  1.51706171386
-0.2  -0.36  1.79548523824
-0.2  -0.34  2.12500731597
-0.2  -0.32  2.51500596984
-0.2  -0.3  2.97658035377
-0.2  -0.28  3.52286662882
-0.2  -0.26  4.16941181135
-0.2  -0.24  4.93461623282
-0.2  -0.22  5.84025720342
-0.2  -0.2  5.11558797664
-0.2  -0.18  5.11616963178
-0.2  -0.16  5.09805264411
-0.2  -0.14  5.06302967228
-0.2  -0.12  5.0146175985
-0.2  -0.1  4.9577928814
-0.2  -0.08  4.89857470643
-0.2  -0.06  4.84345103703
-0.2  -0.04  4.79866954769
-0.2  -0.02  4.76946119568
-0.2  6.17561557e-16  4.75931605374
-0.2  0.02  4.76946119568
-0.2  0.04  4.79866954769
-0.2  0.06  4.84345103703
-0.2  0.08  4.89857470643
-0.2  0.1  4.9577928814
-0.2  0.12  5.0146175985
-0.2  0.14  5.06302967228
-0.2  0.16  5.09805264411
-0.2  0.18  5.11616963178
-0.2  0.2  6.91210878268
-0.2  0.22  5.84025720342
-0.2  0.24  4.93461623283
-0.2  0.26  4.16941181135
-0.2  0.28  3.52286662882
-0.2  0.3  2.97658035377
-0.2  0.32  2.51500596984
-0.2  0.34  2.12500731597
-0.2  0.36  1.79548523824
-0.2  0.38  1.51706171386
-0.2  0.4  1.28181295766
-0.2  0.42  1.08304391537
-0.2  0.44  0.915097725918
-0.2  0.46  0.773194730242
-0.2  0.48  0.653296444676
-0.2  0.5  0.551990627888
-0.2  0.52  0.466394170303
-0.2  0.54  0.394071042338
-0.2  0.56  0.3329629663
-0.2  0.58  0.281330838901
-0.2  0.6  0.237705237301
-0.2  0.62  0.200844600119
-0.2  0.64  0.169699893258
-0.2  0.66  0.143384754954
-0.2  0.68  0.121150270389
-0.2  0.7  0.102363657978
-0.2  0.72  0.0864902607394
-0.2  0.74  0.0730783302448
-0.2  0.76  0.0617461700972
-0.2  0.78  0.052171273056
-0.2  0.8  0.0440811426521
-0.2  0.82  0.0372455380844
-0.2  0.84  0.0314699216884
-0.2  0.86  0.0265899224983
-0.2  0.88  0.0224666583371
-0.2  0.9  0.0189827833032
-0.2  0.92  0.0160391481693
-0.2  0.94  0.0135519786475
-0.2  0.96  0.0114504912184
-0.2  0.98  0.00967487866923
-0.18  -1  0.00996901841716
-0.18  -0.98  0.0117986138891
-0.18  -0.96  0.0139639916267
-0.18  -0.94  0.0165267771268
-0.18  -0.92  0.0195599058995
-0.18  -0.9  0.0231496991737
-0.18  -0.88  0.0273983205536
-0.18  -0.86  0.0324266835404
-0.18  -0.84  0.0383778926657
-0.18  -0.82  0.0454213161708
-0.18  -0.8  0.0537574061364
-0.18  -0.78  0.0636234032419
-0.18  -0.76  0.075300088509
-0.18  -0.74  0.0891197741796
-0.18  -0.72  0.105475761146
-0.18  -0.7  0.124833532083
-0.18  -0.68  0.14774399884
-0.18  -0.66  0.174859181094
-0.18  -0.64  0.206950762488
-0.18  -0.62  0.244932052331
-0.18  -0.6  0.289883977899
-0.18  -0.58  0.343085847044
-0.18  -0.56  0.406051756621
-0.18  -0.54  0.480573682872
-0.18  -0.52  0.568772480116
-0.18  -0.5  0.673158239137
-0.18  -0.48  0.796701723025
-0.18  -0.46  0.942918913516
-0.18  -0.44  1.11597107396
-0.18  -0.42  1.32078317664
-0.18  -0.4  1.56318406489
-0.18  -0.38  1.85007233886
-0.18  -0.36  2.18961268599
-0.18  -0.34  2.59146824367
-0.18  -0.32  3.06707560698
-0.18  -0.3  3.62997030811
-0.18  -0.28  4.29617203039
-0.18  -0.26  5.0846405199
-0.18  -0.24  6.01781516982
-0.18  -0.22  7.12225363355
-0.18  -0.2  6.23851206982
-0.18  -0.18  6.23922140423
-0.18  -0.16  6.21712755173
-0.18  -0.14  6.17441667793
-0.18  -0.12  6.1153776568
-0.18  -0.1  6.04607933077
-0.18  -0.08  5.97386215827
-0.18  -0.06  5.90663827737
-0.18  -0.04  5.85202679126
-0.18  -0.02  5.81640690603
-0.18  6.17561557e-16  5.80403480126
-0.18  0.02  5.81640690603
-0.18  0.04  5.85202679126
-0.18  0.06  5.90663827737
-0.18  0.08  5.97386215827
-0.18  0.1  6.04607933077
-0.18  0.12  6.1153776568
-0.18  0.14  6.17441667793
-0.18  0.16  6.21712755173
-0.18  0.18  6.23922140423
-0.18  0.2  8.42938764137
-0.18  0.22  7.12225363355
-0.18  0.24  6.01781516982
-0.18  0.26  5.0846405199
-0.18  0.28  4.29617203039
-0.18  0.3  3.62997030811
-0.18  0.32  3.06707560698
-0.18  0.34  2.59146824367
-0.18  0.36  2.18961268599
-0.18  0.38  1.85007233886
-0.18  0.4  1.56318406489
-0.18  0.42  1.32078317664
-0.18  0.44  1.11597107396
-0.18  0.46  0.942918913516
-0.18  0.48  0.796701723026
-0.18  0.5  0.673158239137
-0.18  0.52  0.568772480117
-0.18  0.54  0.480573682872
-0.18  0.56  0.406051756621
-0.18  0.58  0.343085847044
-0.18  0.6  0.289883977899
-0.18  0.62  0.244932052331
-0.18  0.64  0.206950762488
-0.18  0.66  0.174859181094
-0.18  0.68  0.14774399884
-0.18  0.7  0.124833532083
-0.18  0.72  0.105475761146
-0.18  0.74  0.0891197741796
-0.18  0.76  0.075300088509
-0.18  0.78  0.0636234032419
-0.18  0.8  0.0537574061364
-0.18  0.82  0.0454213161708
-0.18  0.84  0.0383778926657
-0.18  0.86  0.0324266835404
-0.18  0.88  0.0273983205536
-0.18  0.9  0.0231496991737
-0.18  0.92  0.0195599058995
-0.18  0.94  0.0165267771268
-0.18  0.96  0.0139639916267
-0.18  0.98  0.0117986138891
-0.16  -1  0.0121573203322
-0.16  -0.98  0.0143885307985
-0.16  -0.96  0.0170292311859
-0.16  -0.94  0.0201545744207
-0.16  -0.92  0.0238535061063
-0.16  -0.9  0.0282312958681
-0.16  -0.88  0.0334125332703
-0.16  -0.86  0.0395446735692
-0.16  -0.84  0.0468022342108
-0.16  -0.82  0.0553917615047
-0.16  -0.8  0.0655577088216
-0.16  -0.78  0.0775893936063
-0.16  -0.76  0.0918292311982
-0.16  -0.74  0.108682479789
-0.16  -0.72  0.128628773855
-0.16  -0.7  0.152235774299
-0.16  -0.68  0.180175323777
-0.16  -0.66  0.213242566984
-0.16  -0.64  0.252378580044
-0.16  -0.62  0.298697153041
-0.16  -0.6  0.353516487885
-0.16  -0.58  0.418396713641
-0.16  -0.56  0.495184286972
-0.16  -0.54  0.586064541305
-0.16  -0.52  0.693623880263
-0.16  -0.5  0.820923385333
-0.16  -0.48  0.971585932611
-0.16  -0.46  1.14989929793
-0.16  -0.44  1.36093818467
-0.16  -0.42  1.61070864712
-0.16  -0.4  1.90631901957
-0.16  -0.38  2.25618221575
-0.16  -0.36  2.67025515584
-0.16  -0.34  3.16032213511
-0.16  -0.32  3.74033019871
-0.16  -0.3  4.42678606714
-0.16  -0.28  5.23922590872
-0.16  -0.26  6.20077132852
-0.16  -0.24  7.33878739693
-0.16  -0.22  8.68566144499
-0.16  -0.2  7.60792953283
-0.16  -0.18  7.60879457343
-0.16  -0.16  7.58185089342
-0.16  -0.14  7.52976454422
-0.16  -0.12  7.45776585168
-0.16  -0.1  7.37325583145
-0.16  -0.08  7.28518624799
-0.16  -0.06  7.2032060349
-0.16  -0.04  7.13660676678
-0.16  -0.02  7.09316795097
-0.16  6.17561557e-16  7.07808004215
-0.16  0.02  7.09316795097
-0.16  0.04  7.13660676678
-0.16  0.06  7.20320603491
-0.16  0.08  7.28518624799
-0.16  0.1  7.37325583145
-0.16  0.12  7.45776585168
-0.16  0.14  7.52976454422
-0.16  0.16  7.58185089342
-0.16  0.18  7.60879457343
-0.16  0.2  10.2797247906
-0.16  0.22  8.68566144499
-0.16  0.24  7.33878739693
-0.16  0.26  6.20077132852
-0.16  0.28  5.23922590872
-0.16  0.3  4.42678606714
-0.16  0.32  3.74033019871
-0.16  0.34  3.16032213511
-0.16  0.36  2.67025515584
-0.16  0.38  2.25618221575
-0.16  0.4  1.90631901957
-0.16  0.42  1.61070864712
-0.16  0.44  1.36093818467
-0.16  0.46  1.14989929793
-0.16  0.48  0.971585932611
-0.16  0.5  0.820923385333
-0.16  0.52  0.693623880263
-0.16  0.54  0.586064541305
-0.16  0.56  0.495184286972
-0.16  0.58  0.418396713641
-0.16  0.6  0.353516487885
-0.16  0.62  0.298697153041
-0.16  0.64  0.252378580045
-0.16  0.66  0.213242566984
-0.16  0.68  0.180175323777
-0.16  0.7  0.152235774299
-0.16  0.72  0.128628773855
-0.16  0.74  0.108682479789
-0.16  0.76  0.0918292311982
-0.16  0.78  0.0775893936063
-0.16  0.8  0.0655577088216
-0.16  0.82  0.0553917615047
-0.16  0.84  0.0468022342108
-0.16  0.86  0.0395446735692
-0.16  0.88  0.0334125332703
-0.16  0.9  0.0282312958681
-0.16  0.92  0.0238535061063
-0.16  0.94  0.0201545744207
-0.16  0.96  0.0170292311859
-0.16  0.98  0.0143885307985
-0.14  -1  0.0148259769895
-0.14  -0.98  0.0175469610655
-0.14  -0.96  0.0207673223054
-0.14  -0.94  0.0245787104746
-0.14  -0.92  0.0290895956499
-0.14  -0.9  0.0344283552201
-0.14  -0.88  0.0407469274386
-0.14  -0.86  0.0482251355044
-0.14  -0.84  0.0570758052353
-0.14  -0.82  0.0675508219766
-0.14  -0.8  0.0799482991243
-0.14  -0.78  0.0946210622734
-0.14  -0.76  0.111986690446
-0.14  -0.74  0.13253940017
-0.14  -0.72  0.156864110613
-0.14  -0.7  0.185653090076
-0.14  -0.68  0.219725657579
-0.14  -0.66  0.260051500239
-0.14  -0.64  0.307778270056
-0.14  -0.62  0.364264245473
-0.14  -0.6  0.431116987259
-0.14  -0.58  0.510239088828
-0.14  -0.56  0.603882323041
-0.14  -0.54  0.714711726456
-0.14  -0.52  0.84588144485
-0.14  -0.5  1.00112449853
-0.14  -0.48  1.1848590221
-0.14  -0.46  1.40231400221
-0.14  -0.44  1.65967809176
-0.14  -0.42  1.96427573563
-0.14  -0.4  2.32477562048
-0.14  -0.38  2.75143738099
-0.14  -0.36  3.25640358357
-0.14  -0.34  3.85404529731
-0.14  -0.32  4.56137108702
-0.14  -0.3  5.39851106783
-0.14  -0.28  6.38928979764
-0.14  -0.26  7.56190431125
-0.14  -0.24  8.94972659304
-0.14  -0.22  10.5922533258
-0.14  -0.2  9.2779481916
-0.14  -0.18  9.2790031175
-0.14  -0.16  9.24614502304
-0.14  -0.14  9.18262518531
-0.14  -0.12  9.0948220404
-0.14  -0.1  8.99176120289
-0.14  -0.08  8.88435944147
-0.14  -0.06  8.78438372976
-0.14  -0.04  8.70316523837
-0.14  -0.02  8.6501911564
-0.14  6.17561557e-16  8.63179129666
-0.14  0.02  8.6501911564
-0.14  0.04  8.70316523837
-0.14  0.06  8.78438372976
-0.14  0.08  8.88435944147
-0.14  0.1  8.99176120289
-0.14  0.12  9.0948220404
-0.14  0.14  9.18262518531
-0.14  0.16  9.24614502304
-0.14  0.18  9.2790031175
-0.14  0.2  12.5362299453
-0.14  0.22  10.5922533258
-0.14  0.24  8.94972659304
-0.14  0.26  7.56190431126
-0.14  0.28  6.38928979764
-0.14  0.3  5.39851106783
-0.14  0.32  4.56137108702
-0.14  0.34  3.85404529731
-0.14  0.36  3.25640358357
-0.14  0.38  2.75143738099
-0.14  0.4  2.32477562048
-0.14  0.42  1.96427573563
-0.14  0.44  1.65967809176
-0.14  0.46  1.40231400221
-0.14  0.48  1.1848590221
-0.14  0.5  1.00112449853
-0.14  0.52  0.84588144485
-0.14  0.54  0.714711726456
-0.14  0.56  0.603882323041
-0.14  0.58  0.510239088828
-0.14  0.6  0.431116987259
-0.14  0.62  0.364264245474
-0.14  0.64  0.307778270056
-0.14  0.66  0.260051500239
-0.14  0.68  0.219725657579
-0.14  0.7  0.185653090076
-0.14  0.72  0.156864110613
-0.14  0.74  0.13253940017
-0.14  0.76  0.111986690446
-0.14  0.78  0.0946210622734
-0.14  0.8  0.0799482991243
-0.14  0.82  0.0675508219766
-0.14  0.84  0.0570758052353
-0.14  0.86  0.0482251355044
-0.14  0.88  0.0407469274386
-0.14  0.9  0.0344283552201
-0.14  0.92  0.0290895956499
-0.14  0.94  0.0245787104746
-0.14  0.96  0.0207673223054
-0.14  0.98  0.0175469610655
-0.12  -1  0.0180804311876
-0.12  -0.98  0.0213986992102
-0.12  -0.96  0.0253259628124
-0.12  -0.94  0.0299739898242
-0.12  -0.92  0.035475060618
-0.12  -0.9  0.0419857327379
-0.12  -0.88  0.0496912964442
-0.12  -0.86  0.0588110479747
-0.12  -0.84  0.0696045305995
-0.12  -0.82  0.0823789210842
-0.12  -0.8  0.0974977717763
-0.12  -0.78  0.115391357112
-0.12  -0.76  0.136568918998
-0.12  -0.74  0.161633159563
-0.12  -0.72  0.19129739374
-0.12  -0.7  0.226405849832
-0.12  -0.68  0.267957695794
-0.12  -0.66  0.317135475027
-0.12  -0.64  0.375338760928
-0.12  -0.62  0.444223988008
-0.12  -0.6  0.52575159313
-0.12  -0.58  0.622241808504
-0.12  -0.56  0.736440694255
-0.12  -0.54  0.871598289834
-0.12  -0.52  1.03156110841
-0.12  -0.5  1.22088160657
-0.12  -0.48  1.44494774484
-0.12  -0.46  1.71013632615
-0.12  -0.44  2.02399447625
-0.12  -0.42  2.39545443087
-0.12  -0.4  2.83508774245
-0.12  -0.38  3.35540614081
-0.12  -0.36  3.97121761038
-0.12  -0.34  4.70004781751
-0.12  -0.32  5.56263888163
-0.12  -0.3  6.58353968488
-0.12  -0.28  7.79180452025
-0.12  -0.26  9.22181996126
-0.12  -0.24  10.9142834855
-0.12  -0.22  12.9173617033
-0.12  -0.2  11.3145530955
-0.12  -0.18  11.3158395885
-0.12  -0.16  11.2757688049
-0.12  -0.14  11.1983057105
-0.12  -0.12  11.0912288736
-0.12  -0.1  10.9655451239
-0.12  -0.08  10.8345675729
-0.12  -0.06  10.7126461658
-0.12  -0.04  10.6135993816
-0.12  -0.02  10.5489969446
-0.12  6.17561557e-16  10.5265581267
-0.12  0.02  10.5489969446
-0.12  0.04  10.6135993816
-0.12  0.06  10.7126461658
-0.12  0.08  10.8345675729
-0.12  0.1  10.9655451239
-0.12  0.12  11.0912288736
-0.12  0.14  11.1983057105
-0.12  0.16  11.2757688049
-0.12  0.18  11.3158395885
-0.12  0.2  15.2880611536
-0.12  0.22  12.9173617033
-0.12  0.24  10.9142834855
-0.12  0.26  9.22181996126
-0.12  0.28  7.79180452025
-0.12  0.3  6.58353968488
-0.12  0.32  5.56263888163
-0.12  0.34  4.70004781752
-0.12  0.36  3.97121761038
-0.12  0.38  3.35540614081
-0.12  0.4  2.83508774245
-0.12  0.42  2.39545443087
-0.12  0.44  2.02399447625
-0.12  0.46  1.71013632615
-0.12  0.48  1.44494774484
-0.12  0.5  1.22088160657
-0.12  0.52  1.03156110841
-0.12  0.54  0.871598289834
-0.12  0.56  0.736440694256
-0.12  0.58  0.622241808505
-0.12  0.6  0.52575159313
-0.12  0.62  0.444223988008
-0.12  0.64  0.375338760929
-0.12  0.66  0.317135475027
-0.12  0.68  0.267957695794
-0.12  0.7  0.226405849832
-0.12  0.72  0.19129739374
-0.12  0.74  0.161633159563
-0.12  0.76  0.136568918998
-0.12  0.78  0.115391357112
-0.12  0.8  0.0974977717763
-0.12  0.82  0.0823789210842
-0.12  0.84  0.0696045305996
-0.12  0.86  0.0588110479747
-0.12  0.88  0.0496912964442
-0.12  0.9  0.041985732738
-0.12  0.92  0.035475060618
-0.12  0.94  0.0299739898242
-0.12  0.96  0.0253259628125
-0.12  0.98  0.0213986992102
-0.1  -1  0.0220492715023
-0.1  -0.98  0.0260959334315
-0.1  -0.96  0.0308852717237
-0.1  -0.94  0.0365535883954
-0.1  -0.92  0.0432622007193
-0.1  -0.9  0.0512020322281
-0.1  -0.88  0.0605990462968
-0.1  -0.86  0.0717206769396
-0.1  -0.84  0.0848834398396
-0.1  -0.82  0.100461940217
-0.1  -0.8  0.118899533892
-0.1  -0.78  0.14072094496
-0.1  -0.76  0.166547199153
-0.1  -0.74  0.197113297908
-0.1  -0.72  0.233289136112
-0.1  -0.7  0.276104258846
-0.1  -0.68  0.326777161696
-0.1  -0.66  0.38674996848
-0.1  -0.64  0.45772947333
-0.1  -0.62  0.541735715141
-0.1  -0.6  0.6411594668
-0.1  -0.58  0.758830275313
-0.1  -0.56  0.898096989202
-0.1  -0.54  1.06292306495
-0.1  -0.52  1.25799936487
-0.1  -0.5  1.48887765652
-0.1  -0.48  1.7621286131
-0.1  -0.46  2.08552881124
-0.1  -0.44  2.46828204831
-0.1  -0.42  2.92128127753
-0.1  -0.4  3.45741861562
-0.1  -0.38  4.0919522456
-0.1  -0.36  4.84294065655
-0.1  -0.34  5.73175657855
-0.1  -0.32  6.78369523925
-0.1  -0.3  8.02869425251
-0.1  -0.28  9.50218562699
-0.1  -0.26  11.2461041422
-0.1  -0.24  13.3100807901
-0.1  -0.22  15.7528552464
-0.1  -0.2  13.7982136898
-0.1  -0.18  13.7997825812
-0.1  -0.16  13.7509158491
-0.1  -0.14  13.65644881
-0.1  -0.12  13.5258675079
-0.1  -0.1  13.3725948845
-0.1  -0.08  13.2128664161
-0.1  -0.06  13.0641820081
-0.1  -0.04  12.9433934375
-0.1  -0.02  12.8646101023
-0.1  6.17561557e-16  12.8372457334
-0.1  0.02  12.8646101023
-0.1  0.04  12.9433934375
-0.1  0.06  13.0641820081
-0.1  0.08  13.2128664161
-0.1  0.1  13.3725948845
-0.1  0.12  13.5258675079
-0.1  0.14  13.65644881
-0.1  0.16  13.7509158491
-0.1  0.18  13.7997825812
-0.1  0.2  18.6439475709
-0.1  0.22  15.7528552464
-0.1  0.24  13.3100807901
-0.1  0.26  11.2461041422
-0.1  0.28  9.50218562699
-0.1  0.3  8.02869425251
-0.1  0.32  6.78369523925
-0.1  0.34  5.73175657855
-0.1  0.36  4.84294065655
-0.1  0.38  4.0919522456
-0.1  0.4  3.45741861562
-0.1  0.42  2.92128127753
-0.1  0.44  2.46828204831
-0.1  0.46  2.08552881124
-0.1  0.48  1.7621286131
-0.1  0.5  1.48887765652
-0.1  0.52  1.25799936487
-0.1  0.54  1.06292306495
-0.1  0.56  0.898096989202
-0.1  0.58  0.758830275313
-0.1  0.6  0.6411594668
-0.1  0.62  0.541735715141
-0.1  0.64  0.45772947333
-0.1  0.66  0.38674996848
-0.1  0.68  0.326777161696
-0.1  0.7  0.276104258846
-0.1  0.72  0.233289136112
-0.1  0.74  0.197113297908
-0.1  0.76  0.166547199153
-0.1  0.78  0.14072094496
-0.1  0.8  0.118899533892
-0.1  0.82  0.100461940217
-0.1  0.84  0.0848834398396
-0.1  0.86  0.0717206769396
-0.1  0.88  0.0605990462968
-0.1  0.9  0.0512020322281
-0.1  0.92  0.0432622007193
-0.1  0.94  0.0365535883954
-0.1  0.96  0.0308852717237
-0.1  0.98  0.0260959334315
-0.08  -1  0.0268893130225
-0.08  -0.98  0.0318242588005
-0.08  -0.96  0.0376649060299
-0.08  -0.94  0.0445774764194
-0.08  -0.92  0.0527586980395
-0.08  -0.9  0.0624414040992
-0.08  -0.88  0.0739011592545
-0.08  -0.86  0.0874641020321
-0.08  -0.84  0.103516226558
-0.08  -0.82  0.122514367744
-0.08  -0.8  0.144999202568
-0.08  -0.78  0.171610637451
-0.08  -0.76  0.203106019651
-0.08  -0.74  0.240381690968
-0.08  -0.72  0.284498497149
-0.08  -0.7  0.336711978995
-0.08  -0.68  0.398508104384
-0.08  -0.66  0.471645558122
-0.08  -0.64  0.55820579318
-0.08  -0.62  0.660652267733
-0.08  -0.6  0.78190055387
-0.08  -0.58  0.925401313221
-0.08  -0.56  1.09523850095
-0.08  -0.54  1.29624559293
-0.08  -0.52  1.53414314393
-0.08  -0.5  1.81570159151
-0.08  -0.48  2.14893393908
-0.08  -0.46  2.54332380174
-0.08  -0.44  3.01009530487
-0.08  -0.42  3.56253251677
-0.08  -0.4  4.2163575062
-0.08  -0.38  4.99017778403
-0.08  -0.36  5.90601586313
-0.08  -0.34  6.98993600733
-0.08  -0.32  8.27278600647
-0.08  -0.3  9.79107508812
-0.08  -0.28  11.5880129507
-0.08  -0.26  13.7147394884
-0.08  -0.24  16.2317802056
-0.08  -0.22  19.2107687401
-0.08  -0.2  16.8270632895
-0.08  -0.18  16.8289765687
-0.08  -0.16  16.769383087
-0.08  -0.14  16.6541795628
-0.08  -0.12  16.4949343239
-0.08  -0.1  16.3080167857
-0.08  -0.08  16.1132262782
-0.08  -0.06  15.9319041158
-0.08  -0.04  15.7846012136
-0.08  -0.02  15.6885241272
-0.08  6.17561557e-16  15.6551529984
-0.08  0.02  15.6885241272
-0.08  0.04  15.7846012136
-0.08  0.06  15.9319041158
-0.08  0.08  16.1132262782
-0.08  0.1  16.3080167857
-0.08  0.12  16.4949343239
-0.08  0.14  16.6541795628
-0.08  0.16  16.769383087
-0.08  0.18  16.8289765687
-0.08  0.2  22.7364855186
-0.08  0.22  19.2107687401
-0.08  0.24  16.2317802056
-0.08  0.26  13.7147394884
-0.08  0.28  11.5880129507
-0.08  0.3  9.79107508812
-0.08  0.32  8.27278600647
-0.08  0.34  6.98993600733
-0.08  0.36  5.90601586313
-0.08  0.38  4.99017778403
-0.08  0.4  4.2163575062
-0.08  0.42  3.56253251677
-0.08  0.44  3.01009530487
-0.08  0.46  2.54332380174
-0.08  0.48  2.14893393908
-0.08  0.5  1.81570159151
-0.08  0.52  1.53414314393
-0.08  0.54  1.29624559293
-0.08  0.56  1.09523850095
-0.08  0.58  0.925401313221
-0.08  0.6  0.78190055387
-0.08  0.62  0.660652267733
-0.08  0.64  0.55820579318
-0.08  0.66  0.471645558122
-0.08  0.68  0.398508104384
-0.08  0.7  0.336711978995
-0.08  0.72  0.284498497149
-0.08  0.74  0.240381690968
-0.08  0.76  0.203106019651
-0.08  0.78  0.171610637451
-0.08  0.8  0.144999202568
-0.08  0.82  0.122514367744
-0.08  0.84  0.103516226558
-0.08  0.86  0.0874641020321
-0.08  0.88  0.0739011592545
-0.08  0.9  0.0624414040992
-0.08  0.92  0.0527586980395
-0.08  0.94  0.0445774764194
-0.08  0.96  0.0376649060299
-0.08  0.98  0.0318242588005
-0.06  -1  0.032791793359
-0.06  -0.98  0.0388100104126
-0.06  -0.96  0.0459327396869
-0.06  -0.94  0.0543626902624
-0.06  -0.92  0.0643397740417
-0.06  -0.9  0.0761479335138
-0.06  -0.88  0.0901232226066
-0.06  -0.86  0.106663370603
-0.06  -0.84  0.126239101302
-0.06  -0.82  0.149407529572
-0.06  -0.8  0.176828016538
-0.06  -0.78  0.209280934652
-0.06  -0.76  0.247689876674
-0.06  -0.74  0.293147940631
-0.06  -0.72  0.346948838807
-0.06  -0.7  0.410623716102
-0.06  -0.68  0.485984725602
-0.06  -0.66  0.575176601488
-0.06  -0.64  0.680737697034
-0.06  -0.62  0.805672224781
-0.06  -0.6  0.953535754832
-0.06  -0.58  1.12853640448
-0.06  -0.56  1.33565459898
-0.06  -0.54  1.58078481181
-0.06  -0.52  1.87090331824
-0.06  -0.5  2.2142667364
-0.06  -0.48  2.62064700625
-0.06  -0.46  3.10160949378
-0.06  -0.44  3.67084213515
-0.06  -0.42  4.34454498808
-0.06  -0.4  5.14189127686
-0.06  -0.38  6.08557305209
-0.06  -0.36  7.20244699435
-0.06  -0.34  8.52429874104
-0.06  -0.32  10.0887474887
-0.06  -0.3  11.9403166151
-0.06  -0.28  14.1317007914
-0.06  -0.26  16.7252656437
-0.06  -0.24  19.7948226459
-0.06  -0.22  23.4277297552
-0.06  -0.2  20.5207764798
-0.06  -0.18  20.5231097433
-0.06  -0.16  20.4504348805
-0.06  -0.14  20.3099429997
-0.06  -0.12  20.1157417955
-0.06  -0.1  19.8877939382
-0.06  -0.08  19.650244914
-0.06  -0.06  19.429120675
-0.06  -0.04  19.2494832731
-0.06  -0.02  19.1323162796
-0.06  6.17561557e-16  19.0916198453
-0.06  0.02  19.1323162796
-0.06  0.04  19.2494832731
-0.06  0.06  19.429120675
-0.06  0.08  19.650244914
-0.06  0.1  19.8877939382
-0.06  0.12  20.1157417955
-0.06  0.14  20.3099429997
-0.06  0.16  20.4504348805
-0.06  0.18  20.5231097433
-0.06  0.2  27.7273775724
-0.06  0.22  23.4277297552
-0.06  0.24  19.7948226459
-0.06  0.26  16.7252656437
-0.06  0.28  14.1317007914
-0.06  0.3  11.9403166151
-0.06  0.32  10.0887474887
-0.06  0.34  8.52429874104
-0.06  0.36  7.20244699435
-0.06  0.38  6.08557305209
-0.06  0.4  5.14189127686
-0.06  0.42  4.34454498808
-0.06  0.44  3.67084213515
-0.06  0.46  3.10160949378
-0.06  0.48  2.62064700626
-0.06  0.5  2.2142667364
-0.06  0.52  1.87090331824
-0.06  0.54  1.58078481181
-0.06  0.56  1.33565459898
-0.06  0.58  1.12853640448
-0.06  0.6  0.953535754832
-0.06  0.62  0.805672224781
-0.06  0.64  0.680737697034
-0.06  0.66  0.575176601489
-0.06  0.68  0.485984725602
-0.06  0.7  0.410623716102
-0.06  0.72  0.346948838807
-0.06  0.74  0.293147940631
-0.06  0.76  0.247689876674
-0.06  0.78  0.209280934652
-0.06  0.8  0.176828016538
-0.06  0.82  0.149407529572
-0.06  0.84  0.126239101302
-0.06  0.86  0.106663370603
-0.06  0.88  0.0901232226066
-0.06  0.9  0.0761479335138
-0.06  0.92  0.0643397740417
-0.06  0.94  0.0543626902624
-0.06  0.96  0.0459327396869
-0.06  0.98  0.0388100104126
-0.04  -1  0.0399899287424
-0.04  -0.98  0.0473292062407
-0.04  -0.96  0.0560154477344
-0.04  -0.94  0.066295859029
-0.04  -0.92  0.0784630151531
-0.04  -0.9  0.0928631868881
-0.04  -0.88  0.10990619545
-0.04  -0.86  0.130077075783
-0.04  -0.84  0.153949880395
-0.04  -0.82  0.182204016589
-0.04  -0.8  0.215643582027
-0.04  -0.78  0.255220248928
-0.04  -0.76  0.302060348147
-0.04  -0.74  0.357496923954
-0.04  -0.72  0.423107671765
-0.04  -0.7  0.500759838508
-0.04  -0.68  0.59266336348
-0.04  -0.66  0.701433772041
-0.04  -0.64  0.830166612073
-0.04  -0.62  0.982525551621
-0.04  -0.6  1.16284664494
-0.04  -0.58  1.37626173427
-0.04  -0.56  1.62884449938
-0.04  -0.54  1.92778331119
-0.04  -0.52  2.28158580902
-0.04  -0.5  2.70032102349
-0.04  -0.48  3.19590593572
-0.04  -0.46  3.78244462829
-0.04  -0.44  4.47662967993
-0.04  -0.42  5.29821722738
-0.04  -0.4  6.27058921454
-0.04  -0.38  7.42141883016
-0.04  -0.36  8.783458072
-0.04  -0.34  10.3954698513
-0.04  -0.32  12.3033311644
-0.04  -0.3  14.561338728
-0.04  -0.28  17.2337542345
-0.04  -0.26  20.3966332053
-0.04  -0.24  24.139989491
-0.04  -0.22  28.5703570173
-0.04  -0.2  25.0252976463
-0.04  -0.18  25.0281430852
-0.04  -0.16  24.9395153436
-0.04  -0.14  24.7681840522
-0.04  -0.12  24.5313536895
-0.04  -0.1  24.2533689367
-0.04  -0.08  23.9636754623
-0.04  -0.06  23.694012182
-0.04  -0.04  23.4749425258
-0.04  -0.02  23.332056174
-0.04  6.17561557e-16  23.2824264545
-0.04  0.02  23.332056174
-0.04  0.04  23.4749425258
-0.04  0.06  23.694012182
-0.04  0.08  23.9636754623
-0.04  0.1  24.2533689367
-0.04  0.12  24.5313536895
-0.04  0.14  24.7681840522
-0.04  0.16  24.9395153436
-0.04  0.18  25.0281430852
-0.04  0.2  33.8138216838
-0.04  0.22  28.5703570173
-0.04  0.24  24.139989491
-0.04  0.26  20.3966332053
-0.04  0.28  17.2337542345
-0.04  0.3  14.561338728
-0.04  0.32  12.3033311644
-0.04  0.34  10.3954698513
-0.04  0.36  8.783458072
-0.04  0.38  7.42141883016
-0.04  0.4  6.27058921454
-0.04  0.42  5.29821722738
-0.04  0.44  4.47662967993
-0.04  0.46  3.7824446283
-0.04  0.48  3.19590593572
-0.04  0.5  2.70032102349
-0.04  0.52  2.28158580902
-0.04  0.54  1.92778331119
-0.04  0.56  1.62884449938
-0.04  0.58  1.37626173428
-0.04  0.6  1.16284664494
-0.04  0.62  0.982525551621
-0.04  0.64  0.830166612073
-0.04  0.66  0.701433772041
-0.04  0.68  0.59266336348
-0.04  0.7  0.500759838508
-0.04  0.72  0.423107671765
-0.04  0.74  0.357496923955
-0.04  0.76  0.302060348147
-0.04  0.78  0.255220248928
-0.04  0.8  0.215643582027
-0.04  0.82  0.182204016589
-0.04  0.84  0.153949880396
-0.04  0.86  0.130077075783
-0.04  0.88  0.10990619545
-0.04  0.9  0.0928631868881
-0.04  0.92  0.0784630151531
-0.04  0.94  0.066295859029
-0.04  0.96  0.0560154477344
-0.04  0.98  0.0473292062407
-0.02  -1  0.0487681287605
-0.02  -0.98  0.0577184530372
-0.02  -0.96  0.0683114137384
-0.02  -0.94  0.0808484808823
-0.02  -0.92  0.095686452721
-0.02  -0.9  0.113247610028
-0.02  -0.88  0.134031733985
-0.02  -0.86  0.158630329687
-0.02  -0.84  0.187743460064
-0.02  -0.82  0.222199669295
-0.02  -0.8  0.26297956274
-0.02  -0.78  0.31124371444
-0.02  -0.76  0.368365696442
-0.02  -0.74  0.435971169921
-0.02  -0.72  0.515984150638
-0.02  -0.7  0.610681765395
-0.02  -0.68  0.722759057862
-0.02  -0.66  0.855405688073
-0.02  -0.64  1.01239670846
-0.02  -0.62  1.19819999982
-0.02  -0.6  1.41810342485
-0.02  -0.58  1.67836531787
-0.02  -0.56  1.9863925937
-0.02  -0.54  2.35095154452
-0.02  -0.52  2.78241732386
-0.02  -0.5  3.29306921792
-0.02  -0.48  3.89744010758
-0.02  -0.46  4.61273006637
-0.02  -0.44  5.45929586547
-0.02  -0.42  6.46123031652
-0.02  -0.4  7.64704794022
-0.02  -0.38  9.05049647441
-0.02  -0.36  10.7115173167
-0.02  -0.34  12.6773822354
-0.02  -0.32  15.0040386987
-0.02  -0.3  17.7577021102
-0.02  -0.28  21.0167402635
-0.02  -0.26  24.8739036482
-0.02  -0.24  29.4389650794
-0.02  -0.22  34.8418437735
-0.02  -0.2  30.518607466
-0.02  -0.18  30.522077508
-0.02  -0.16  30.4139950671
-0.02  -0.14  30.2050547978
-0.02  -0.12  29.9162377384
-0.02  -0.1  29.5772324777
-0.02  -0.08  29.2239483108
-0.02  -0.06  28.8950911713
-0.02  -0.04  28.6279334759
-0.02  -0.02  28.4536821026
-0.02  6.17561557e-16  28.39315815
-0.02  0.02  28.4536821026
-0.02  0.04  28.6279334759
-0.02  0.06  28.8950911713
-0.02  0.08  29.2239483108
-0.02  0.1  29.5772324777
-0.02  0.12  29.9162377384
-0.02  0.14  30.2050547978
-0.02  0.16  30.4139950671
-0.02  0.18  30.522077508
-0.02  0.2  41.2363027797
-0.02  0.22  34.8418437735
-0.02  0.24  29.4389650794
-0.02  0.26  24.8739036482
-0.02  0.28  21.0167402635
-0.02  0.3  17.7577021102
-0.02  0.32  15.0040386987
-0.02  0.34  12.6773822354
-0.02  0.36  10.7115173167
-0.02  0.38  9.05049647441
-0.02  0.4  7.64704794022
-0.02  0.42  6.46123031652
-0.02  0.44  5.45929586547
-0.02  0.46  4.61273006637
-0.02  0.48  3.89744010758
-0.02  0.5  3.29306921792
-0.02  0.52  2.78241732386
-0.02  0.54  2.35095154452
-0.02  0.56  1.9863925937
-0.02  0.58  1.67836531787
-0.02  0.6  1.41810342485
-0.02  0.62  1.19819999982
-0.02  0.64  1.01239670846
-0.02  0.66  0.855405688073
-0.02  0.68  0.722759057862
-0.02  0.7  0.610681765396
-0.02  0.72  0.515984150638
-0.02  0.74  0.435971169922
-0.02  0.76  0.368365696442
-0.02  0.78  0.31124371444
-0.02  0.8  0.26297956274
-0.02  0.82  0.222199669295
-0.02  0.84  0.187743460064
-0.02  0.86  0.158630329687
-0.02  0.88  0.134031733985
-0.02  0.9  0.113247610028
-0.02  0.92  0.095686452721
-0.02  0.94  0.0808484808823
-0.02  0.96  0.0683114137384
-0.02  0.98  0.0577184530372
2.8449465e-16  -1  0.0594732338265
2.8449465e-16  -0.98  0.0703882461934
2.8449465e-16  -0.96  0.0833064705483
2.8449465e-16  -0.94  0.0985955526743
2.8449465e-16  -0.92  0.116690611704
2.8449465e-16  -0.9  0.138106623376
2.8449465e-16  -0.88  0.163453075975
2.8449465e-16  -0.86  0.193451316039
2.8449465e-16  -0.84  0.228955077497
2.8449465e-16  -0.82  0.270974778488
2.8449465e-16  -0.8  0.320706277315
2.8449465e-16  -0.78  0.379564905942
2.8449465e-16  -0.76  0.449225749582
2.8449465e-16  -0.74  0.531671318735
2.8449465e-16  -0.72  0.629247970377
2.8449465e-16  -0.7  0.74473268403
2.8449465e-16  -0.68  0.881412093122
2.8449465e-16  -0.66  1.04317602082
2.8449465e-16  -0.64  1.23462818233
2.8449465e-16  -0.62  1.46121720417
2.8449465e-16  -0.6  1.7293916892
2.8449465e-16  -0.58  2.04678374038
2.8449465e-16  -0.56  2.42242616642
2.8449465e-16  -0.54  2.86700955062
2.8449465e-16  -0.52  3.39318649927
2.8449465e-16  -0.5  4.01593172799
2.8449465e-16  -0.48  4.75296823426
2.8449465e-16  -0.46  5.62527168437
2.8449465e-16  -0.44  6.65766736981
2.8449465e-16  -0.42  7.87953672179
2.8449465e-16  -0.4  9.32565349113
2.8449465e-16  -0.38  11.0371733907
2.8449465e-16  -0.36  13.062805365
2.8449465e-16  -0.34  15.4601978209
2.8449465e-16  -0.32  18.2975792705
2.8449465e-16  -0.3  21.6557000784
2.8449465e-16  -0.28  25.6301305736
2.8449465e-16  -0.26  30.3339809307
2.8449465e-16  -0.24  35.901120225
2.8449465e-16  -0.22  42.4899862749
2.8449465e-16  -0.2  37.2177552024
2.8449465e-16  -0.18  37.2219869542
2.8449465e-16  -0.16  37.0901793076
2.8449465e-16  -0.14  36.8353745035
2.8449465e-16  -0.12  36.4831591337
2.8449465e-16  -0.1  36.0697387371
2.8449465e-16  -0.08  35.6389050676
2.8449465e-16  -0.06  35.237860409
2.8449465e-16  -0.04  34.9120588559
2.8449465e-16  -0.02  34.6995575168
2.8449465e-16  6.17561557e-16  34.6257479351
2.8449465e-16  0.02  34.6995575168
2.8449465e-16  0.04  34.9120588559
2.8449465e-16  0.06  35.237860409
2.8449465e-16  0.08  35.6389050676
2.8449465e-16  0.1  36.0697387371
2.8449465e-16  0.12  36.4831591337
2.8449465e-16  0.14  36.8353745035
2.8449465e-16  0.16  37.0901793076
2.8449465e-16  0.18  37.2219869542
2.8449465e-16  0.2  50.2880946981
2.8449465e-16  0.22  42.4899862749
2.8449465e-16  0.24  35.901120225
2.8449465e-16  0.26  30.3339809307
2.8449465e-16  0.28  25.6301305736
2.8449465e-16  0.3  21.6557000784
2.8449465e-16  0.32  18.2975792705
2.8449465e-16  0.34  15.4601978209
2.8449465e-16  0.36  13.062805365
2.8449465e-16  0.38  11.0371733907
2.8449465e-16  0.4  9.32565349113
2.8449465e-16  0.42  7.87953672179
2.8449465e-16  0.44  6.65766736981
2.8449465e-16  0.46  5.62527168437
2.8449465e-16  0.48  4.75296823426
2.8449465e-16  0.5  4.015931728
2.8449465e-16  0.52  3.39318649927
2.8449465e-16  0.54  2.86700955062
2.8449465e-16  0.56  2.42242616642
2.8449465e-16  0.58  2.04678374038
2.8449465e-16  0.6  1.7293916892
2.8449465e-16  0.62  1.46121720417
2.8449465e-16  0.64  1.23462818233
2.8449465e-16  0.66  1.04317602082
2.8449465e-16  0.68  0.881412093122
2.8449465e-16  0.7  0.744732684031
2.8449465e-16  0.72  0.629247970377
2.8449465e-16  0.74  0.531671318736
2.8449465e-16  0.76  0.449225749582
2.8449465e-16  0.78  0.379564905942
2.8449465e-16  0.8  0.320706277315
2.8449465e-16  0.82  0.270974778488
2.8449465e-16  0.84  0.228955077497
2.8449465e-16  0.86  0.193451316039
2.8449465e-16  0.88  0.163453075975
2.8449465e-16  0.9  0.138106623376
2.8449465e-16  0.92  0.116690611704
2.8449465e-16  0.94  0.0985955526743
2.8449465e-16  0.96  0.0833064705483
2.8449465e-16  0.98  0.0703882461934
0.02  -1  0.0707160458543
0.02  -0.98  0.0836944306734
0.02  -0.96  0.099054714402
0.02  -0.94  0.117234042532
0.02  -0.92  0.138749789058
0.02  -0.9  0.164214280662
0.02  -0.88  0.19435222321
0.02  -0.86  0.230021326492
0.02  -0.84  0.272236714185
0.02  -0.82  0.322199813731
0.02  -0.8  0.381332548328
0.02  -0.78  0.451317804099
0.02  -0.76  0.53414732414
0.02  -0.74  0.632178392464
0.02  -0.72  0.748200921051
0.02  -0.7  0.885516849255
0.02  -0.68  1.04803411524
0.02  -0.66  1.24037787381
0.02  -0.64  1.46802212588
0.02  -0.62  1.73744550557
0.02  -0.6  2.05631565874
0.02  -0.58  2.43370746008
0.02  -0.56  2.8803612792
0.02  -0.54  3.40898864585
0.02  -0.52  4.03463401325
0.02  -0.5  4.77510291525
0.02  -0.48  5.65146870234
0.02  -0.46  6.68867227793
0.02  -0.44  7.91623190323
0.02  -0.42  9.36908327121
0.02  -0.4  11.0885737578
0.02  -0.38  13.1236391462
0.02  -0.36  15.5321963132
0.02  -0.34  18.3827915127
0.02  -0.32  21.7565511654
0.02  -0.3  25.7494906737
0.02  -0.28  30.4752469687
0.02  -0.26  36.0683125571
0.02  -0.24  42.6878631059
0.02  -0.22  50.5222874971
0.02  -0.2  44.2533945802
0.02  -0.18  44.2584263017
0.02  -0.16  44.1017017556
0.02  -0.14  43.7987286861
0.02  -0.12  43.3799305707
0.02  -0.1  42.8883572386
0.02  -0.08  42.3760788308
0.02  -0.06  41.8992207446
0.02  -0.04  41.5118297102
0.02  -0.02  41.2591571469
0.02  6.17561557e-16  41.1713946119
0.02  0.02  41.2591571469
0.02  0.04  41.5118297102
0.02  0.06  41.8992207446
0.02  0.08  42.3760788308
0.02  0.1  42.8883572386
0.02  0.12  43.3799305707
0.02  0.14  43.7987286861
0.02  0.16  44.1017017556
0.02  0.18  44.2584263017
0.02  0.2  59.7945492752
0.02  0.22  50.5222874971
0.02  0.24  42.6878631059
0.02  0.26  36.0683125571
0.02  0.28  30.4752469687
0.02  0.3  25.7494906737
0.02  0.32  21.7565511654
0.02  0.34  18.3827915127
0.02  0.36  15.5321963132
0.02  0.38  13.1236391462
0.02  0.4  11.0885737578
0.02  0.42  9.36908327121
0.02  0.44  7.91623190323
0.02  0.46  6.68867227793
0.02  0.48  5.65146870234
0.02  0.5  4.77510291525
0.02  0.52  4.03463401325
0.02  0.54  3.40898864585
0.02  0.56  2.8803612792
0.02  0.58  2.43370746008
0.02  0.6  2.05631565874
0.02  0.62  1.73744550557
0.02  0.64  1.46802212588
0.02  0.66  1.24037787381
0.02  0.68  1.04803411524
0.02  0.7  0.885516849255
0.02  0.72  0.748200921052
0.02  0.74  0.632178392464
0.02  0.76  0.53414732414
0.02  0.78  0.451317804099
0.02  0.8  0.381332548328
0.02  0.82  0.322199813731
0.02  0.84  0.272236714185
0.02  0.86  0.230021326492
0.02  0.88  0.19435222321
0.02  0.9  0.164214280662
0.02  0.92  0.138749789058
0.02  0.94  0.117234042532
0.02  0.96  0.099054714402
0.02  0.98  0.0836944306734
0.04  -1  0.0807106693434
0.04  -0.98  0.0955233488858
0.04  -0.96  0.113054572048
0.04  -0.94  0.133803268103
0.04  -0.92  0.158359933885
0.04  -0.9  0.187423439021
0.04  -0.88  0.221820915383
0.04  -0.86  0.262531296825
0.04  -0.84  0.310713179113
0.04  -0.82  0.36773779295
0.04  -0.8  0.435228028465
0.04  -0.78  0.515104621807
0.04  -0.76  0.609640818269
0.04  -0.74  0.721527067639
0.04  -0.72  0.853947592967
0.04  -0.7  1.01067101186
0.04  -0.68  1.19615758932
0.04  -0.66  1.41568617454
0.04  -0.64  1.67550443409
0.04  -0.62  1.98300665723
0.04  -0.6  2.34694419341
0.04  -0.58  2.77767451102
0.04  -0.56  3.28745596543
0.04  -0.54  3.89079666526
0.04  -0.52  4.6048673654
0.04  -0.5  5.44999013757
0.04  -0.48  6.45021672562
0.04  -0.46  7.6340130454
0.04  -0.44  9.03506930951
0.04  -0.42  10.6932588328
0.04  -0.4  12.6557728058
0.04  -0.38  14.9784633306
0.04  -0.36  17.7274329421
0.04  -0.34  20.9809158511
0.04  -0.32  24.8315044478
0.04  -0.3  29.3887844324
0.04  -0.28  34.7824535653
0.04  -0.26  41.1660127967
0.04  -0.24  48.7211348216
0.04  -0.22  57.6628343877
0.04  -0.2  50.5079300481
0.04  -0.18  50.513672926
0.04  -0.16  50.33479778
0.04  -0.14  49.9890041353
0.04  -0.12  49.5110153592
0.04  -0.1  48.9499657107
0.04  -0.08  48.3652846432
0.04  -0.06  47.8210300139
0.04  -0.04  47.3788872258
0.04  -0.02  47.0905032888
0.04  6.17561557e-16  46.9903368717
0.04  0.02  47.0905032888
0.04  0.04  47.3788872258
0.04  0.06  47.8210300139
0.04  0.08  48.3652846432
0.04  0.1  48.9499657107
0.04  0.12  49.5110153592
0.04  0.14  49.9890041353
0.04  0.16  50.33479778
0.04  0.18  50.513672926
0.04  0.2  68.2455875013
0.04  0.22  57.6628343877
0.04  0.24  48.7211348216
0.04  0.26  41.1660127967
0.04  0.28  34.7824535653
0.04  0.3  29.3887844324
0.04  0.32  24.8315044478
0.04  0.34  20.9809158511
0.04  0.36  17.7274329421
0.04  0.38  14.9784633306
0.04  0.4  12.6557728058
0.04  0.42  10.6932588328
0.04  0.44  9.03506930951
0.04  0.46  7.6340130454
0.04  0.48  6.45021672562
0.04  0.5  5.44999013757
0.04  0.52  4.60486736541
0.04  0.54  3.89079666526
0.04  0.56  3.28745596543
0.04  0.58  2.77767451102
0.04  0.6  2.34694419341
0.04  0.62  1.98300665723
0.04  0.64  1.67550443409
0.04  0.66  1.41568617454
0.04  0.68  1.19615758933
0.04  0.7  1.01067101186
0.04  0.72  0.853947592967
0.04  0.74  0.721527067639
0.04  0.76  0.609640818269
0.04  0.78  0.515104621807
0.04  0.8  0.435228028465
0.04  0.82  0.36773779295
0.04  0.84  0.310713179113
0.04  0.86  0.262531296825
0.04  0.88  0.221820915383
0.04  0.9  0.187423439021
0.04  0.92  0.158359933885
0.04  0.94  0.133803268103
0.04  0.96  0.113054572048
0.04  0.98  0.0955233488858
0.06  -1  0.0892806920761
0.06  -0.98  0.105666212006
0.06  -0.96  0.125058936036
0.06  -0.94  0.148010770762
0.06  -0.92  0.175174913173
0.06  -0.9  0.20732444029
0.06  -0.88  0.245374310528
0.06  -0.86  0.290407402923
0.06  -0.84  0.343705335293
0.06  -0.82  0.4067849384
0.06  -0.8  0.481441424143
0.06  -0.78  0.569799476335
0.06  -0.76  0.674373718068
0.06  -0.74  0.798140276551
0.06  -0.72  0.944621482104
0.06  -0.7  1.1179861118
0.06  -0.68  1.32316803064
0.06  -0.66  1.56600660673
0.06  -0.64  1.85341289658
0.06  -0.62  2.19356633007
0.06  -0.6  2.59614749271
0.06  -0.58  3.07261362993
0.06  -0.56  3.63652471415
0.06  -0.54  4.30392935442
0.06  -0.52  5.09382153123
0.06  -0.5  6.02868115515
0.06  -0.48  7.13511383302
0.06  -0.46  8.44460804942
0.06  -0.44  9.99443131212
0.06  -0.42  11.8286907655
0.06  -0.4  13.9995884565
0.06  -0.38  16.5689069768
0.06  -0.36  19.6097677628
0.06  -0.34  23.2087120924
0.06  -0.32  27.4681640039
0.06  -0.3  32.5093452296
0.06  -0.28  38.4757251015
0.06  -0.26  45.5371036123
0.06  -0.24  53.8944438324
0.06  -0.22  63.7855912122
0.06  -0.2  55.8709646036
0.06  -0.18  55.877317272
0.06  -0.16  55.6794487999
0.06  -0.14  55.2969380839
0.06  -0.12  54.7681954891
0.06  -0.1  54.1475724499
0.06  -0.08  53.5008087596
0.06  -0.06  52.8987640688
0.06  -0.04  52.4096736618
0.06  -0.02  52.0906685329
0.06  6.17561557e-16  51.9798662422
0.06  0.02  52.0906685329
0.06  0.04  52.4096736618
0.06  0.06  52.8987640688
0.06  0.08  53.5008087596
0.06  0.1  54.1475724499
0.06  0.12  54.7681954891
0.06  0.14  55.2969380839
0.06  0.16  55.6794487999
0.06  0.18  55.877317272
0.06  0.2  75.4920425369
0.06  0.22  63.7855912122
0.06  0.24  53.8944438324
0.06  0.26  45.5371036123
0.06  0.28  38.4757251015
0.06  0.3  32.5093452296
0.06  0.32  27.4681640039
0.06  0.34  23.2087120924
0.06  0.36  19.6097677628
0.06  0.38  16.5689069768
0.06  0.4  13.9995884565
0.06  0.42  11.8286907655
0.06  0.44  9.99443131212
0.06  0.46  8.44460804942
0.06  0.48  7.13511383302
0.06  0.5  6.02868115515
0.06  0.52  5.09382153124
0.06  0.54  4.30392935442
0.06  0.56  3.63652471415
0.06  0.58  3.07261362993
0.06  0.6  2.59614749271
0.06  0.62  2.19356633007
0.06  0.64  1.85341289658
0.06  0.66  1.56600660673
0.06  0.68  1.32316803064
0.06  0.7  1.1179861118
0.06  0.72  0.944621482104
0.06  0.74  0.798140276551
0.06  0.76  0.674373718068
0.06  0.78  0.569799476335
0.06  0.8  0.481441424143
0.06  0.82  0.4067849384
0.06  0.84  0.343705335293
0.06  0.86  0.290407402923
0.06  0.88  0.245374310528
0.06  0.9  0.20732444029
0.06  0.92  0.175174913173
0.06  0.94  0.148010770762
0.06  0.96  0.125058936036
0.06  0.98  0.105666212006
0.08  -1  0.0962748470517
0.08  -0.98  0.11394399128
0.08  -0.96  0.134855920797
0.08  -0.94  0.159605777977
0.08  -0.92  0.18889793057
0.08  -0.9  0.223566017633
0.08  -0.88  0.264596674456
0.08  -0.86  0.313157611673
0.08  -0.84  0.370630847686
0.08  -0.82  0.438652040175
0.08  -0.8  0.519157036039
0.08  -0.78  0.614436964573
0.08  -0.76  0.727203441785
0.08  -0.74  0.860665741539
0.08  -0.72  1.01862212979
0.08  -0.7  1.20556796119
0.08  -0.68  1.42682361451
0.08  -0.66  1.68868590777
0.08  -0.64  1.99860730234
0.08  -0.62  2.365407996
0.08  -0.6  2.79952694107
