-0.1  0.84  0.0131249272908
-0.1  0.86  0.010605488326
-0.1  0.88  0.00856967662691
-0.1  0.9  0.00692465591703
-0.1  0.92  0.00559541061545
-0.1  0.94  0.00452132500599
-0.1  0.96  0.00365341906335
-0.1  0.98  0.00295211488552
-0.08  -1  0.00299774657022
-0.08  -0.98  0.00370989100744
-0.08  -0.96  0.00459121242063
-0.08  -0.94  0.00568190047876
-0.08  -0.92  0.0070316923054
-0.08  -0.9  0.00870214057121
-0.08  -0.88  0.0107694203944
-0.08  -0.86  0.0133278030483
-0.08  -0.84  0.0164939548823
-0.08  -0.82  0.0204122574947
-0.08  -0.8  0.0252613917646
-0.08  -0.78  0.0312624859866
-0.08  -0.76  0.0386891996756
-0.08  -0.74  0.0478802028788
-0.08  -0.72  0.0592546200734
-0.08  -0.7  0.0733311429137
-0.08  -0.68  0.0907516834024
-0.08  -0.66  0.112310646106
-0.08  -0.64  0.138991154279
-0.08  -0.62  0.172009881855
-0.08  -0.6  0.212872535732
-0.08  -0.58  0.26344251842
-0.08  -0.56  0.32602590218
-0.08  -0.54  0.403476589618
-0.08  -0.52  0.499326456215
-0.08  -0.5  0.61794640951
-0.08  -0.48  0.764745709493
-0.08  -0.46  0.946418639525
-0.08  -0.44  1.17124977639
-0.08  -0.42  1.44949178028
-0.08  -0.4  1.79383293253
-0.08  -0.38  2.21997574156
-0.08  -0.36  2.74735300248
-0.08  -0.34  3.40001396363
-0.08  -0.32  4.2077210109
-0.08  -0.3  5.20730688019
-0.08  -0.28  6.44435428922
-0.08  -0.26  7.97527458254
-0.08  -0.24  9.86988017919
-0.08  -0.22  12.214568131
-0.08  -0.2  11.0075790007
-0.08  -0.18  11.0331868684
-0.08  -0.16  11.2083284134
-0.08  -0.14  11.5084776906
-0.08  -0.12  11.8942170444
-0.08  -0.1  12.3192203517
-0.08  -0.08  12.7373329404
-0.08  -0.06  13.1074235953
-0.08  -0.04  13.3961241255
-0.08  -0.02  13.5791400531
-0.08  6.17561557e-16  13.6417816883
-0.08  0.02  13.5791400531
-0.08  0.04  13.3961241255
-0.08  0.06  13.1074235953
-0.08  0.08  12.7373329404
-0.08  0.1  12.3192203517
-0.08  0.12  11.8942170444
-0.08  0.14  11.5084776906
-0.08  0.16  11.2083284134
-0.08  0.18  11.0331868684
-0.08  0.2  15.1162599664
-0.08  0.22  12.214568131
-0.08  0.24  9.86988017918
-0.08  0.26  7.97527458253
-0.08  0.28  6.44435428922
-0.08  0.3  5.20730688018
-0.08  0.32  4.2077210109
-0.08  0.34  3.40001396363
-0.08  0.36  2.74735300248
-0.08  0.38  2.21997574156
-0.08  0.4  1.79383293253
-0.08  0.42  1.44949178028
-0.08  0.44  1.17124977639
-0.08  0.46  0.946418639525
-0.08  0.48  0.764745709493
-0.08  0.5  0.61794640951
-0.08  0.52  0.499326456214
-0.08  0.54  0.403476589618
-0.08  0.56  0.32602590218
-0.08  0.58  0.263442518419
-0.08  0.6  0.212872535731
-0.08  0.62  0.172009881854
-0.08  0.64  0.138991154279
-0.08  0.66  0.112310646106
-0.08  0.68  0.0907516834023
-0.08  0.7  0.0733311429137
-0.08  0.72  0.0592546200734
-0.08  0.74  0.0478802028788
-0.08  0.76  0.0386891996755
-0.08  0.78  0.0312624859866
-0.08  0.8  0.0252613917645
-0.08  0.82  0.0204122574947
-0.08  0.84  0.0164939548823
-0.08  0.86  0.0133278030483
-0.08  0.88  0.0107694203944
-0.08  0.9  0.0087021405712
-0.08  0.92  0.0070316923054
-0.08  0.94  0.00568190047876
-0.08  0.96  0.00459121242062
-0.08  0.98  0.00370989100744
-0.06  -1  0.00376723585452
-0.06  -0.98  0.00466218010503
-0.06  -0.96  0.00576972724064
-0.06  -0.94  0.00714038318586
-0.06  -0.92  0.0088366520486
-0.06  -0.9  0.0109358864077
-0.06  -0.88  0.0135338147145
-0.06  -0.86  0.0167489066636
-0.06  -0.84  0.0207277756008
-0.06  -0.82  0.025651864327
-0.06  -0.8  0.0317457191799
-0.06  -0.78  0.0392872297079
-0.06  -0.76  0.0486203008782
-0.06  -0.74  0.0601705356948
-0.06  -0.72  0.0744646433773
-0.06  -0.7  0.0921544581461
-0.06  -0.68  0.114046663907
-0.06  -0.66  0.14113958033
-0.06  -0.64  0.174668687828
-0.06  -0.62  0.216162967441
-0.06  -0.6  0.267514624825
-0.06  -0.58  0.33106537786
-0.06  -0.56  0.40971324274
-0.06  -0.54  0.507044688157
-0.06  -0.52  0.62749818402
-0.06  -0.5  0.776566602797
-0.06  -0.48  0.961047703305
-0.06  -0.46  1.1893541194
-0.06  -0.44  1.47189698958
-0.06  -0.42  1.82156072157
-0.06  -0.4  2.25429054197
-0.06  -0.38  2.78981962414
-0.06  -0.36  3.45256895256
-0.06  -0.34  4.27276095883
-0.06  -0.32  5.28779771298
-0.06  -0.3  6.54396651787
-0.06  -0.28  8.09855068431
-0.06  -0.26  10.0224417419
-0.06  -0.24  12.4033722064
-0.06  -0.22  15.349916323
-0.06  -0.2  13.833106072
-0.06  -0.18  13.8652872038
-0.06  -0.16  14.0853856986
-0.06  -0.14  14.4625800652
-0.06  -0.12  14.94733456
-0.06  -0.1  15.4814316426
-0.06  -0.08  16.0068692333
-0.06  -0.06  16.4719581765
-0.06  -0.04  16.8347650261
-0.06  -0.02  17.0647591728
-0.06  6.17561557e-16  17.1434802416
-0.06  0.02  17.0647591728
-0.06  0.04  16.8347650261
-0.06  0.06  16.4719581765
-0.06  0.08  16.0068692333
-0.06  0.1  15.4814316426
-0.06  0.12  14.94733456
-0.06  0.14  14.4625800652
-0.06  0.16  14.0853856986
-0.06  0.18  13.8652872038
-0.06  0.2  18.9964412261
-0.06  0.22  15.349916323
-0.06  0.24  12.4033722064
-0.06  0.26  10.0224417419
-0.06  0.28  8.09855068431
-0.06  0.3  6.54396651786
-0.06  0.32  5.28779771298
-0.06  0.34  4.27276095882
-0.06  0.36  3.45256895256
-0.06  0.38  2.78981962414
-0.06  0.4  2.25429054197
-0.06  0.42  1.82156072157
-0.06  0.44  1.47189698958
-0.06  0.46  1.1893541194
-0.06  0.48  0.961047703304
-0.06  0.5  0.776566602797
-0.06  0.52  0.62749818402
-0.06  0.54  0.507044688157
-0.06  0.56  0.40971324274
-0.06  0.58  0.331065377859
-0.06  0.6  0.267514624825
-0.06  0.62  0.216162967441
-0.06  0.64  0.174668687828
-0.06  0.66  0.14113958033
-0.06  0.68  0.114046663907
-0.06  0.7  0.0921544581461
-0.06  0.72  0.0744646433773
-0.06  0.74  0.0601705356947
-0.06  0.76  0.0486203008782
-0.06  0.78  0.0392872297079
-0.06  0.8  0.0317457191799
-0.06  0.82  0.0256518643269
-0.06  0.84  0.0207277756008
-0.06  0.86  0.0167489066636
-0.06  0.88  0.0135338147145
-0.06  0.9  0.0109358864077
-0.06  0.92  0.00883665204859
-0.06  0.94  0.00714038318585
-0.06  0.96  0.00576972724064
-0.06  0.98  0.00466218010503
-0.04  -1  0.00473424475725
-0.04  -0.98  0.00585891156592
-0.04  -0.96  0.00725075413236
-0.04  -0.94  0.00897324270839
-0.04  -0.92  0.0111049255338
-0.04  -0.9  0.0137430107619
-0.04  -0.88  0.0170077993075
-0.04  -0.86  0.0210481707607
-0.04  -0.84  0.0260483725355
-0.04  -0.82  0.032236421847
-0.04  -0.8  0.0398945036616
-0.04  -0.78  0.0493718387842
-0.04  -0.76  0.061100608886
-0.04  -0.74  0.075615664682
-0.04  -0.72  0.0935789159806
-0.04  -0.7  0.115809515831
-0.04  -0.68  0.143321215218
-0.04  -0.66  0.177368591727
-0.04  -0.64  0.219504260295
-0.04  -0.62  0.271649674944
-0.04  -0.6  0.336182750157
-0.04  -0.58  0.416046297594
-0.04  -0.56  0.51488222302
-0.04  -0.54  0.637197603043
-0.04  -0.52  0.788570215033
-0.04  -0.5  0.975902892709
-0.04  -0.48  1.20773830642
-0.04  -0.46  1.49464852261
-0.04  -0.44  1.84971710698
-0.04  -0.42  2.28913575606
-0.04  -0.4  2.83294266453
-0.04  -0.38  3.505936299
-0.04  -0.36  4.33880624785
-0.04  -0.34  5.36953271562
-0.04  -0.32  6.64511848124
-0.04  -0.3  8.22373230007
-0.04  -0.28  10.1773614924
-0.04  -0.26  12.5950946805
-0.04  -0.24  15.5871843728
-0.04  -0.22  19.2900746549
-0.04  -0.2  17.3839155356
-0.04  -0.18  17.4243572176
-0.04  -0.16  17.7009526274
-0.04  -0.14  18.1749687288
-0.04  -0.12  18.7841544857
-0.04  -0.1  19.4553485417
-0.04  -0.08  20.1156603075
-0.04  -0.06  20.7001325774
-0.04  -0.04  21.1560680409
-0.04  -0.02  21.4450992099
-0.04  6.17561557e-16  21.5440271299
-0.04  0.02  21.4450992099
-0.04  0.04  21.1560680409
-0.04  0.06  20.7001325774
-0.04  0.08  20.1156603075
-0.04  0.1  19.4553485417
-0.04  0.12  18.7841544857
-0.04  0.14  18.1749687288
-0.04  0.16  17.7009526274
-0.04  0.18  17.4243572176
-0.04  0.2  23.8726232585
-0.04  0.22  19.2900746549
-0.04  0.24  15.5871843728
-0.04  0.26  12.5950946805
-0.04  0.28  10.1773614924
-0.04  0.3  8.22373230006
-0.04  0.32  6.64511848123
-0.04  0.34  5.36953271561
-0.04  0.36  4.33880624784
-0.04  0.38  3.505936299
-0.04  0.4  2.83294266453
-0.04  0.42  2.28913575606
-0.04  0.44  1.84971710698
-0.04  0.46  1.49464852261
-0.04  0.48  1.20773830642
-0.04  0.5  0.975902892709
-0.04  0.52  0.788570215032
-0.04  0.54  0.637197603042
-0.04  0.56  0.514882223019
-0.04  0.58  0.416046297594
-0.04  0.6  0.336182750157
-0.04  0.62  0.271649674944
-0.04  0.64  0.219504260295
-0.04  0.66  0.177368591727
-0.04  0.68  0.143321215218
-0.04  0.7  0.115809515831
-0.04  0.72  0.0935789159805
-0.04  0.74  0.075615664682
-0.04  0.76  0.061100608886
-0.04  0.78  0.0493718387841
-0.04  0.8  0.0398945036616
-0.04  0.82  0.032236421847
-0.04  0.84  0.0260483725355
-0.04  0.86  0.0210481707606
-0.04  0.88  0.0170077993075
-0.04  0.9  0.0137430107619
-0.04  0.92  0.0111049255338
-0.04  0.94  0.00897324270839
-0.04  0.96  0.00725075413236
-0.04  0.98  0.00585891156591
-0.02  -1  0.00594947443883
-0.02  -0.98  0.00736283111417
-0.02  -0.96  0.0091119446891
-0.02  -0.94  0.011276577546
-0.02  -0.92  0.0139554404126
-0.02  -0.9  0.0172706937291
-0.02  -0.88  0.0213735183602
-0.02  -0.86  0.0264510096849
-0.02  -0.84  0.0327347094456
-0.02  -0.82  0.0405111644227
-0.02  -0.8  0.0501349934266
-0.02  -0.78  0.0620450584847
-0.02  -0.76  0.0767844776525
-0.02  -0.74  0.0950253920675
-0.02  -0.72  0.117599616663
-0.02  -0.7  0.145536572261
-0.02  -0.68  0.180110228812
-0.02  -0.66  0.22289720047
-0.02  -0.64  0.275848641717
-0.02  -0.62  0.341379223143
-0.02  -0.6  0.42247724429
-0.02  -0.58  0.522840904902
-0.02  -0.56  0.647046948761
-0.02  -0.54  0.800759370538
-0.02  -0.52  0.990987703029
-0.02  -0.5  1.22640666308
-0.02  -0.48  1.5177517326
-0.02  -0.46  1.8783087137
-0.02  -0.44  2.3245195826
-0.02  -0.42  2.87673227009
-0.02  -0.4  3.56012855978
-0.02  -0.38  4.4058724178
-0.02  -0.36  5.45253111958
-0.02  -0.34  6.74783397946
-0.02  -0.32  8.35084888389
-0.02  -0.3  10.3346758818
-0.02  -0.28  12.7897806637
-0.02  -0.26  15.8281199428
-0.02  -0.24  19.5882468598
-0.02  -0.22  24.2416292286
-0.02  -0.2  21.8461795765
-0.02  -0.18  21.8970022031
-0.02  -0.16  22.244596678
-0.02  -0.14  22.8402876115
-0.02  -0.12  23.6058447964
-0.02  -0.1  24.4493271435
-0.02  -0.08  25.2791338336
-0.02  -0.06  26.0136338454
-0.02  -0.04  26.5866030358
-0.02  -0.02  26.9498253955
-0.02  6.17561557e-16  27.074147048
-0.02  0.02  26.9498253955
-0.02  0.04  26.5866030358
-0.02  0.06  26.0136338454
-0.02  0.08  25.2791338336
-0.02  0.1  24.4493271435
-0.02  0.12  23.6058447964
-0.02  0.14  22.8402876115
-0.02  0.16  22.244596678
-0.02  0.18  21.8970022031
-0.02  0.2  30.0004687435
-0.02  0.22  24.2416292286
-0.02  0.24  19.5882468598
-0.02  0.26  15.8281199428
-0.02  0.28  12.7897806637
-0.02  0.3  10.3346758817
-0.02  0.32  8.35084888388
-0.02  0.34  6.74783397945
-0.02  0.36  5.45253111957
-0.02  0.38  4.4058724178
-0.02  0.4  3.56012855978
-0.02  0.42  2.87673227009
-0.02  0.44  2.3245195826
-0.02  0.46  1.87830871369
-0.02  0.48  1.5177517326
-0.02  0.5  1.22640666308
-0.02  0.52  0.990987703028
-0.02  0.54  0.800759370537
-0.02  0.56  0.64704694876
-0.02  0.58  0.522840904902
-0.02  0.6  0.42247724429
-0.02  0.62  0.341379223143
-0.02  0.64  0.275848641717
-0.02  0.66  0.22289720047
-0.02  0.68  0.180110228812
-0.02  0.7  0.145536572261
-0.02  0.72  0.117599616663
-0.02  0.74  0.0950253920674
-0.02  0.76  0.0767844776524
-0.02  0.78  0.0620450584847
-0.02  0.8  0.0501349934266
-0.02  0.82  0.0405111644226
-0.02  0.84  0.0327347094456
-0.02  0.86  0.0264510096849
-0.02  0.88  0.0213735183602
-0.02  0.9  0.017270693729
-0.02  0.92  0.0139554404126
-0.02  0.94  0.011276577546
-0.02  0.96  0.0091119446891
-0.02  0.98  0.00736283111417
2.8449465e-16  -1  0.00747664050197
2.8449465e-16  -0.98  0.00925279062603
2.8449465e-16  -0.96  0.0114508828326
2.8449465e-16  -0.94  0.0141711536491
2.8449465e-16  -0.92  0.0175376517849
2.8449465e-16  -0.9  0.0217038949506
2.8449465e-16  -0.88  0.026859870512
2.8449465e-16  -0.86  0.0332406992183
2.8449465e-16  -0.84  0.0411373570856
2.8449465e-16  -0.82  0.0509099443688
2.8449465e-16  -0.8  0.0630041067112
2.8449465e-16  -0.78  0.0779713572995
2.8449465e-16  -0.76  0.0964942267492
2.8449465e-16  -0.74  0.119417387595
2.8449465e-16  -0.72  0.147786172711
2.8449465e-16  -0.7  0.182894244167
2.8449465e-16  -0.68  0.226342586291
2.8449465e-16  -0.66  0.280112513121
2.8449465e-16  -0.64  0.346656019499
2.8449465e-16  -0.62  0.429007595969
2.8449465e-16  -0.6  0.530922606408
2.8449465e-16  -0.58  0.657048538635
2.8449465e-16  -0.56  0.813136937308
2.8449465e-16  -0.54  1.00630568358
2.8449465e-16  -0.52  1.24536358188
2.8449465e-16  -0.5  1.54121205551
2.8449465e-16  -0.48  1.90734226906
2.8449465e-16  -0.46  2.36045034707
2.8449465e-16  -0.44  2.92119874412
2.8449465e-16  -0.42  3.61515848585
2.8449465e-16  -0.4  4.47397524874
2.8449465e-16  -0.38  5.53681245363
2.8449465e-16  -0.36  6.85213718053
2.8449465e-16  -0.34  8.47993034513
2.8449465e-16  -0.32  10.4944219247
2.8449465e-16  -0.3  12.9874759639
2.8449465e-16  -0.28  16.0727797228
2.8449465e-16  -0.26  19.8910279977
2.8449465e-16  -0.24  24.6163390296
2.8449465e-16  -0.22  30.4641945752
2.8449465e-16  -0.2  27.453858776
2.8449465e-16  -0.18  27.5177270239
2.8449465e-16  -0.16  27.9545452599
2.8449465e-16  -0.14  28.7031436455
2.8449465e-16  -0.12  29.6652111212
2.8449465e-16  -0.1  30.7252063097
2.8449465e-16  -0.08  31.7680154472
2.8449465e-16  -0.06  32.6910537076
2.8449465e-16  -0.04  33.4110979232
2.8449465e-16  -0.02  33.8675555539
2.8449465e-16  6.17561557e-16  34.0237892366
2.8449465e-16  0.02  33.8675555539
2.8449465e-16  0.04  33.4110979232
2.8449465e-16  0.06  32.6910537076
2.8449465e-16  0.08  31.7680154472
2.8449465e-16  0.1  30.7252063097
2.8449465e-16  0.12  29.6652111212
2.8449465e-16  0.14  28.7031436455
2.8449465e-16  0.16  27.9545452599
2.8449465e-16  0.18  27.5177270239
2.8449465e-16  0.2  37.7012662198
2.8449465e-16  0.22  30.4641945751
2.8449465e-16  0.24  24.6163390296
2.8449465e-16  0.26  19.8910279977
2.8449465e-16  0.28  16.0727797228
2.8449465e-16  0.3  12.9874759639
2.8449465e-16  0.32  10.4944219247
2.8449465e-16  0.34  8.47993034512
2.8449465e-16  0.36  6.85213718052
2.8449465e-16  0.38  5.53681245362
2.8449465e-16  0.4  4.47397524873
2.8449465e-16  0.42  3.61515848585
2.8449465e-16  0.44  2.92119874412
2.8449465e-16  0.46  2.36045034707
2.8449465e-16  0.48  1.90734226906
2.8449465e-16  0.5  1.54121205551
2.8449465e-16  0.52  1.24536358188
2.8449465e-16  0.54  1.00630568358
2.8449465e-16  0.56  0.813136937308
2.8449465e-16  0.58  0.657048538634
2.8449465e-16  0.6  0.530922606407
2.8449465e-16  0.62  0.429007595969
2.8449465e-16  0.64  0.346656019499
2.8449465e-16  0.66  0.280112513121
2.8449465e-16  0.68  0.226342586291
2.8449465e-16  0.7  0.182894244167
2.8449465e-16  0.72  0.147786172711
2.8449465e-16  0.74  0.119417387595
2.8449465e-16  0.76  0.0964942267492
2.8449465e-16  0.78  0.0779713572995
2.8449465e-16  0.8  0.0630041067112
2.8449465e-16  0.82  0.0509099443688
2.8449465e-16  0.84  0.0411373570856
2.8449465e-16  0.86  0.0332406992183
2.8449465e-16  0.88  0.026859870512
2.8449465e-16  0.9  0.0217038949506
2.8449465e-16  0.92  0.0175376517849
2.8449465e-16  0.94  0.0141711536491
2.8449465e-16  0.96  0.0114508828325
2.8449465e-16  0.98  0.00925279062603
0.02  -1  0.00910763313106
0.02  -0.98  0.0112712417346
0.02  -0.96  0.0139488370262
0.02  -0.94  0.0172625216427
0.02  -0.92  0.0213634049137
0.02  -0.9  0.0264384936889
0.02  -0.88  0.0327192201506
0.02  -0.86  0.0404919954919
0.02  -0.84  0.0501112707262
0.02  -0.82  0.0620157002215
0.02  -0.8  0.0767481450425
0.02  -0.78  0.0949804282856
0.02  -0.76  0.117543971288
0.02  -0.74  0.145467707776
0.02  -0.72  0.180025004886
0.02  -0.7  0.222791730754
0.02  -0.68  0.275718116624
0.02  -0.66  0.341217690519
0.02  -0.64  0.422277337988
0.02  -0.62  0.522593508875
0.02  -0.6  0.646740781354
0.02  -0.58  0.800380470026
0.02  -0.56  0.990518790941
0.02  -0.54  1.22582635628
0.02  -0.52  1.51703356815
0.02  -0.5  1.87741994216
0.02  -0.48  2.32341967457
0.02  -0.46  2.875371068
0.02  -0.44  3.55844399063
0.02  -0.42  4.40378766253
0.02  -0.4  5.44995111002
0.02  -0.38  6.74464106303
0.02  -0.36  8.34689745849
0.02  -0.34  10.329785756
0.02  -0.32  12.7837288401
0.02  -0.3  15.8206304485
0.02  -0.28  19.5789781618
0.02  -0.26  24.2301586595
0.02  -0.24  29.9862732269
0.02  -0.22  37.109809914
0.02  -0.2  33.442784055
0.02  -0.18  33.5205848493
0.02  -0.16  34.0526928512
0.02  -0.14  34.9645943204
0.02  -0.12  36.1365321197
0.02  -0.1  37.4277600843
0.02  -0.08  38.6980529448
0.02  -0.06  39.8224474961
0.02  -0.04  40.6995658424
0.02  -0.02  41.2555974771
0.02  6.17561557e-16  41.4459127751
0.02  0.02  41.2555974771
0.02  0.04  40.6995658424
0.02  0.06  39.8224474961
0.02  0.08  38.6980529448
0.02  0.1  37.4277600843
0.02  0.12  36.1365321197
0.02  0.14  34.9645943204
0.02  0.16  34.0526928512
0.02  0.18  33.5205848493
0.02  0.2  45.925613411
0.02  0.22  37.109809914
0.02  0.24  29.9862732269
0.02  0.26  24.2301586595
0.02  0.28  19.5789781618
0.02  0.3  15.8206304485
0.02  0.32  12.7837288401
0.02  0.34  10.329785756
0.02  0.36  8.34689745848
0.02  0.38  6.74464106302
0.02  0.4  5.44995111001
0.02  0.42  4.40378766253
0.02  0.44  3.55844399063
0.02  0.46  2.875371068
0.02  0.48  2.32341967457
0.02  0.5  1.87741994216
0.02  0.52  1.51703356815
0.02  0.54  1.22582635628
0.02  0.56  0.99051879094
0.02  0.58  0.800380470025
0.02  0.6  0.646740781353
0.02  0.62  0.522593508875
0.02  0.64  0.422277337988
0.02  0.66  0.341217690519
0.02  0.68  0.275718116623
0.02  0.7  0.222791730754
0.02  0.72  0.180025004886
0.02  0.74  0.145467707775
0.02  0.76  0.117543971288
0.02  0.78  0.0949804282855
0.02  0.8  0.0767481450424
0.02  0.82  0.0620157002214
0.02  0.84  0.0501112707262
0.02  0.86  0.0404919954919
0.02  0.88  0.0327192201506
0.02  0.9  0.0264384936889
0.02  0.92  0.0213634049137
0.02  0.94  0.0172625216427
0.02  0.96  0.0139488370262
0.02  0.98  0.0112712417346
0.04  -1  0.0105636923766
0.04  -0.98  0.0130732022989
0.04  -0.96  0.0161788711991
0.04  -0.94  0.0200223225567
0.04  -0.92  0.0247788239137
0.04  -0.9  0.0306652793554
0.04  -0.88  0.0379501206845
0.04  -0.86  0.0469655483413
0.04  -0.84  0.0581226802766
0.04  -0.82  0.0719302995886
0.04  -0.8  0.0890180558481
0.04  -0.78  0.110165178128
0.04  -0.76  0.136336009098
0.04  -0.74  0.168723980595
0.04  -0.72  0.20880603603
0.04  -0.7  0.258409981372
0.04  -0.68  0.31979783603
0.04  -0.66  0.395768984568
0.04  -0.64  0.489787833121
0.04  -0.62  0.606141791872
0.04  -0.6  0.750136787826
0.04  -0.58  0.928339223587
0.04  -0.56  1.14887541584
0.04  -0.54  1.42180216841
0.04  -0.52  1.75956537866
0.04  -0.5  2.17756759032
0.04  -0.48  2.6948703742
0.04  -0.46  3.33506356634
0.04  -0.44  4.12734100238
0.04  -0.42  5.10783180322
0.04  -0.4  6.32124792088
0.04  -0.38  7.8229230751
0.04  -0.36  9.68133605974
0.04  -0.34  11.9812334855
0.04  -0.32  14.8274943611
0.04  -0.3  18.3499127443
0.04  -0.28  22.709116559
0.04  -0.26  28.1038924858
0.04  -0.24  34.7802509535
0.04  -0.22  43.0426446087
0.04  -0.2  38.789362493
0.04  -0.18  38.8796014877
0.04  -0.16  39.4967788776
0.04  -0.14  40.5544682311
0.04  -0.12  41.9137665492
0.04  -0.1  43.4114262385
0.04  -0.08  44.8848038783
0.04  -0.06  46.1889580947
0.04  -0.04  47.2063034638
0.04  -0.02  47.8512292151
0.04  6.17561557e-16  48.0719706782
0.04  0.02  47.8512292151
0.04  0.04  47.2063034638
0.04  0.06  46.1889580947
0.04  0.08  44.8848038783
0.04  0.1  43.4114262385
0.04  0.12  41.9137665492
0.04  0.14  40.5544682311
0.04  0.16  39.4967788776
0.04  0.18  38.8796014877
0.04  0.2  53.2678518447
0.04  0.22  43.0426446087
0.04  0.24  34.7802509535
0.04  0.26  28.1038924858
0.04  0.28  22.709116559
0.04  0.3  18.3499127443
0.04  0.32  14.827494361
0.04  0.34  11.9812334855
0.04  0.36  9.68133605974
0.04  0.38  7.8229230751
0.04  0.4  6.32124792087
0.04  0.42  5.10783180322
0.04  0.44  4.12734100238
0.04  0.46  3.33506356634
0.04  0.48  2.69487037419
0.04  0.5  2.17756759032
0.04  0.52  1.75956537866
0.04  0.54  1.42180216841
0.04  0.56  1.14887541584
0.04  0.58  0.928339223587
0.04  0.6  0.750136787826
0.04  0.62  0.606141791872
0.04  0.64  0.489787833121
0.04  0.66  0.395768984568
0.04  0.68  0.31979783603
0.04  0.7  0.258409981371
0.04  0.72  0.20880603603
0.04  0.74  0.168723980595
0.04  0.76  0.136336009098
0.04  0.78  0.110165178128
0.04  0.8  0.0890180558481
0.04  0.82  0.0719302995885
0.04  0.84  0.0581226802765
0.04  0.86  0.0469655483413
0.04  0.88  0.0379501206844
0.04  0.9  0.0306652793554
0.04  0.92  0.0247788239137
0.04  0.94  0.0200223225567
0.04  0.96  0.0161788711991
0.04  0.98  0.0130732022989
0.06  -1  0.0118168512173
0.06  -0.98  0.0146240614543
0.06  -0.96  0.0180981523323
0.06  -0.94  0.0223975479635
0.06  -0.92  0.0277183076795
0.06  -0.9  0.0343030666513
0.06  -0.88  0.0424521004416
0.06  -0.86  0.0525370180521
0.06  -0.84  0.0650177078895
0.06  -0.82  0.0804633094138
0.06  -0.8  0.09957816681
0.06  -0.78  0.123233948212
0.06  -0.76  0.152509395165
0.06  -0.74  0.188739514972
0.06  -0.72  0.233576459165
0.06  -0.7  0.28906486426
0.06  -0.68  0.357735090463
0.06  -0.66  0.442718610153
0.06  -0.64  0.547890808032
0.06  -0.62  0.67804770489
0.06  -0.6  0.839124663831
0.06  -0.58  1.03846705235
0.06  -0.56  1.28516520286
0.06  -0.54  1.59046894642
0.06  -0.52  1.96830062306
0.06  -0.5  2.43588996281
0.06  -0.48  3.01455978898
0.06  -0.46  3.73069837312
0.06  -0.44  4.61696278245
0.06  -0.42  5.71376809449
0.06  -0.4  7.07113038939
0.06  -0.38  8.7509475633
0.06  -0.36  10.8298219717
0.06  -0.34  13.4025536195
0.06  -0.32  16.5864631932
0.06  -0.3  20.5267420726
0.06  -0.28  25.4030732897
0.06  -0.26  31.4378253636
0.06  -0.24  38.906192661
0.06  -0.22  48.1487447007
0.06  -0.2  43.3909005536
0.06  -0.18  43.4918444979
0.06  -0.16  44.1822369412
0.06  -0.14  45.3653987827
0.06  -0.12  46.8859491179
0.06  -0.1  48.5612744769
0.06  -0.08  50.2094372343
0.06  -0.06  51.6683017857
0.06  -0.04  52.8063336815
0.06  -0.02  53.527766243
0.06  6.17561557e-16  53.7746940154
0.06  0.02  53.527766243
0.06  0.04  52.8063336815
0.06  0.06  51.6683017857
0.06  0.08  50.2094372343
0.06  0.1  48.5612744769
0.06  0.12  46.8859491179
0.06  0.14  45.3653987827
0.06  0.16  44.1822369412
0.06  0.18  43.4918444979
0.06  0.2  59.5869566692
0.06  0.22  48.1487447007
0.06  0.24  38.906192661
0.06  0.26  31.4378253636
0.06  0.28  25.4030732897
0.06  0.3  20.5267420726
0.06  0.32  16.5864631932
0.06  0.34  13.4025536195
0.06  0.36  10.8298219717
0.06  0.38  8.7509475633
0.06  0.4  7.07113038939
0.06  0.42  5.71376809449
0.06  0.44  4.61696278244
0.06  0.46  3.73069837312
0.06  0.48  3.01455978898
0.06  0.5  2.43588996281
0.06  0.52  1.96830062306
0.06  0.54  1.59046894642
0.06  0.56  1.28516520286
0.06  0.58  1.03846705235
0.06  0.6  0.839124663831
0.06  0.62  0.678047704889
0.06  0.64  0.547890808032
0.06  0.66  0.442718610152
0.06  0.68  0.357735090463
0.06  0.7  0.289064864259
0.06  0.72  0.233576459164
0.06  0.74  0.188739514972
0.06  0.76  0.152509395165
0.06  0.78  0.123233948212
0.06  0.8  0.0995781668099
0.06  0.82  0.0804633094138
0.06  0.84  0.0650177078895
0.06  0.86  0.052537018052
0.06  0.88  0.0424521004415
0.06  0.9  0.0343030666513
0.06  0.92  0.0277183076795
0.06  0.94  0.0223975479635
0.06  0.96  0.0180981523323
0.06  0.98  0.0146240614543
0.08  -1  0.0128430398082
0.08  -0.98  0.0158940313254
0.08  -0.96  0.0196698161452
0.08  -0.94  0.024342576107
0.08  -0.92  0.0301253965544
0.08  -0.9  0.0372819833681
0.08  -0.88  0.0461386883772
0.08  -0.86  0.057099391525
0.08  -0.84  0.0706639184424
0.08  -0.82  0.0874508332974
0.08  -0.8  0.108225646313
0.08  -0.78  0.133935722258
0.08  -0.76  0.165753481805
0.08  -0.74  0.205129865782
0.08  -0.72  0.253860500412
0.08  -0.7  0.314167580735
0.08  -0.68  0.388801206272
0.08  -0.66  0.481164789967
0.08  -0.64  0.59547025927
0.08  -0.62  0.736930126787
0.08  -0.6  0.911995189199
0.08  -0.58  1.12864869394
0.08  -0.56  1.39677038807
0.08  -0.54  1.72858705056
0.08  -0.52  2.13923005306
0.08  -0.5  2.64742537462
0.08  -0.48  3.27634753643
0.08  -0.46  4.05467639707
0.08  -0.44  5.01790500005
0.08  -0.42  6.20995811348
0.08  -0.4  7.68519526989
0.08  -0.38  9.51088964806
0.08  -0.36  11.7702958378
0.08  -0.34  14.5664463825
0.08  -0.32  18.0268502287
0.08  -0.3  22.3093073378
0.08  -0.28  27.6091046178
0.08  -0.26  34.1679213188
0.08  -0.24  42.2848499947
0.08  -0.22  52.3300356023
0.08  -0.2  47.1590149422
0.08  -0.18  47.2687249715
0.08  -0.16  48.0190718677
0.08  -0.14  49.3049808082
0.08  -0.12  50.9575774371
0.08  -0.1  52.7783899261
0.08  -0.08  54.5696809829
0.08  -0.06  56.1552349653
0.08  -0.04  57.3920948252
0.08  -0.02  58.1761773982
0.08  6.17561557e-16  58.4445486548
0.08  0.02  58.1761773982
0.08  0.04  57.3920948252
0.08  0.06  56.1552349653
0.08  0.08  54.5696809829
0.08  0.1  52.7783899261
0.08  0.12  50.9575774371
0.08  0.14  49.3049808082
0.08  0.16  48.0190718677
0.08  0.18  47.2687249715
0.08  0.2  64.7615547054
0.08  0.22  52.3300356023
0.08  0.24  42.2848499946
0.08  0.26  34.1679213188
0.08  0.28  27.6091046178
0.08  0.3  22.3093073378
0.08  0.32  18.0268502287
0.08  0.34  14.5664463825
0.08  0.36  11.7702958378
0.08  0.38  9.51088964806
0.08  0.4  7.68519526989
0.08  0.42  6.20995811348
0.08  0.44  5.01790500005
0.08  0.46  4.05467639707
0.08  0.48  3.27634753643
0.08  0.5  2.64742537462
0.08  0.52  2.13923005306
0.08  0.54  1.72858705056
0.08  0.56  1.39677038807
0.08  0.58  1.12864869394
0.08  0.6  0.911995189199
0.08  0.62  0.736930126786
0.08  0.64  0.59547025927
0.08  0.66  0.481164789966
0.08  0.68  0.388801206272
0.08  0.7  0.314167580735
0.08  0.72  0.253860500412
0.08  0.74  0.205129865782
0.08  0.76  0.165753481804
0.08  0.78  0.133935722258
0.08  0.8  0.108225646313
0.08  0.82  0.0874508332974
0.08  0.84  0.0706639184424
0.08  0.86  0.057099391525
0.08  0.88  0.0461386883771
0.08  0.9  0.0372819833681
0.08  0.92  0.0301253965544
0.08  0.94  0.024342576107
0.08  0.96  0.0196698161452
0.08  0.98  0.0158940313254
0.1  -1  0.0136225477988
0.1  -0.98  0.0168587191724
0.1  -0.96  0.0208636751605
0.1  -0.94  0.0258200481752
0.1  -0.92  0.0319538567698
0.1  -0.9  0.0395448124471
0.1  -0.88  0.0489390749525
0.1  -0.86  0.0605650377129
0.1  -0.84  0.0749528632635
0.1  -0.82  0.0927586595097
0.1  -0.8  0.114794399299
0.1  -0.78  0.142064947682
0.1  -0.76  0.175813885375
0.1  -0.74  0.217580218026
0.1  -0.72  0.269268557346
0.1  -0.7  0.333235974451
0.1  -0.68  0.412399486085
0.1  -0.66  0.510369075258
0.1  -0.64  0.631612312257
0.1  -0.62  0.781658083012
0.1  -0.6  0.967348715155
0.1  -0.58  1.19715199913
0.1  -0.56  1.48154733299
0.1  -0.54  1.8335035998
0.1  -0.52  2.2690705694
0.1  -0.5  2.80811079372
0.1  -0.48  3.47520537093
0.1  -0.46  4.30077488295
0.1  -0.44  5.32246662269
0.1  -0.42  6.58687137101
0.1  -0.4  8.15164801096
0.1  -0.38  10.0881528653
0.1  -0.36  12.484693659
0.1  -0.34  15.4505564935
0.1  -0.32  19.1209894674
0.1  -0.3  23.6633702072
0.1  -0.28  29.2848385549
0.1  -0.26  36.2417424771
0.1  -0.24  44.8513279426
0.1  -0.22  55.5062058478
0.1  -0.2  50.0213302137
0.1  -0.18  50.1376990907
0.1  -0.16  50.9335882735
0.1  -0.14  52.2975454261
0.1  -0.12  54.0504463674
0.1  -0.1  55.9817730265
0.1  -0.08  57.8817864506
0.1  -0.06  59.5635755936
0.1  -0.04  60.8755066329
0.1  -0.02  61.7071790786
0.1  6.17561557e-16  61.9918391222
0.1  0.02  61.7071790786
0.1  0.04  60.8755066329
0.1  0.06  59.5635755936
0.1  0.08  57.8817864506
0.1  0.1  55.9817730265
0.1  0.12  54.0504463674
0.1  0.14  52.2975454261
0.1  0.16  50.9335882735
0.1  0.18  50.1376990907
0.1  0.2  68.6922557022
0.1  0.22  55.5062058478
0.1  0.24  44.8513279426
0.1  0.26  36.241742477
0.1  0.28  29.2848385549
0.1  0.3  23.6633702072
0.1  0.32  19.1209894674
0.1  0.34  15.4505564935
0.1  0.36  12.484693659
0.1  0.38  10.0881528653
0.1  0.4  8.15164801096
0.1  0.42  6.58687137101
0.1  0.44  5.32246662269
0.1  0.46  4.30077488294
0.1  0.48  3.47520537093
0.1  0.5  2.80811079372
0.1  0.52  2.2690705694
0.1  0.54  1.8335035998
0.1  0.56  1.48154733299
0.1  0.58  1.19715199913
0.1  0.6  0.967348715154
0.1  0.62  0.781658083012
0.1  0.64  0.631612312257
0.1  0.66  0.510369075258
0.1  0.68  0.412399486085
0.1  0.7  0.333235974451
0.1  0.72  0.269268557346
0.1  0.74  0.217580218026
0.1  0.76  0.175813885374
0.1  0.78  0.142064947682
0.1  0.8  0.114794399298
0.1  0.82  0.0927586595097
0.1  0.84  0.0749528632635
0.1  0.86  0.0605650377128
0.1  0.88  0.0489390749525
0.1  0.9  0.0395448124471
0.1  0.92  0.0319538567698
0.1  0.94  0.0258200481752
0.1  0.96  0.0208636751605
0.1  0.98  0.0168587191724
0.12  -1  0.014140402916
0.12  -0.98  0.0174995959101
0.12  -0.96  0.0216567985251
0.12  -0.94  0.0268015858634
0.12  -0.92  0.0331685684733
0.12  -0.9  0.0410480909664
0.12  -0.88  0.0507994721975
0.12  -0.86  0.0628673907797
0.12  -0.84  0.0778021631421
0.12  -0.82  0.0962848388412
0.12  -0.8  0.119158257512
0.12  -0.78  0.147465483706
0.12  -0.76  0.182497372308
0.12  -0.74  0.225851433585
0.12  -0.72  0.279504682216
0.12  -0.7  0.345903792333
0.12  -0.68  0.428076669777
0.12  -0.66  0.529770529464
0.12  -0.64  0.655622774383
0.12  -0.62  0.811372468614
0.12  -0.6  1.00412204784
0.12  -0.58  1.24266120181
0.12  -0.56  1.53786769825
0.12  -0.54  1.90320342655
0.12  -0.52  2.35532828146
0.12  -0.5  2.91485988101
0.12  -0.48  3.60731376293
0.12  -0.46  4.46426693406
0.12  -0.44  5.52479783248
0.12  -0.42  6.83726836694
0.12  -0.4  8.46152929737
0.12  -0.38  10.4716495255
0.12  -0.36  12.9592937554
0.12  -0.34  16.037902551
0.12  -0.32  19.8478654078
0.12  -0.3  24.5629227383
0.12  -0.28  30.3980887139
0.12  -0.26  37.6194562553
0.12  -0.24  46.5563312967
0.12  -0.22  57.6162496633
0.12  -0.2  51.9228689128
0.12  -0.18  52.0436615011
0.12  -0.16  52.8698060585
0.12  -0.14  54.2856134377
0.12  -0.12  56.1051501314
0.12  -0.1  58.1098953175
0.12  -0.08  60.0821369098
0.12  -0.06  61.8278585218
0.12  -0.04  63.1896620381
0.12  -0.02  64.0529501432
0.12  6.17561557e-16  64.3484314122
0.12  0.02  64.0529501432
0.12  0.04  63.1896620381
0.12  0.06  61.8278585218
0.12  0.08  60.0821369098
0.12  0.1  58.1098953175
0.12  0.12  56.1051501314
0.12  0.14  54.2856134377
0.12  0.16  52.8698060585
0.12  0.18  52.0436615011
0.12  0.2  71.303561359
0.12  0.22  57.6162496632
0.12  0.24  46.5563312966
0.12  0.26  37.6194562553
0.12  0.28  30.3980887138
0.12  0.3  24.5629227382
0.12  0.32  19.8478654077
0.12  0.34  16.037902551
0.12  0.36  12.9592937554
0.12  0.38  10.4716495255
0.12  0.4  8.46152929736
0.12  0.42  6.83726836694
0.12  0.44  5.52479783248
0.12  0.46  4.46426693406
0.12  0.48  3.60731376293
0.12  0.5  2.91485988101
0.12  0.52  2.35532828146
0.12  0.54  1.90320342655
0.12  0.56  1.53786769825
0.12  0.58  1.24266120181
0.12  0.6  1.00412204784
0.12  0.62  0.811372468614
0.12  0.64  0.655622774383
0.12  0.66  0.529770529463
0.12  0.68  0.428076669777
0.12  0.7  0.345903792333
0.12  0.72  0.279504682216
0.12  0.74  0.225851433585
0.12  0.76  0.182497372308
0.12  0.78  0.147465483706
0.12  0.8  0.119158257512
0.12  0.82  0.0962848388412
0.12  0.84  0.0778021631421
0.12  0.86  0.0628673907796
0.12  0.88  0.0507994721975
0.12  0.9  0.0410480909664
0.12  0.92  0.0331685684732
0.12  0.94  0.0268015858634
0.12  0.96  0.0216567985251
0.12  0.98  0.0174995959101
0.14  -1  0.0143866585418
0.14  -0.98  0.0178043520027
0.14  -0.96  0.022033952451
0.14  -0.94  0.0272683364459
0.14  -0.92  0.0337462002871
0.14  -0.9  0.0417629449481
0.14  -0.88  0.0516841468343
0.14  -0.86  0.063962228653
0.14  -0.84  0.0791570906137
0.14  -0.82  0.0979616427754
0.14  -0.8  0.121233402856
0.14  -0.78  0.150033600413
0.14  -0.76  0.185675570616
0.14  -0.74  0.22978464443
0.14  -0.72  0.284372266318
0.14  -0.7  0.351927719327
0.14  -0.68  0.43553164039
0.14  -0.66  0.538996502303
0.14  -0.64  0.667040468598
0.14  -0.62  0.82550254936
0.14  -0.6  1.02160886945
0.14  -0.58  1.26430219137
0.14  -0.56  1.56464971957
0.14  -0.54  1.93634778273
0.14  -0.52  2.39634640826
0.14  -0.5  2.96562227076
0.14  -0.48  3.67013526195
0.14  -0.46  4.5420123034
0.14  -0.44  5.6210123856
0.14  -0.42  6.95633964166
0.14  -0.4  8.60888713465
0.14  -0.38  10.6540136789
0.14  -0.36  13.1849803226
0.14  -0.34  16.3172032012
0.14  -0.32  20.1935166982
0.14  -0.3  24.9906869219
0.14  -0.28  30.927472523
0.14  -0.26  38.2746004401
0.14  -0.24  47.367111482
0.14  -0.22  58.619638725
0.14  -0.2  52.8271075439
0.14  -0.18  52.9500037394
0.14  -0.16  53.790535634
0.14  -0.14  55.2309993497
0.14  -0.12  57.0822233404
0.14  -0.1  59.1218812361
0.14  -0.08  61.1284694867
0.14  -0.06  62.9045929034
0.14  -0.04  64.2901122769
0.14  -0.02  65.1684345755
0.14  6.17561557e-16  65.4690616614
0.14  0.02  65.1684345755
0.14  0.04  64.2901122769
0.14  0.06  62.9045929034
0.14  0.08  61.1284694867
0.14  0.1  59.1218812361
0.14  0.12  57.0822233404
0.14  0.14  55.2309993497
0.14  0.16  53.790535634
0.14  0.18  52.9500037394
0.14  0.2  72.5453154465
0.14  0.22  58.619638725
0.14  0.24  47.3671114819
0.14  0.26  38.2746004401
0.14  0.28  30.9274725229
0.14  0.3  24.9906869219
0.14  0.32  20.1935166982
0.14  0.34  16.3172032012
0.14  0.36  13.1849803226
0.14  0.38  10.6540136789
0.14  0.4  8.60888713464
0.14  0.42  6.95633964165
0.14  0.44  5.6210123856
0.14  0.46  4.5420123034
0.14  0.48  3.67013526195
0.14  0.5  2.96562227076
0.14  0.52  2.39634640826
0.14  0.54  1.93634778273
0.14  0.56  1.56464971957
0.14  0.58  1.26430219136
0.14  0.6  1.02160886945
0.14  0.62  0.82550254936
0.14  0.64  0.667040468598
0.14  0.66  0.538996502303
0.14  0.68  0.43553164039
0.14  0.7  0.351927719327
0.14  0.72  0.284372266317
0.14  0.74  0.22978464443
0.14  0.76  0.185675570616
0.14  0.78  0.150033600413
0.14  0.8  0.121233402856
0.14  0.82  0.0979616427753
0.14  0.84  0.0791570906136
0.14  0.86  0.0639622286529
0.14  0.88  0.0516841468343
0.14  0.9  0.0417629449481
0.14  0.92  0.0337462002871
0.14  0.94  0.0272683364459
0.14  0.96  0.022033952451
0.14  0.98  0.0178043520027
0.16  -1  0.0143565847612
0.16  -0.98  0.0177671338972
0.16  -0.96  0.0219878928153
0.16  -0.94  0.0272113348868
0.16  -0.92  0.0336756574421
0.16  -0.9  0.0416756439505
0.16  -0.88  0.0515761066186
0.16  -0.86  0.0638285224122
0.16  -0.84  0.0789916211289
0.16  -0.82  0.097756864373
0.16  -0.8  0.120979977312
0.16  -0.78  0.149719971118
0.16  -0.76  0.18528743557
0.16  -0.74  0.229304304053
0.16  -0.72  0.283777816319
0.16  -0.7  0.351192051834
0.16  -0.68  0.434621207786
0.16  -0.66  0.537869787402
0.16  -0.64  0.665646091395
0.16  -0.62  0.823776924019
0.16  -0.6  1.01947330469
0.16  -0.58  1.26165930201
0.16  -0.56  1.56137898563
0.16  -0.54  1.9323000535
0.16  -0.52  2.39133710079
0.16  -0.5  2.9594229526
0.16  -0.48  3.66246323427
0.16  -0.46  4.53251770943
0.16  -0.44  5.60926225664
0.16  -0.42  6.94179815299
0.16  -0.4  8.59089117109
0.16  -0.38  10.6317425956
0.16  -0.36  13.1574185226
0.16  -0.34  16.2830938222
0.16  -0.32  20.1513042979
0.16  -0.3  24.938446547
0.16  -0.28  30.8628219288
0.16  -0.26  38.1945914559
0.16  -0.24  47.2680955698
0.16  -0.22  58.4971006007
0.16  -0.2  52.7166780903
0.16  -0.18  52.8393173844
0.16  -0.16  53.6780922364
0.16  -0.14  55.1155448158
0.16  -0.12  56.9628990195
0.16  -0.1  58.9982932271
0.16  -0.08  61.0006869183
0.16  -0.06  62.7730975378
0.16  -0.04  64.1557206303
0.16  -0.02  65.0322068894
0.16  6.17561557e-16  65.3322055464
0.16  0.02  65.0322068894
0.16  0.04  64.1557206303
0.16  0.06  62.7730975378
0.16  0.08  61.0006869183
0.16  0.1  58.9982932271
0.16  0.12  56.9628990195
0.16  0.14  55.1155448158
0.16  0.16  53.6780922364
0.16  0.18  52.8393173844
0.16  0.2  72.3936671751
0.16  0.22  58.4971006006
0.16  0.24  47.2680955698
0.16  0.26  38.1945914559
0.16  0.28  30.8628219288
0.16  0.3  24.938446547
0.16  0.32  20.1513042978
0.16  0.34  16.2830938222
0.16  0.36  13.1574185226
0.16  0.38  10.6317425956
0.16  0.4  8.59089117108
0.16  0.42  6.94179815299
0.16  0.44  5.60926225663
0.16  0.46  4.53251770943
0.16  0.48  3.66246323427
0.16  0.5  2.9594229526
0.16  0.52  2.39133710079
0.16  0.54  1.93230005349
0.16  0.56  1.56137898563
0.16  0.58  1.26165930201
0.16  0.6  1.01947330469
0.16  0.62  0.823776924019
0.16  0.64  0.665646091394
0.16  0.66  0.537869787402
0.16  0.68  0.434621207786
0.16  0.7  0.351192051834
0.16  0.72  0.283777816319
0.16  0.74  0.229304304053
0.16  0.76  0.18528743557
0.16  0.78  0.149719971118
0.16  0.8  0.120979977312
0.16  0.82  0.097756864373
0.16  0.84  0.0789916211289
0.16  0.86  0.0638285224122
0.16  0.88  0.0515761066186
0.16  0.9  0.0416756439505
0.16  0.92  0.0336756574421
0.16  0.94  0.0272113348868
0.16  0.96  0.0219878928153
0.16  0.98  0.0177671338972
0.18  -1  0.0140507592115
0.18  -0.98  0.0173886564542
0.18  -0.96  0.021519504301
0.18  -0.94  0.0266316760342
0.18  -0.92  0.0329582948785
0.18  -0.9  0.0407878647933
0.18  -0.88  0.0504774267153
0.18  -0.86  0.0624688401983
0.18  -0.84  0.0773089329162
0.18  -0.82  0.095674436882
0.18  -0.8  0.118402848512
0.18  -0.78  0.146530619804
0.18  -0.76  0.181340422211
0.18  -0.74  0.224419638515
0.18  -0.72  0.277732750023
0.18  -0.7  0.343710920069
0.18  -0.68  0.425362858952
0.18  -0.66  0.526412025955
0.18  -0.64  0.651466425047
0.18  -0.62  0.80622873726
0.18  -0.6  0.997756372075
0.18  -0.58  1.23478329661
0.18  -0.56  1.52811831852
0.18  -0.54  1.89113798495
0.18  -0.52  2.34039657451
0.18  -0.5  2.89638099894
0.18  -0.48  3.5844450391
0.18  -0.46  4.43596551801
0.18  -0.44  5.48977313429
0.18  -0.42  6.79392320423
0.18  -0.4  8.40788706124
0.18  -0.38  10.405264044
0.18  -0.36  12.8771377442
0.18  -0.34  15.9362295643
0.18  -0.32  19.7220389944
0.18  -0.3  24.4072050121
0.18  -0.28  30.2053786971
0.18  -0.26  37.3809660623
0.18  -0.24  46.2611853923
0.18  -0.22  57.2509889213
0.18  -0.2  51.5937016078
0.18  -0.18  51.7137284262
0.18  -0.16  52.5346356039
0.18  -0.14  53.9414674102
0.18  -0.12  55.7494690712
0.18  -0.1  57.7415050872
0.18  -0.08  59.7012435675
0.18  -0.06  61.4358981007
0.18  -0.04  62.7890684039
0.18  -0.02  63.6468836562
0.18  6.17561557e-16  63.9404917087
0.18  0.02  63.6468836562
0.18  0.04  62.7890684039
0.18  0.06  61.4358981007
0.18  0.08  59.7012435675
0.18  0.1  57.7415050872
0.18  0.12  55.7494690712
0.18  0.14  53.9414674102
0.18  0.16  52.5346356039
0.18  0.18  51.7137284262
0.18  0.2  70.8515293041
0.18  0.22  57.2509889213
0.18  0.24  46.2611853923
0.18  0.26  37.3809660623
0.18  0.28  30.2053786971
0.18  0.3  24.4072050121
0.18  0.32  19.7220389944
0.18  0.34  15.9362295643
0.18  0.36  12.8771377442
0.18  0.38  10.405264044
0.18  0.4  8.40788706123
0.18  0.42  6.79392320422
0.18  0.44  5.48977313429
0.18  0.46  4.43596551801
0.18  0.48  3.5844450391
0.18  0.5  2.89638099894
0.18  0.52  2.34039657451
0.18  0.54  1.89113798495
0.18  0.56  1.52811831852
0.18  0.58  1.23478329661
0.18  0.6  0.997756372075
0.18  0.62  0.80622873726
0.18  0.64  0.651466425047
0.18  0.66  0.526412025954
0.18  0.68  0.425362858952
0.18  0.7  0.343710920069
0.18  0.72  0.277732750023
0.18  0.74  0.224419638515
0.18  0.76  0.181340422211
0.18  0.78  0.146530619804
0.18  0.8  0.118402848512
0.18  0.82  0.095674436882
0.18  0.84  0.0773089329162
0.18  0.86  0.0624688401982
0.18  0.88  0.0504774267153
0.18  0.9  0.0407878647932
0.18  0.92  0.0329582948785
0.18  0.94  0.0266316760342
0.18  0.96  0.0215195043009
0.18  0.98  0.0173886564542
0.2  -1  0.0134750559872
0.2  -0.98  0.0166761892177
0.2  -0.96  0.0206377834043
0.2  -0.94  0.0255404935914
0.2  -0.92  0.0316078912213
0.2  -0.9  0.0391166593503
0.2  -0.88  0.0484092098401
0.2  -0.86  0.0599092978863
0.2  -0.84  0.0741413459359
0.2  -0.82  0.0917543581901
0.2  -0.8  0.113551516237
0.2  -0.78  0.140526805419
0.2  -0.76  0.173910342158
0.2  -0.74  0.215224469234
0.2  -0.72  0.266353177058
0.2  -0.7  0.329628016653
0.2  -0.68  0.40793442212
0.2  -0.66  0.504843291052
0.2  -0.64  0.624773823193
0.2  -0.62  0.773195043029
0.2  -0.6  0.956875196065
0.2  -0.58  1.18419039167
0.2  -0.56  1.4655065671
0.2  -0.54  1.81365219083
0.2  -0.52  2.2445032613
0.2  -0.5  2.77770727786
0.2  -0.48  3.43757919826
0.2  -0.46  4.25421023968
0.2  -0.44  5.26484008646
0.2  -0.42  6.51555507941
0.2  -0.4  8.06338982679
0.2  -0.38  9.97892807387
0.2  -0.36  12.3495214349
0.2  -0.34  15.2832727665
0.2  -0.32  18.9139658315
0.2  -0.3  23.4071660528
0.2  -0.28  28.9677705619
0.2  -0.26  35.8493518368
0.2  -0.24  44.365721013
0.2  -0.22  54.9052381745
0.2  -0.2  49.4797474849
0.2  -0.18  49.5948564318
0.2  -0.16  50.3821284941
0.2  -0.14  51.7313180339
0.2  -0.12  53.4652402541
0.2  -0.1  55.3756563704
0.2  -0.08  57.2550982813
0.2  -0.06  58.9186786332
0.2  -0.04  60.2164053482
0.2  -0.02  61.0390732467
0.2  6.17561557e-16  61.3206512658
0.2  0.02  61.0390732467
0.2  0.04  60.2164053482
0.2  0.06  58.9186786332
0.2  0.08  57.2550982813
0.2  0.1  55.3756563704
0.2  0.12  53.4652402541
0.2  0.14  51.7313180339
0.2  0.16  50.3821284941
0.2  0.18  49.5948564318
0.2  0.2  67.9485221962
0.2  0.22  54.9052381745
0.2  0.24  44.365721013
0.2  0.26  35.8493518368
0.2  0.28  28.9677705619
0.2  0.3  23.4071660528
0.2  0.32  18.9139658315
0.2  0.34  15.2832727665
0.2  0.36  12.3495214348
0.2  0.38  9.97892807387
0.2  0.4  8.06338982679
0.2  0.42  6.51555507941
0.2  0.44  5.26484008646
0.2  0.46  4.25421023967
0.2  0.48  3.43757919825
0.2  0.5  2.77770727786
0.2  0.52  2.2445032613
0.2  0.54  1.81365219083
0.2  0.56  1.4655065671
0.2  0.58  1.18419039167
0.2  0.6  0.956875196064
0.2  0.62  0.773195043028
0.2  0.64  0.624773823193
0.2  0.66  0.504843291051
0.2  0.68  0.40793442212
0.2  0.7  0.329628016653
0.2  0.72  0.266353177058
0.2  0.74  0.215224469234
0.2  0.76  0.173910342158
0.2  0.78  0.140526805419
0.2  0.8  0.113551516237
0.2  0.82  0.0917543581901
0.2  0.84  0.0741413459358
0.2  0.86  0.0599092978863
0.2  0.88  0.04840920984
0.2  0.9  0.0391166593503
0.2  0.92  0.0316078912212
0.2  0.94  0.0255404935914
0.2  0.96  0.0206377834043
0.2  0.98  0.0166761892177
0.22  -1  0.0126405328146
0.22  -0.98  0.0156434167865
0.22  -0.96  0.0193596656363
0.22  -0.94  0.0239587462678
0.22  -0.92  0.0296503841291
0.22  -0.9  0.0366941270288
0.22  -0.88  0.0454111809325
0.22  -0.86  0.0561990574695
0.22  -0.84  0.0695497011002
0.22  -0.82  0.0860719225718
0.22  -0.8  0.106519161665
0.22  -0.78  0.131823845253
0.22  -0.76  0.163139907465
0.22  -0.74  0.201895410931
0.22  -0.72  0.249857668722
0.22  -0.7  0.309213836667
0.22  -0.68  0.382670651157
0.22  -0.66  0.473577860664
0.22  -0.64  0.586080979645
0.22  -0.62  0.725310330639
0.22  -0.6  0.897614995202
0.22  -0.58  1.1108523422
0.22  -0.56  1.37474633642
0.22  -0.54  1.70133096695
0.22  -0.52  2.10549901639
0.22  -0.5  2.60568119556
0.22  -0.48  3.22468661351
0.22  -0.46  3.9907429094
0.22  -0.44  4.93878347812
0.22  -0.42  6.11204048908
0.22  -0.4  7.56401634242
0.22  -0.38  9.3609234642
0.22  -0.36  11.5847036992
0.22  -0.34  14.3367649902
0.22  -0.32  17.742605743
0.22  -0.3  21.9575377547
0.22  -0.28  27.1737686805
0.22  -0.26  33.6291670108
0.22  -0.24  41.618109256
0.22  -0.22  51.5049039867
0.22  -0.2  46.4154191517
0.22  -0.18  46.5233992909
0.22  -0.16  47.2619148374
0.22  -0.14  48.5275477719
0.22  -0.12  50.1540865219
0.22  -0.1  51.9461887314
0.22  -0.08  53.7092349978
0.22  -0.06  55.2697882192
0.22  -0.04  56.487145471
0.22  -0.02  57.2588647556
0.22  6.17561557e-16  57.5230043773
0.22  0.02  57.2588647556
0.22  0.04  56.487145471
0.22  0.06  55.2697882192
0.22  0.08  53.7092349978
0.22  0.1  51.9461887314
0.22  0.12  50.1540865219
0.22  0.14  48.5275477719
0.22  0.16  47.2619148374
0.22  0.18  46.5233992909
0.22  0.2  63.7404048887
0.22  0.22  51.5049039867
0.22  0.24  41.618109256
0.22  0.26  33.6291670108
0.22  0.28  27.1737686805
0.22  0.3  21.9575377547
0.22  0.32  17.742605743
0.22  0.34  14.3367649902
0.22  0.36  11.5847036992
0.22  0.38  9.36092346419
0.22  0.4  7.56401634241
0.22  0.42  6.11204048908
0.22  0.44  4.93878347812
0.22  0.46  3.9907429094
0.22  0.48  3.22468661351
0.22  0.5  2.60568119556
0.22  0.52  2.10549901639
0.22  0.54  1.70133096695
0.22  0.56  1.37474633642
0.22  0.58  1.1108523422
0.22  0.6  0.897614995201
0.22  0.62  0.725310330639
0.22  0.64  0.586080979645
0.22  0.66  0.473577860664
0.22  0.68  0.382670651156
0.22  0.7  0.309213836667
0.22  0.72  0.249857668722
0.22  0.74  0.20189541093
0.22  0.76  0.163139907465
0.22  0.78  0.131823845253
0.22  0.8  0.106519161664
0.22  0.82  0.0860719225718
0.22  0.84  0.0695497011002
0.22  0.86  0.0561990574695
0.22  0.88  0.0454111809325
0.22  0.9  0.0366941270287
0.22  0.92  0.0296503841291
0.22  0.94  0.0239587462678
0.22  0.96  0.0193596656363
0.22  0.98  0.0156434167865
0.24  -1  0.0115632186618
0.24  -0.98  0.0143101759691
0.24  -0.96  0.0177097002361
0.24  -0.94  0.0219168152182
0.24  -0.92  0.0271233721014
0.24  -0.9  0.0335667982245
0.24  -0.88  0.0415409241457
0.24  -0.86  0.0514093827877
0.24  -0.84  0.0636221916813
0.24  -0.82  0.078736274486
0.24  -0.8  0.0974408576018
0.24  -0.78  0.120588899998
0.24  -0.76  0.149235989507
0.24  -0.74  0.184688479326
0.24  -0.72  0.228563059812
0.24  -0.7  0.282860482155
0.24  -0.68  0.350056795839
0.24  -0.66  0.433216260467
0.24  -0.64  0.536131080909
0.24  -0.62  0.663494337925
0.24  -0.6  0.821114000166
0.24  -0.58  1.01617777686
0.24  -0.56  1.25758088885
0.24  -0.54  1.55633170496
0.24  -0.52  1.92605374123
0.24  -0.5  2.38360691508
0.24  -0.48  2.94985638459
0.24  -0.46  3.65062403312
0.24  -0.44  4.51786598859
0.24  -0.42  5.59112987416
0.24  -0.4  6.91935824317
0.24  -0.38  8.56312043807
0.24  -0.36  10.5973746495
0.24  -0.34  13.1148861299
0.24  -0.32  16.2304574377
0.24  -0.3  20.086163618
0.24  -0.28  24.8578310524
0.24  -0.26  30.7630554237
0.24  -0.24  38.0711244278
0.24  -0.22  47.1152977243
0.24  -0.2  42.4595741969
0.24  -0.18  42.5583515174
0.24  -0.16  43.2339256308
0.24  -0.14  44.391692521
0.24  -0.12  45.8796063221
0.24  -0.1  47.5189731128
0.24  -0.08  49.13176031
0.24  -0.06  50.5593123283
0.24  -0.04  51.6729179254
0.24  -0.02  52.3788659233
0.24  6.17561557e-16  52.6204937287
0.24  0.02  52.3788659233
0.24  0.04  51.6729179254
0.24  0.06  50.5593123283
0.24  0.08  49.13176031
0.24  0.1  47.5189731128
0.24  0.12  45.8796063221
0.24  0.14  44.391692521
0.24  0.16  43.2339256308
0.24  0.18  42.5583515174
0.24  0.2  58.308004111
0.24  0.22  47.1152977243
0.24  0.24  38.0711244278
0.24  0.26  30.7630554237
0.24  0.28  24.8578310524
0.24  0.3  20.086163618
0.24  0.32  16.2304574377
0.24  0.34  13.1148861299
0.24  0.36  10.5973746495
0.24  0.38  8.56312043807
0.24  0.4  6.91935824317
0.24  0.42  5.59112987416
0.24  0.44  4.51786598859
0.24  0.46  3.65062403312
0.24  0.48  2.94985638459
0.24  0.5  2.38360691508
0.24  0.52  1.92605374123
0.24  0.54  1.55633170496
0.24  0.56  1.25758088885
0.24  0.58  1.01617777685
0.24  0.6  0.821114000166
0.24  0.62  0.663494337925
0.24  0.64  0.536131080909
0.24  0.66  0.433216260466
0.24  0.68  0.350056795839
0.24  0.7  0.282860482155
0.24  0.72  0.228563059812
0.24  0.74  0.184688479326
0.24  0.76  0.149235989507
0.24  0.78  0.120588899998
0.24  0.8  0.0974408576018
0.24  0.82  0.0787362744859
0.24  0.84  0.0636221916813
0.24  0.86  0.0514093827877
0.24  0.88  0.0415409241457
0.24  0.9  0.0335667982244
0.24  0.92  0.0271233721014
0.24  0.94  0.0219168152182
0.24  0.96  0.0177097002361
0.24  0.98  0.014310175969
0.26  -1  0.0102638058654
0.26  -0.98  0.0127020747719
0.26  -0.96  0.0157195786462
0.26  -0.94  0.0194539205014
0.26  -0.92  0.0240753923112
0.26  -0.9  0.0297947405973
0.26  -0.88  0.0368727768081
0.26  -0.86  0.0456322707392
0.26  -0.84  0.0564726693532
0.26  -0.82  0.0698883122012
0.26  -0.8  0.0864909740992
0.26  -0.78  0.107037763039
0.26  -0.76  0.132465645529
0.26  -0.74  0.163934173764
0.26  -0.72  0.202878363069
0.26  -0.7  0.251074130892
0.26  -0.68  0.310719281493
0.26  -0.66  0.384533729336
0.26  -0.64  0.475883531548
0.26  -0.62  0.588934385522
0.26  -0.6  0.728841591389
0.26  -0.58  0.901985141975
0.26  -0.56  1.11626066069
0.26  -0.54  1.38143945462
0.26  -0.52  1.70961410179
0.26  -0.5  2.11574989208
0.26  -0.48  2.61836726847
0.26  -0.46  3.24038638888
0.26  -0.44  4.01017232217
