0.18  -0.04  61.5636325042
0.18  -0.02  61.5728031695
0.18  6.17561557e-16  61.575973735
0.18  0.02  61.5728031695
0.18  0.04  61.5636325042
0.18  0.06  61.5494484367
0.18  0.08  61.5317779075
0.18  0.1  61.5125246049
0.18  0.12  61.4937645335
0.18  0.14  61.4775223232
0.18  0.16  61.4655523146
0.18  0.18  61.4591482611
0.18  0.2  83.4280992312
0.18  0.22  69.7676140856
0.18  0.24  58.343891567
0.18  0.26  48.7906850163
0.18  0.28  40.8017168622
0.18  0.3  34.1208593064
0.18  0.32  28.5339228185
0.18  0.34  23.8617891801
0.18  0.36  19.9546689215
0.18  0.38  16.6872990437
0.18  0.4  13.9549270634
0.18  0.42  11.669952629
0.18  0.44  9.75911903682
0.18  0.46  8.16116460821
0.18  0.48  6.82485862822
0.18  0.5  5.70735887968
0.18  0.52  4.77283811371
0.18  0.54  3.9913354215
0.18  0.56  3.33779568203
0.18  0.58  2.7912662902
0.18  0.6  2.33422541254
0.18  0.62  1.95202023384
0.18  0.64  1.63239718532
0.18  0.66  1.36510909285
0.18  0.68  1.14158665069
0.18  0.7  0.954663687949
0.18  0.72  0.798347419827
0.18  0.74  0.667626317823
0.18  0.76  0.558309439199
0.18  0.78  0.466892064584
0.18  0.8  0.390443336018
0.18  0.82  0.326512293107
0.18  0.84  0.273049294777
0.18  0.86  0.228340307401
0.18  0.88  0.190951952565
0.18  0.9  0.159685552688
0.18  0.92  0.1335387012
0.18  0.94  0.111673125202
0.18  0.96  0.0933878102777
0.18  0.98  0.0780965258443
0.2  -1  0.0627874901898
0.2  -0.98  0.0750812684466
0.2  -0.96  0.0897821660734
0.2  -0.94  0.10736149657
0.2  -0.92  0.128382856528
0.2  -0.9  0.153520194641
0.2  -0.88  0.183579418622
0.2  -0.86  0.21952423276
0.2  -0.84  0.262507034452
0.2  -0.82  0.313905860279
0.2  -0.8  0.375368566116
0.2  -0.78  0.448865657693
0.2  -0.76  0.536753465377
0.2  -0.74  0.641849688556
0.2  -0.72  0.767523731609
0.2  -0.7  0.917804727627
0.2  -0.68  1.09751071317
0.2  -0.66  1.31240309542
0.2  -0.64  1.56937136394
0.2  -0.62  1.876653969
0.2  -0.6  2.24410244782
0.2  -0.58  2.68349726669
0.2  -0.56  3.20892550485
0.2  -0.54  3.83723248893
0.2  -0.52  4.58856185719
0.2  -0.5  5.4870013683
0.2  -0.48  6.56135515935
0.2  -0.46  7.84606721185
0.2  -0.44  9.3823256321
0.2  -0.42  11.2193831495
0.2  -0.4  13.4161361683
0.2  -0.38  16.0430129971
0.2  -0.36  19.1842317934
0.2  -0.34  22.9405006135
0.2  -0.32  27.4322461315
0.2  -0.3  32.8034745403
0.2  -0.28  39.2263884174
0.2  -0.26  46.9069075711
0.2  -0.24  56.0912708678
0.2  -0.22  67.0739306955
0.2  -0.2  59.0861094666
0.2  -0.18  59.0862494741
0.2  -0.16  59.0924062711
0.2  -0.14  59.1039141253
0.2  -0.12  59.1195292341
0.2  -0.1  59.1375649911
0.2  -0.08  59.1560749359
0.2  -0.06  59.1730632171
0.2  -0.04  59.1866996467
0.2  -0.02  59.1955162385
0.2  6.17561557e-16  59.1985643905
0.2  0.02  59.1955162385
0.2  0.04  59.1866996467
0.2  0.06  59.1730632171
0.2  0.08  59.1560749359
0.2  0.1  59.1375649911
0.2  0.12  59.1195292341
0.2  0.14  59.1039141253
0.2  0.16  59.0924062711
0.2  0.18  59.0862494741
0.2  0.2  80.2069931621
0.2  0.22  67.0739306955
0.2  0.24  56.0912708678
0.2  0.26  46.9069075712
0.2  0.28  39.2263884174
0.2  0.3  32.8034745403
0.2  0.32  27.4322461315
0.2  0.34  22.9405006136
0.2  0.36  19.1842317934
0.2  0.38  16.0430129971
0.2  0.4  13.4161361683
0.2  0.42  11.2193831495
0.2  0.44  9.3823256321
0.2  0.46  7.84606721185
0.2  0.48  6.56135515936
0.2  0.5  5.4870013683
0.2  0.52  4.58856185719
0.2  0.54  3.83723248894
0.2  0.56  3.20892550485
0.2  0.58  2.68349726669
0.2  0.6  2.24410244782
0.2  0.62  1.876653969
0.2  0.64  1.56937136394
0.2  0.66  1.31240309542
0.2  0.68  1.09751071317
0.2  0.7  0.917804727628
0.2  0.72  0.767523731609
0.2  0.74  0.641849688557
0.2  0.76  0.536753465377
0.2  0.78  0.448865657693
0.2  0.8  0.375368566116
0.2  0.82  0.313905860279
0.2  0.84  0.262507034452
0.2  0.86  0.21952423276
0.2  0.88  0.183579418622
0.2  0.9  0.153520194641
0.2  0.92  0.128382856528
0.2  0.94  0.10736149657
0.2  0.96  0.0897821660734
0.2  0.98  0.0750812684466
0.22  -1  0.0591357076261
0.22  -0.98  0.0707144675736
0.22  -0.96  0.0845603464464
0.22  -0.94  0.101117245685
0.22  -0.92  0.120915982546
0.22  -0.9  0.144591308197
0.22  -0.88  0.172902257966
0.22  -0.86  0.206756486142
0.22  -0.84  0.247239365552
0.22  -0.82  0.295648784805
0.22  -0.8  0.353536758847
0.22  -0.78  0.422759186846
0.22  -0.76  0.505535352661
0.22  -0.74  0.604519075498
0.22  -0.72  0.72288379184
0.22  -0.7  0.864424296412
0.22  -0.68  1.033678404
0.22  -0.66  1.23607243264
0.22  -0.64  1.47809517236
0.22  -0.62  1.76750591703
0.22  -0.6  2.1135832287
0.22  -0.58  2.52742241008
0.22  -0.56  3.02229122195
0.22  -0.54  3.61405525007
0.22  -0.52  4.32168655875
0.22  -0.5  5.1678719388
0.22  -0.48  6.17974025019
0.22  -0.46  7.38973217837
0.22  -0.44  8.83664028862
0.22  -0.42  10.5668527229
0.22  -0.4  12.6358404122
0.22  -0.38  15.1099354851
0.22  -0.36  18.0684578877
0.22  -0.34  21.606258396
0.22  -0.32  25.8367595496
0.22  -0.3  30.8955919988
0.22  -0.28  36.9449428488
0.22  -0.26  44.1787554079
0.22  -0.24  52.8289470464
0.22  -0.22  63.1728445101
0.22  -0.2  55.6496028687
0.22  -0.18  55.6497347331
0.22  -0.16  55.6555334447
0.22  -0.14  55.6663719907
0.22  -0.12  55.6810789094
0.22  -0.1  55.6980656889
0.22  -0.08  55.7154990769
0.22  -0.06  55.7314993029
0.22  -0.04  55.7443426243
0.22  -0.02  55.7526464344
0.22  6.17561557e-16  55.7555173028
0.22  0.02  55.7526464344
0.22  0.04  55.7443426243
0.22  0.06  55.7314993029
0.22  0.08  55.7154990769
0.22  0.1  55.6980656889
0.22  0.12  55.6810789094
0.22  0.14  55.6663719907
0.22  0.16  55.6555334447
0.22  0.18  55.6497347331
0.22  0.2  75.5420750672
0.22  0.22  63.1728445102
0.22  0.24  52.8289470464
0.22  0.26  44.1787554079
0.22  0.28  36.9449428488
0.22  0.3  30.8955919988
0.22  0.32  25.8367595496
0.22  0.34  21.606258396
0.22  0.36  18.0684578877
0.22  0.38  15.1099354851
0.22  0.4  12.6358404122
0.22  0.42  10.5668527229
0.22  0.44  8.83664028862
0.22  0.46  7.38973217837
0.22  0.48  6.17974025019
0.22  0.5  5.1678719388
0.22  0.52  4.32168655875
0.22  0.54  3.61405525007
0.22  0.56  3.02229122195
0.22  0.58  2.52742241008
0.22  0.6  2.1135832287
0.22  0.62  1.76750591703
0.22  0.64  1.47809517237
0.22  0.66  1.23607243264
0.22  0.68  1.033678404
0.22  0.7  0.864424296413
0.22  0.72  0.72288379184
0.22  0.74  0.604519075498
0.22  0.76  0.505535352661
0.22  0.78  0.422759186846
0.22  0.8  0.353536758847
0.22  0.82  0.295648784805
0.22  0.84  0.247239365552
0.22  0.86  0.206756486142
0.22  0.88  0.172902257966
0.22  0.9  0.144591308198
0.22  0.92  0.120915982546
0.22  0.94  0.101117245685
0.22  0.96  0.0845603464464
0.22  0.98  0.0707144675736
0.24  -1  0.0544194188086
0.24  -0.98  0.0650747303312
0.24  -0.96  0.0778163497588
0.24  -0.94  0.0930527757697
0.24  -0.92  0.111272491003
0.24  -0.9  0.133059622904
0.24  -0.88  0.159112670955
0.24  -0.86  0.190266900701
0.24  -0.84  0.227521122517
0.24  -0.82  0.272069713654
0.24  -0.8  0.325340910192
0.24  -0.78  0.389042596557
0.24  -0.76  0.465217060612
0.24  -0.74  0.556306469778
0.24  -0.72  0.665231167382
0.24  -0.7  0.7954832994
0.24  -0.68  0.951238773305
0.24  -0.66  1.13749113843
0.24  -0.64  1.3602116801
0.24  -0.62  1.62654086011
0.24  -0.6  1.9450172413
0.24  -0.58  2.32585123543
0.24  -0.56  2.78125245087
0.24  -0.54  3.32582113491
0.24  -0.52  3.97701626041
0.24  -0.5  4.75571526369
0.24  -0.48  5.68688337899
0.24  -0.46  6.80037402851
0.24  -0.44  8.13188592868
0.24  -0.42  9.72410759759
0.24  -0.4  11.6280859568
0.24  -0.38  13.904862905
0.24  -0.36  16.6274323329
0.24  -0.34  19.8830803205
0.24  -0.32  23.7761835451
0.24  -0.3  28.431555617
0.24  -0.28  33.998448627
0.24  -0.26  40.6553381957
0.24  -0.24  48.6156454356
0.24  -0.22  58.1345792708
0.24  -0.2  51.2113436469
0.24  -0.18  51.2114649946
0.24  -0.16  51.2168012378
0.24  -0.14  51.2267753702
0.24  -0.12  51.2403093583
0.24  -0.1  51.25594138
0.24  -0.08  51.2719843917
0.24  -0.06  51.2867085412
0.24  -0.04  51.2985275608
0.24  -0.02  51.3061691116
0.24  6.17561557e-16  51.3088110178
0.24  0.02  51.3061691116
0.24  0.04  51.2985275608
0.24  0.06  51.2867085412
0.24  0.08  51.2719843917
0.24  0.1  51.25594138
0.24  0.12  51.2403093583
0.24  0.14  51.2267753702
0.24  0.16  51.2168012378
0.24  0.18  51.2114649946
0.24  0.2  69.5173184828
0.24  0.22  58.1345792709
0.24  0.24  48.6156454356
0.24  0.26  40.6553381958
0.24  0.28  33.998448627
0.24  0.3  28.431555617
0.24  0.32  23.7761835451
0.24  0.34  19.8830803205
0.24  0.36  16.6274323329
0.24  0.38  13.904862905
0.24  0.4  11.6280859568
0.24  0.42  9.72410759759
0.24  0.44  8.13188592868
0.24  0.46  6.80037402851
0.24  0.48  5.68688337899
0.24  0.5  4.75571526369
0.24  0.52  3.97701626041
0.24  0.54  3.32582113491
0.24  0.56  2.78125245087
0.24  0.58  2.32585123543
0.24  0.6  1.9450172413
0.24  0.62  1.62654086011
0.24  0.64  1.3602116801
0.24  0.66  1.13749113843
0.24  0.68  0.951238773305
0.24  0.7  0.7954832994
0.24  0.72  0.665231167382
0.24  0.74  0.556306469778
0.24  0.76  0.465217060612
0.24  0.78  0.389042596558
0.24  0.8  0.325340910192
0.24  0.82  0.272069713654
0.24  0.84  0.227521122517
0.24  0.86  0.190266900701
0.24  0.88  0.159112670955
0.24  0.9  0.133059622904
0.24  0.92  0.111272491003
0.24  0.94  0.0930527757697
0.24  0.96  0.0778163497588
0.24  0.98  0.0650747303312
0.26  -1  0.0487235220017
0.26  -0.98  0.0582635780473
0.26  -0.96  0.0696715751944
0.26  -0.94  0.0833132559441
0.26  -0.92  0.0996259751072
0.26  -0.9  0.119132721481
0.26  -0.88  0.142458884967
0.26  -0.86  0.170352306685
0.26  -0.84  0.203707254901
0.26  -0.82  0.243593095432
0.26  -0.8  0.291288575711
0.26  -0.78  0.348322821668
0.26  -0.76  0.41652436179
0.26  -0.74  0.498079750084
0.26  -0.72  0.595603667399
0.26  -0.7  0.712222748585
0.26  -0.68  0.851675822981
0.26  -0.66  1.01843378197
0.26  -0.64  1.21784291661
0.26  -0.62  1.45629632068
0.26  -0.6  1.74143885446
0.26  -0.58  2.08241224039
0.26  -0.56  2.49014814838
0.26  -0.54  2.97771866712
0.26  -0.52  3.56075539775
0.26  -0.5  4.25795060581
0.26  -0.48  5.09165649878
0.26  -0.46  6.08860184198
0.26  -0.44  7.28074888772
0.26  -0.42  8.70631809104
0.26  -0.4  10.4110134646
0.26  -0.38  12.4494878578
0.26  -0.36  14.887095137
0.26  -0.34  17.8019854432
0.26  -0.32  21.2876106992
0.26  -0.3  25.4557206963
0.26  -0.28  30.4399458128
0.26  -0.26  36.400081229
0.26  -0.24  43.5272099899
0.26  -0.22  52.0498291634
0.26  -0.2  45.8512252343
0.26  -0.18  45.851333881
0.26  -0.16  45.8561115976
0.26  -0.14  45.8650417712
0.26  -0.12  45.8771592025
0.26  -0.1  45.8911550733
0.26  -0.08  45.9055189171
0.26  -0.06  45.9187019396
0.26  -0.04  45.9292839023
0.26  -0.02  45.9361256378
0.26  6.17561557e-16  45.9384910246
0.26  0.02  45.9361256378
0.26  0.04  45.9292839023
0.26  0.06  45.9187019396
0.26  0.08  45.9055189171
0.26  0.1  45.8911550733
0.26  0.12  45.8771592025
0.26  0.14  45.8650417712
0.26  0.16  45.8561115976
0.26  0.18  45.851333881
0.26  0.2  62.2411754986
0.26  0.22  52.0498291634
0.26  0.24  43.5272099899
0.26  0.26  36.400081229
0.26  0.28  30.4399458128
0.26  0.3  25.4557206963
0.26  0.32  21.2876106992
0.26  0.34  17.8019854432
0.26  0.36  14.887095137
0.26  0.38  12.4494878578
0.26  0.4  10.4110134646
0.26  0.42  8.70631809105
0.26  0.44  7.28074888772
0.26  0.46  6.08860184198
0.26  0.48  5.09165649879
0.26  0.5  4.25795060581
0.26  0.52  3.56075539775
0.26  0.54  2.97771866712
0.26  0.56  2.49014814838
0.26  0.58  2.08241224039
0.26  0.6  1.74143885446
0.26  0.62  1.45629632068
0.26  0.64  1.21784291661
0.26  0.66  1.01843378197
0.26  0.68  0.851675822981
0.26  0.7  0.712222748585
0.26  0.72  0.595603667399
0.26  0.74  0.498079750084
0.26  0.76  0.41652436179
0.26  0.78  0.348322821668
0.26  0.8  0.291288575711
0.26  0.82  0.243593095432
0.26  0.84  0.203707254901
0.26  0.86  0.170352306685
0.26  0.88  0.142458884967
0.26  0.9  0.119132721481
0.26  0.92  0.0996259751072
0.26  0.94  0.0833132559441
0.26  0.96  0.0696715751944
0.26  0.98  0.0582635780473
0.28  -1  0.0421505494657
0.28  -0.98  0.0504036187788
0.28  -0.96  0.0602726374437
0.28  -0.94  0.0720740080263
0.28  -0.92  0.0861860846529
0.28  -0.9  0.103061303113
0.28  -0.88  0.123240686037
0.28  -0.86  0.147371188176
0.28  -0.84  0.176226437898
0.28  -0.82  0.210731539854
0.28  -0.8  0.251992734
0.28  -0.78  0.301332861862
0.28  -0.76  0.360333777076
0.28  -0.74  0.43088705991
0.28  -0.72  0.515254661676
0.28  -0.7  0.616141423311
0.28  -0.68  0.736781793074
0.28  -0.66  0.88104352356
0.28  -0.64  1.05355167256
0.28  -0.62  1.25983688329
0.28  -0.6  1.50651269778
0.28  -0.58  1.80148758835
0.28  -0.56  2.15421850459
0.28  -0.54  2.57601406502
0.28  -0.52  3.08039711339
0.28  -0.5  3.68353826365
0.28  -0.48  4.40477433275
0.28  -0.46  5.26722828264
0.28  -0.44  6.29855054666
0.28  -0.42  7.53180550757
0.28  -0.4  9.0065315478
0.28  -0.38  10.7700086573
0.28  -0.36  12.8787742387
0.28  -0.34  15.4004357071
0.28  -0.32  18.4158379961
0.28  -0.3  22.0216554616
0.28  -0.28  26.3334912791
0.28  -0.26  31.4895837034
0.28  -0.24  37.6552380125
0.28  -0.22  45.0281262253
0.28  -0.2  39.6657355196
0.28  -0.18  39.6658295095
0.28  -0.16  39.6699626955
0.28  -0.14  39.6776881576
0.28  -0.12  39.6881709053
0.28  -0.1  39.7002786845
0.28  -0.08  39.7127047958
0.28  -0.06  39.7241093827
0.28  -0.04  39.7332638019
0.28  -0.02  39.7391825635
0.28  6.17561557e-16  39.7412288514
0.28  0.02  39.7391825635
0.28  0.04  39.7332638019
0.28  0.06  39.7241093827
0.28  0.08  39.7127047958
0.28  0.1  39.7002786845
0.28  0.12  39.6881709053
0.28  0.14  39.6776881576
0.28  0.16  39.6699626955
0.28  0.18  39.6658295095
0.28  0.2  53.8446245032
0.28  0.22  45.0281262253
0.28  0.24  37.6552380125
0.28  0.26  31.4895837034
0.28  0.28  26.3334912791
0.28  0.3  22.0216554616
0.28  0.32  18.4158379961
0.28  0.34  15.4004357071
0.28  0.36  12.8787742387
0.28  0.38  10.7700086573
0.28  0.4  9.0065315478
0.28  0.42  7.53180550758
0.28  0.44  6.29855054666
0.28  0.46  5.26722828265
0.28  0.48  4.40477433275
0.28  0.5  3.68353826365
0.28  0.52  3.08039711339
0.28  0.54  2.57601406502
0.28  0.56  2.1542185046
0.28  0.58  1.80148758835
0.28  0.6  1.50651269778
0.28  0.62  1.25983688329
0.28  0.64  1.05355167256
0.28  0.66  0.881043523561
0.28  0.68  0.736781793074
0.28  0.7  0.616141423311
0.28  0.72  0.515254661676
0.28  0.74  0.43088705991
0.28  0.76  0.360333777076
0.28  0.78  0.301332861862
0.28  0.8  0.251992734
0.28  0.82  0.210731539854
0.28  0.84  0.176226437898
0.28  0.86  0.147371188176
0.28  0.88  0.123240686037
0.28  0.9  0.103061303113
0.28  0.92  0.0861860846529
0.28  0.94  0.0720740080263
0.28  0.96  0.0602726374437
0.28  0.98  0.0504036187788
0.3  -1  0.0348188217662
0.3  -0.98  0.0416363402346
0.3  -0.96  0.0497887274812
0.3  -0.94  0.0595373505507
0.3  -0.92  0.071194752104
0.3  -0.9  0.0851346705936
0.3  -0.88  0.101804022388
0.3  -0.86  0.121737229992
0.3  -0.84  0.145573355732
0.3  -0.82  0.174076590215
0.3  -0.8  0.208160752416
0.3  -0.78  0.248918586886
0.3  -0.76  0.297656797347
0.3  -0.74  0.35593793985
0.3  -0.72  0.425630518618
0.3  -0.7  0.508968890631
0.3  -0.68  0.608624899529
0.3  -0.66  0.727793535411
0.3  -0.64  0.87029536681
0.3  -0.62  1.04069902883
0.3  -0.6  1.24446769443
0.3  -0.58  1.48813422477
0.3  -0.56  1.77951061393
0.3  -0.54  2.12793844289
0.3  -0.52  2.54458837239
0.3  -0.5  3.04281827632
0.3  -0.48  3.63860149765
0.3  -0.46  4.35103895679
0.3  -0.44  5.20297153062
0.3  -0.42  6.2217123352
0.3  -0.4  7.43992238938
0.3  -0.38  8.8966577331
0.3  -0.36  10.6386215712
0.3  -0.34  12.721661587
0.3  -0.32  15.212560429
0.3  -0.3  18.1911767755
0.3  -0.28  21.753005618
0.3  -0.26  26.0122398488
0.3  -0.24  31.1054313062
0.3  -0.22  37.1958686513
0.3  -0.2  32.7662199613
0.3  -0.18  32.7662976024
0.3  -0.16  32.7697118561
0.3  -0.14  32.7760935402
0.3  -0.12  32.7847529035
0.3  -0.1  32.794754638
0.3  -0.08  32.8050193335
0.3  -0.06  32.81444019
0.3  -0.04  32.8220022762
0.3  -0.02  32.8268915199
0.3  6.17561557e-16  32.8285818735
0.3  0.02  32.8268915199
0.3  0.04  32.8220022762
0.3  0.06  32.81444019
0.3  0.08  32.8050193335
0.3  0.1  32.794754638
0.3  0.12  32.7847529035
0.3  0.14  32.7760935402
0.3  0.16  32.7697118561
0.3  0.18  32.7662976024
0.3  0.2  44.4788124333
0.3  0.22  37.1958686513
0.3  0.24  31.1054313062
0.3  0.26  26.0122398488
0.3  0.28  21.753005618
0.3  0.3  18.1911767755
0.3  0.32  15.212560429
0.3  0.34  12.721661587
0.3  0.36  10.6386215712
0.3  0.38  8.8966577331
0.3  0.4  7.43992238939
0.3  0.42  6.2217123352
0.3  0.44  5.20297153062
0.3  0.46  4.35103895679
0.3  0.48  3.63860149765
0.3  0.5  3.04281827632
0.3  0.52  2.54458837239
0.3  0.54  2.12793844289
0.3  0.56  1.77951061393
0.3  0.58  1.48813422477
0.3  0.6  1.24446769443
0.3  0.62  1.04069902883
0.3  0.64  0.870295366811
0.3  0.66  0.727793535411
0.3  0.68  0.608624899529
0.3  0.7  0.508968890631
0.3  0.72  0.425630518618
0.3  0.74  0.35593793985
0.3  0.76  0.297656797347
0.3  0.78  0.248918586886
0.3  0.8  0.208160752416
0.3  0.82  0.174076590215
0.3  0.84  0.145573355732
0.3  0.86  0.121737229992
0.3  0.88  0.101804022388
0.3  0.9  0.0851346705936
0.3  0.92  0.071194752104
0.3  0.94  0.0595373505507
0.3  0.96  0.0497887274812
0.3  0.98  0.0416363402347
0.32  -1  0.0279363438949
0.32  -0.98  0.0334062745469
0.32  -0.96  0.039947216547
0.32  -0.94  0.047768873707
0.32  -0.92  0.057122009804
0.32  -0.9  0.0683064881131
0.32  -0.88  0.0816808850801
0.32  -0.86  0.0976739863484
0.32  -0.84  0.116798533706
0.32  -0.82  0.139667663684
0.32  -0.8  0.167014564822
0.32  -0.78  0.199715983837
0.32  -0.76  0.238820334277
0.32  -0.74  0.285581308859
0.32  -0.72  0.341498073086
0.32  -0.7  0.408363328776
0.32  -0.68  0.488320788406
0.32  -0.66  0.583933902941
0.32  -0.64  0.698268046536
0.32  -0.62  0.834988793009
0.32  -0.6  0.998479434809
0.32  -0.58  1.19398151219
0.32  -0.56  1.42776285795
0.32  -0.54  1.70731854533
0.32  -0.52  2.04161118143
0.32  -0.5  2.44135825008
0.32  -0.48  2.91937571631
0.32  -0.46  3.49098890862
0.32  -0.44  4.17452385181
0.32  -0.42  4.99189480272
0.32  -0.4  5.9693068254
0.32  -0.38  7.1380959303
0.32  -0.36  8.53573371257
0.32  -0.34  10.2070286983
0.32  -0.32  12.2055629142
0.32  -0.3  14.5954097374
0.32  -0.28  17.4531880996
0.32  -0.26  20.8705189042
0.32  -0.24  24.9569624097
0.32  -0.22  29.8435307516
0.32  -0.2  26.2894705376
0.32  -0.18  26.2895328317
0.32  -0.16  26.2922722055
0.32  -0.14  26.2973924511
0.32  -0.12  26.3043401575
0.32  -0.1  26.3123648947
0.32  -0.08  26.3206006146
0.32  -0.06  26.3281592934
0.32  -0.04  26.3342266164
0.32  -0.02  26.3381494256
0.32  6.17561557e-16  26.3395056547
0.32  0.02  26.3381494256
0.32  0.04  26.3342266164
0.32  0.06  26.3281592934
0.32  0.08  26.3206006146
0.32  0.1  26.3123648947
0.32  0.12  26.3043401575
0.32  0.14  26.2973924511
0.32  0.16  26.2922722055
0.32  0.18  26.2895328317
0.32  0.2  35.6868882158
0.32  0.22  29.8435307516
0.32  0.24  24.9569624097
0.32  0.26  20.8705189042
0.32  0.28  17.4531880996
0.32  0.3  14.5954097374
0.32  0.32  12.2055629142
0.32  0.34  10.2070286983
0.32  0.36  8.53573371257
0.32  0.38  7.1380959303
0.32  0.4  5.9693068254
0.32  0.42  4.99189480272
0.32  0.44  4.17452385181
0.32  0.46  3.49098890862
0.32  0.48  2.91937571631
0.32  0.5  2.44135825008
0.32  0.52  2.04161118143
0.32  0.54  1.70731854533
0.32  0.56  1.42776285795
0.32  0.58  1.19398151219
0.32  0.6  0.998479434809
0.32  0.62  0.834988793009
0.32  0.64  0.698268046536
0.32  0.66  0.583933902941
0.32  0.68  0.488320788406
0.32  0.7  0.408363328776
0.32  0.72  0.341498073086
0.32  0.74  0.285581308859
0.32  0.76  0.238820334277
0.32  0.78  0.199715983837
0.32  0.8  0.167014564822
0.32  0.82  0.139667663684
0.32  0.84  0.116798533706
0.32  0.86  0.0976739863485
0.32  0.88  0.0816808850801
0.32  0.9  0.0683064881131
0.32  0.92  0.057122009804
0.32  0.94  0.0477688737071
0.32  0.96  0.039947216547
0.32  0.98  0.0334062745469
0.34  -1  0.0224142940693
0.34  -0.98  0.0268030084492
0.34  -0.96  0.0320510322433
0.34  -0.94  0.0383266180663
0.34  -0.92  0.0458309623619
0.34  -0.9  0.0548046557978
0.34  -0.88  0.0655353966473
0.34  -0.86  0.0783672144491
0.34  -0.84  0.0937114996583
0.34  -0.82  0.1120601929
0.34  -0.8  0.134001556677
0.34  -0.78  0.160239035176
0.34  -0.76  0.191613806816
0.34  -0.74  0.229131752585
0.34  -0.72  0.273995704773
0.34  -0.7  0.327644009994
0.34  -0.68  0.391796642849
0.34  -0.66  0.468510348627
0.34  -0.64  0.56024458294
0.34  -0.62  0.669940362328
0.34  -0.6  0.801114553793
0.34  -0.58  0.957972626202
0.34  -0.56  1.14554347841
0.34  -0.54  1.36984066666
0.34  -0.52  1.63805520035
0.34  -0.5  1.9587860871
0.34  -0.48  2.34231601853
0.34  -0.46  2.80094103527
0.34  -0.44  3.34936474027
0.34  -0.42  4.00516969909
0.34  -0.4  4.78938114013
0.34  -0.38  5.72714102743
0.34  -0.36  6.84851411661
0.34  -0.34  8.18945183659
0.34  -0.32  9.79294489897
0.34  -0.3  11.7104015883
0.34  -0.28  14.003295921
0.34  -0.26  16.7451385141
0.34  -0.24  20.0238333489
0.34  -0.22  23.9444959888
0.34  -0.2  21.0929506657
0.34  -0.18  21.0930006465
0.34  -0.16  21.0951985407
0.34  -0.14  21.0993066907
0.34  -0.12  21.1048810756
0.34  -0.1  21.1113195996
0.34  -0.08  21.1179274023
0.34  -0.06  21.1239919914
0.34  -0.04  21.1288600144
0.34  -0.02  21.1320074197
0.34  6.17561557e-16  21.1330955692
0.34  0.02  21.1320074197
0.34  0.04  21.1288600144
0.34  0.06  21.1239919914
0.34  0.08  21.1179274023
0.34  0.1  21.1113195996
0.34  0.12  21.1048810756
0.34  0.14  21.0993066907
0.34  0.16  21.0951985407
0.34  0.18  21.0930006465
0.34  0.2  28.6328236041
0.34  0.22  23.9444959888
0.34  0.24  20.0238333489
0.34  0.26  16.7451385141
0.34  0.28  14.003295921
0.34  0.3  11.7104015883
0.34  0.32  9.79294489897
0.34  0.34  8.18945183659
0.34  0.36  6.84851411662
0.34  0.38  5.72714102743
0.34  0.4  4.78938114013
0.34  0.42  4.00516969909
0.34  0.44  3.34936474027
0.34  0.46  2.80094103527
0.34  0.48  2.34231601853
0.34  0.5  1.9587860871
0.34  0.52  1.63805520035
0.34  0.54  1.36984066666
0.34  0.56  1.14554347841
0.34  0.58  0.957972626202
0.34  0.6  0.801114553793
0.34  0.62  0.669940362329
0.34  0.64  0.56024458294
0.34  0.66  0.468510348627
0.34  0.68  0.391796642849
0.34  0.7  0.327644009994
0.34  0.72  0.273995704773
0.34  0.74  0.229131752585
0.34  0.76  0.191613806816
0.34  0.78  0.160239035176
0.34  0.8  0.134001556677
0.34  0.82  0.1120601929
0.34  0.84  0.0937114996583
0.34  0.86  0.0783672144491
0.34  0.88  0.0655353966473
0.34  0.9  0.0548046557978
0.34  0.92  0.0458309623619
0.34  0.94  0.0383266180663
0.34  0.96  0.0320510322433
0.34  0.98  0.0268030084492
0.36  -1  0.0179837626755
0.36  -0.98  0.0215049798779
0.36  -0.96  0.0257156507175
0.36  -0.94  0.0307507700812
0.36  -0.92  0.0367717648281
0.36  -0.9  0.0439716691648
0.36  -0.88  0.0525813133575
0.36  -0.86  0.0628767241936
0.36  -0.84  0.0751879744507
0.36  -0.82  0.0899097650921
0.36  -0.8  0.107514079452
0.36  -0.78  0.128565315108
0.36  -0.76  0.153738378575
0.36  -0.74  0.183840322928
0.36  -0.72  0.219836222077
0.36  -0.7  0.262880111216
0.36  -0.68  0.3143519854
0.36  -0.66  0.375902042448
0.36  -0.64  0.449503588587
0.36  -0.62  0.537516303015
0.36  -0.6  0.642761889654
0.36  -0.58  0.768614541503
0.36  -0.56  0.919109117884
0.36  -0.54  1.09907050279
0.36  -0.52  1.31426829153
0.36  -0.5  1.57160176508
0.36  -0.48  1.87932108225
0.36  -0.46  2.24729178133
0.36  -0.44  2.68731107107
0.36  -0.42  3.21348605138
0.36  -0.4  3.84268598958
0.36  -0.38  4.59508315219
0.36  -0.36  5.49479953158
0.36  -0.34  6.57068020147
0.36  -0.32  7.85721809539
0.36  -0.3  9.39565985644
0.36  -0.28  11.2353282124
0.36  -0.26  13.4352032714
0.36  -0.24  16.0658134352
0.36  -0.22  19.2114965528
0.36  -0.2  16.9236032027
0.36  -0.18  16.923643304
0.36  -0.16  16.9254067504
0.36  -0.14  16.9287028611
0.36  -0.12  16.9331753828
0.36  -0.1  16.9383412331
0.36  -0.08  16.9436429015
0.36  -0.06  16.9485087309
0.36  -0.04  16.952414514
0.36  -0.02  16.954939786
0.36  6.17561557e-16  16.955812846
0.36  0.02  16.954939786
0.36  0.04  16.952414514
0.36  0.06  16.9485087309
0.36  0.08  16.9436429015
0.36  0.1  16.9383412331
0.36  0.12  16.9331753828
0.36  0.14  16.9287028611
0.36  0.16  16.9254067504
0.36  0.18  16.923643304
0.36  0.2  22.9731038074
0.36  0.22  19.2114965528
0.36  0.24  16.0658134352
0.36  0.26  13.4352032714
0.36  0.28  11.2353282124
0.36  0.3  9.39565985644
0.36  0.32  7.85721809539
0.36  0.34  6.57068020147
0.36  0.36  5.49479953158
0.36  0.38  4.59508315219
0.36  0.4  3.84268598958
0.36  0.42  3.21348605138
0.36  0.44  2.68731107107
0.36  0.46  2.24729178133
0.36  0.48  1.87932108225
0.36  0.5  1.57160176508
0.36  0.52  1.31426829153
0.36  0.54  1.09907050279
0.36  0.56  0.919109117885
0.36  0.58  0.768614541503
0.36  0.6  0.642761889655
0.36  0.62  0.537516303015
0.36  0.64  0.449503588587
0.36  0.66  0.375902042449
0.36  0.68  0.3143519854
0.36  0.7  0.262880111216
0.36  0.72  0.219836222077
0.36  0.74  0.183840322928
0.36  0.76  0.153738378575
0.36  0.78  0.128565315108
0.36  0.8  0.107514079452
0.36  0.82  0.0899097650922
0.36  0.84  0.0751879744508
0.36  0.86  0.0628767241936
0.36  0.88  0.0525813133575
0.36  0.9  0.0439716691648
0.36  0.92  0.0367717648281
0.36  0.94  0.0307507700812
0.36  0.96  0.0257156507175
0.36  0.98  0.0215049798779
0.38  -1  0.0144289942377
0.38  -0.98  0.0172541884776
0.38  -0.96  0.0206325551953
0.38  -0.94  0.0246724054533
0.38  -0.92  0.029503257599
0.38  -0.9  0.0352799896467
0.38  -0.88  0.0421878046956
0.38  -0.86  0.0504481685754
0.38  -0.84  0.0603259100817
0.38  -0.82  0.0721377114364
0.38  -0.8  0.0862622611782
0.38  -0.78  0.103152394987
0.38  -0.76  0.123349613682
0.38  -0.74  0.147501443833
0.38  -0.72  0.176382197587
0.38  -0.7  0.210917797259
0.38  -0.68  0.252215460568
0.38  -0.66  0.301599198249
0.38  -0.64  0.360652262075
0.38  -0.62  0.431267904209
0.38  -0.6  0.515710075215
0.38  -0.58  0.616686006731
0.38  -0.56  0.737433005821
0.38  -0.54  0.881822243635
0.38  -0.52  1.05448286588
0.38  -0.5  1.26095040407
0.38  -0.48  1.50784424571
0.38  -0.46  1.8030798531
0.38  -0.44  2.15612253447
0.38  -0.42  2.57829090357
0.38  -0.4  3.08311975649
0.38  -0.38  3.68679399973
0.38  -0.36  4.40866754132
0.38  -0.34  5.27188378069
0.38  -0.32  6.30411759031
0.38  -0.3  7.53846257727
0.38  -0.28  9.01449207044
0.38  -0.26  10.7795278487
0.38  -0.24  12.8901572859
0.38  -0.22  15.4140475527
0.38  -0.2  13.578391658
0.38  -0.18  13.5784238327
0.38  -0.16  13.5798387067
0.38  -0.14  13.5824832902
0.38  -0.12  13.5860717489
0.38  -0.1  13.5902164891
0.38  -0.08  13.5944702009
0.38  -0.06  13.5983742239
0.38  -0.04  13.6015079687
0.38  -0.02  13.6035340817
0.38  6.17561557e-16  13.6042345678
0.38  0.02  13.6035340817
0.38  0.04  13.6015079687
0.38  0.06  13.5983742239
0.38  0.08  13.5944702009
0.38  0.1  13.5902164891
0.38  0.12  13.5860717489
0.38  0.14  13.5824832902
0.38  0.16  13.5798387067
0.38  0.18  13.5784238327
0.38  0.2  18.4321150385
0.38  0.22  15.4140475527
0.38  0.24  12.8901572859
0.38  0.26  10.7795278487
0.38  0.28  9.01449207044
0.38  0.3  7.53846257728
0.38  0.32  6.30411759031
0.38  0.34  5.27188378069
0.38  0.36  4.40866754132
0.38  0.38  3.68679399973
0.38  0.4  3.08311975649
0.38  0.42  2.57829090357
0.38  0.44  2.15612253447
0.38  0.46  1.8030798531
0.38  0.48  1.50784424571
0.38  0.5  1.26095040407
0.38  0.52  1.05448286588
0.38  0.54  0.881822243635
0.38  0.56  0.737433005821
0.38  0.58  0.616686006731
0.38  0.6  0.515710075215
0.38  0.62  0.431267904209
0.38  0.64  0.360652262075
0.38  0.66  0.301599198249
0.38  0.68  0.252215460568
0.38  0.7  0.210917797259
0.38  0.72  0.176382197587
0.38  0.74  0.147501443833
0.38  0.76  0.123349613682
0.38  0.78  0.103152394987
0.38  0.8  0.0862622611782
0.38  0.82  0.0721377114364
0.38  0.84  0.0603259100817
0.38  0.86  0.0504481685754
0.38  0.88  0.0421878046956
0.38  0.9  0.0352799896467
0.38  0.92  0.029503257599
0.38  0.94  0.0246724054533
0.38  0.96  0.0206325551953
0.38  0.98  0.0172541884776
0.4  -1  0.0115768806822
0.4  -0.98  0.0138436316477
0.4  -0.96  0.0165542120074
0.4  -0.94  0.0197955234696
0.4  -0.92  0.02367148308
0.4  -0.9  0.0283063548214
0.4  -0.88  0.0338487335402
0.4  -0.86  0.0404763089244
0.4  -0.84  0.048401562268
0.4  -0.82  0.057878578661
0.4  -0.8  0.0692111930039
0.4  -0.78  0.0827627310109
0.4  -0.76  0.0989676575002
0.4  -0.74  0.118345505416
0.4  -0.72  0.14151753215
0.4  -0.7  0.169226637172
0.4  -0.68  0.202361179518
0.4  -0.66  0.241983458753
0.4  -0.64  0.289363772487
0.4  -0.62  0.34602114235
0.4  -0.6  0.413772014114
0.4  -0.58  0.494788493272
0.4  -0.56  0.59166798315
0.4  -0.54  0.707516458133
0.4  -0.52  0.846048041781
0.4  -0.5  1.01170408232
0.4  -0.48  1.20979554309
0.4  -0.46  1.44667327299
0.4  -0.44  1.72993161593
0.4  -0.42  2.06865188682
0.4  -0.4  2.47369352027
0.4  -0.38  2.95804222606
0.4  -0.36  3.53722631339
0.4  -0.34  4.22981453136
0.4  -0.32  5.05801138647
0.4  -0.3  6.04836902328
0.4  -0.28  7.23263849101
0.4  -0.26  8.6487876881
0.4  -0.24  10.3422186201
0.4  -0.22  12.3672229962
0.4  -0.2  10.8944128393
0.4  -0.18  10.8944386541
0.4  -0.16  10.8955738564
0.4  -0.14  10.8976956972
0.4  -0.12  10.9005748416
0.4  -0.1  10.9039003099
0.4  -0.08  10.9073132098
0.4  -0.06  10.9104455424
0.4  -0.04  10.9129598541
0.4  -0.02  10.9145854746
0.4  6.17561557e-16  10.9151474988
0.4  0.02  10.9145854746
0.4  0.04  10.9129598541
0.4  0.06  10.9104455424
0.4  0.08  10.9073132098
0.4  0.1  10.9039003099
0.4  0.12  10.9005748416
0.4  0.14  10.8976956972
0.4  0.16  10.8955738564
0.4  0.18  10.8944386541
0.4  0.2  14.7887228317
0.4  0.22  12.3672229962
0.4  0.24  10.3422186201
0.4  0.26  8.64878768811
0.4  0.28  7.23263849101
0.4  0.3  6.04836902328
0.4  0.32  5.05801138647
0.4  0.34  4.22981453136
0.4  0.36  3.53722631339
0.4  0.38  2.95804222606
0.4  0.4  2.47369352027
0.4  0.42  2.06865188682
0.4  0.44  1.72993161593
0.4  0.46  1.44667327299
0.4  0.48  1.20979554309
0.4  0.5  1.01170408232
0.4  0.52  0.846048041781
0.4  0.54  0.707516458133
0.4  0.56  0.59166798315
0.4  0.58  0.494788493272
0.4  0.6  0.413772014114
0.4  0.62  0.34602114235
0.4  0.64  0.289363772487
0.4  0.66  0.241983458753
0.4  0.68  0.202361179518
0.4  0.7  0.169226637172
0.4  0.72  0.14151753215
0.4  0.74  0.118345505416
0.4  0.76  0.0989676575003
0.4  0.78  0.082762731011
0.4  0.8  0.0692111930039
0.4  0.82  0.0578785786611
0.4  0.84  0.048401562268
0.4  0.86  0.0404763089244
0.4  0.88  0.0338487335402
0.4  0.9  0.0283063548214
0.4  0.92  0.02367148308
0.4  0.94  0.0197955234697
0.4  0.96  0.0165542120075
0.4  0.98  0.0138436316477
0.42  -1  0.00928853141957
0.42  -0.98  0.0111072240486
0.42  -0.96  0.0132820163375
0.42  -0.94  0.0158826325297
0.42  -0.92  0.0189924488619
0.42  -0.9  0.0227111666217
0.42  -0.88  0.027158008589
0.42  -0.86  0.0324755413408
0.42  -0.84  0.0388342459619
0.42  -0.82  0.0464379836998
0.42  -0.8  0.0555305317945
0.42  -0.78  0.0664033990216
0.42  -0.76  0.079405171518
0.42  -0.74  0.0949526885176
0.42  -0.72  0.113544406294
0.42  -0.7  0.135776378763
0.42  -0.68  0.162361367078
0.42  -0.66  0.194151690887
0.42  -0.64  0.23216655386
0.42  -0.62  0.277624719542
0.42  -0.6  0.331983585142
0.42  -0.58  0.39698590596
0.42  -0.56  0.474715668436
0.42  -0.54  0.56766490315
0.42  -0.52  0.678813579779
0.42  -0.5  0.811725145479
0.42  -0.48  0.970660769658
0.42  -0.46  1.16071595786
0.42  -0.44  1.38798391461
0.42  -0.42  1.65975089269
0.42  -0.4  1.98472979175
0.42  -0.38  2.37333949546
0.42  -0.36  2.83803890289
0.42  -0.34  3.39372636309
0.42  -0.32  4.05821731895
0.42  -0.3  4.85281547355
0.42  -0.28  5.80299579088
0.42  -0.26  6.93922122786
0.42  -0.24  8.29791938241
0.42  -0.22  9.92265036897
0.42  -0.2  8.74096388598
0.42  -0.18  8.74098459812
0.42  -0.16  8.74189541017
0.42  -0.14  8.74359783632
0.42  -0.12  8.74590787338
0.42  -0.1  8.74857601149
0.42  -0.08  8.75131429905
0.42  -0.06  8.75382747777
0.42  -0.04  8.7558447969
0.42  -0.02  8.7571490884
0.42  6.17561557e-16  8.75760001987
0.42  0.02  8.7571490884
0.42  0.04  8.7558447969
0.42  0.06  8.75382747777
0.42  0.08  8.75131429905
0.42  0.1  8.74857601149
0.42  0.12  8.74590787338
0.42  0.14  8.74359783632
0.42  0.16  8.74189541017
0.42  0.18  8.74098459812
0.42  0.2  11.8655033638
0.42  0.22  9.92265036898
0.42  0.24  8.29791938241
0.42  0.26  6.93922122786
0.42  0.28  5.80299579088
0.42  0.3  4.85281547355
0.42  0.32  4.05821731895
0.42  0.34  3.39372636309
0.42  0.36  2.83803890289
0.42  0.38  2.37333949546
0.42  0.4  1.98472979175
0.42  0.42  1.65975089269
0.42  0.44  1.38798391461
0.42  0.46  1.16071595786
0.42  0.48  0.970660769659
0.42  0.5  0.811725145479
0.42  0.52  0.67881357978
0.42  0.54  0.56766490315
0.42  0.56  0.474715668436
0.42  0.58  0.39698590596
0.42  0.6  0.331983585143
0.42  0.62  0.277624719542
0.42  0.64  0.23216655386
0.42  0.66  0.194151690887
0.42  0.68  0.162361367078
0.42  0.7  0.135776378763
0.42  0.72  0.113544406294
0.42  0.74  0.0949526885176
0.42  0.76  0.0794051715181
0.42  0.78  0.0664033990217
0.42  0.8  0.0555305317945
0.42  0.82  0.0464379836998
0.42  0.84  0.0388342459619
0.42  0.86  0.0324755413409
0.42  0.88  0.027158008589
0.42  0.9  0.0227111666217
0.42  0.92  0.0189924488619
0.42  0.94  0.0158826325297
0.42  0.96  0.0132820163375
0.42  0.98  0.0111072240486
0.44  -1  0.00745250973046
0.44  -0.98  0.00891170967309
0.44  -0.96  0.0106566206781
0.44  -0.94  0.0127431849155
0.44  -0.92  0.015238298021
0.44  -0.9  0.0182219537829
0.44  -0.88  0.0217898087574
0.44  -0.86  0.0260562490358
0.44  -0.84  0.0311580574833
0.44  -0.82  0.0372587990235
0.44  -0.8  0.0445540645601
0.44  -0.78  0.053277741657
0.44  -0.76  0.0637095130174
0.44  -0.74  0.0761838231628
0.44  -0.72  0.0911006007866
0.44  -0.7  0.108938080542
0.44  -0.68  0.130268135332
0.44  -0.66  0.155774610664
0.44  -0.64  0.18627524886
0.44  -0.62  0.22274790603
0.44  -0.6  0.266361902315
0.44  -0.58  0.318515510513
0.44  -0.56  0.380880784961
0.44  -0.54  0.455457167907
0.44  -0.52  0.544635591997
0.44  -0.5  0.651275134022
0.44  -0.48  0.778794677447
0.44  -0.46  0.931282522448
0.44  -0.44  1.11362745757
0.44  -0.42  1.33167549521
0.44  -0.4  1.59241729583
0.44  -0.38  1.90421228983
0.44  -0.36  2.27705668246
0.44  -0.34  2.722903934
0.44  -0.32  3.2560479899
0.44  -0.3  3.8935815473
0.44  -0.28  4.65594405012
0.44  -0.26  5.56757698138
0.44  -0.24  6.65770746167
0.44  -0.22  7.96128527605
0.44  -0.2  7.01317737664
0.44  -0.18  7.0131939947
0.44  -0.16  7.01392477069
0.44  -0.14  7.01529068601
0.44  -0.12  7.01714410857
0.44  -0.1  7.01928484797
0.44  -0.08  7.02148187071
0.44  -0.06  7.02349828084
0.44  -0.04  7.02511684569
0.44  -0.02  7.02616332383
0.44  6.17561557e-16  7.02652512173
0.44  0.02  7.02616332383
0.44  0.04  7.02511684569
0.44  0.06  7.02349828084
0.44  0.08  7.02148187071
0.44  0.1  7.01928484797
0.44  0.12  7.01714410857
0.44  0.14  7.01529068601
0.44  0.16  7.01392477069
0.44  0.18  7.0131939947
0.44  0.2  9.52010337066
0.44  0.22  7.96128527605
0.44  0.24  6.65770746167
0.44  0.26  5.56757698138
0.44  0.28  4.65594405013
0.44  0.3  3.8935815473
0.44  0.32  3.2560479899
0.44  0.34  2.722903934
0.44  0.36  2.27705668246
0.44  0.38  1.90421228983
0.44  0.4  1.59241729583
0.44  0.42  1.33167549521
0.44  0.44  1.11362745757
0.44  0.46  0.931282522448
0.44  0.48  0.778794677447
0.44  0.5  0.651275134022
0.44  0.52  0.544635591997
0.44  0.54  0.455457167907
0.44  0.56  0.380880784961
0.44  0.58  0.318515510513
0.44  0.6  0.266361902315
0.44  0.62  0.22274790603
0.44  0.64  0.186275248861
0.44  0.66  0.155774610664
0.44  0.68  0.130268135332
0.44  0.7  0.108938080542
0.44  0.72  0.0911006007866
0.44  0.74  0.0761838231628
0.44  0.76  0.0637095130174
0.44  0.78  0.053277741657
0.44  0.8  0.0445540645601
0.44  0.82  0.0372587990236
0.44  0.84  0.0311580574833
0.44  0.86  0.0260562490358
0.44  0.88  0.0217898087574
0.44  0.9  0.0182219537829
0.44  0.92  0.015238298021
0.44  0.94  0.0127431849155
0.44  0.96  0.0106566206781
0.44  0.98  0.00891170967309
0.46  -1  0.00597940608411
0.46  -0.98  0.00715017262189
0.46  -0.96  0.00855017501799
0.46  -0.94  0.0102242976085
0.46  -0.92  0.0122262130737
0.46  -0.9  0.014620103194
0.46  -0.88  0.0174827165301
0.46  -0.86  0.0209058289957
0.46  -0.84  0.0249991862101
0.46  -0.82  0.0298940219638
0.46  -0.8  0.0357472655975
0.46  -0.78  0.0427465731859
0.46  -0.76  0.0511163438264
0.46  -0.74  0.0611249139157
0.46  -0.72  0.0730931600643
0.46  -0.7  0.08740478646
0.46  -0.68  0.104518626495
0.46  -0.66  0.124983353051
0.46  -0.64  0.149455069049
0.46  -0.62  0.178718342238
0.46  -0.6  0.213711358573
0.46  -0.58  0.25555600064
0.46  -0.56  0.305593815411
0.46  -0.54  0.365429024494
0.46  -0.52  0.436979955772
0.46  -0.5  0.522540545353
0.46  -0.48  0.624853881581
0.46  -0.46  0.747200148964
0.46  -0.44  0.893501791488
0.46  -0.42  1.06844926691
0.46  -0.4  1.27765142368
0.46  -0.38  1.52781532169
0.46  -0.36  1.82696126183
0.46  -0.34  2.18467991835
0.46  -0.32  2.6124398176
0.46  -0.3  3.12395502119
0.46  -0.28  3.73562480124
0.46  -0.26  4.46705940419
0.46  -0.24  5.34170875884
0.46  -0.22  6.38761428548
0.46  -0.2  5.62691455516
0.46  -0.18  5.62692788841
0.46  -0.16  5.62751421523
0.46  -0.14  5.6286101363
0.46  -0.12  5.63009720126
0.46  -0.1  5.63181479046
0.46  -0.08  5.63357753772
0.46  -0.06  5.63519537325
0.46  -0.04  5.63649400376
0.46  -0.02  5.63733362933
0.46  6.17561557e-16  5.63762391229
0.46  0.02  5.63733362933
0.46  0.04  5.63649400376
0.46  0.06  5.63519537325
0.46  0.08  5.63357753772
0.46  0.1  5.63181479046
0.46  0.12  5.63009720126
0.46  0.14  5.6286101363
0.46  0.16  5.62751421523
0.46  0.18  5.62692788841
0.46  0.2  7.63830790897
0.46  0.22  6.38761428548
0.46  0.24  5.34170875884
0.46  0.26  4.46705940419
0.46  0.28  3.73562480124
0.46  0.3  3.12395502119
0.46  0.32  2.61243981761
0.46  0.34  2.18467991835
0.46  0.36  1.82696126183
0.46  0.38  1.52781532169
0.46  0.4  1.27765142368
0.46  0.42  1.06844926691
0.46  0.44  0.893501791489
0.46  0.46  0.747200148964
0.46  0.48  0.624853881581
0.46  0.5  0.522540545353
0.46  0.52  0.436979955772
0.46  0.54  0.365429024494
0.46  0.56  0.305593815411
0.46  0.58  0.25555600064
0.46  0.6  0.213711358573
0.46  0.62  0.178718342238
0.46  0.64  0.149455069049
0.46  0.66  0.124983353051
0.46  0.68  0.104518626495
0.46  0.7  0.08740478646
0.46  0.72  0.0730931600644
0.46  0.74  0.0611249139158
0.46  0.76  0.0511163438264
0.46  0.78  0.0427465731859
0.46  0.8  0.0357472655975
0.46  0.82  0.0298940219638
0.46  0.84  0.0249991862101
0.46  0.86  0.0209058289957
0.46  0.88  0.0174827165301
0.46  0.9  0.014620103194
0.46  0.92  0.0122262130737
0.46  0.94  0.0102242976085
0.46  0.96  0.008550175018
0.46  0.98  0.00715017262189
0.48  -1  0.00479748412438
0.48  -0.98  0.00573683057441
0.48  -0.96  0.00686010087499
0.48  -0.94  0.00820330727998
0.48  -0.92  0.00980951323545
0.48  -0.9  0.0117302140018
0.48  -0.88  0.0140269876012
0.48  -0.86  0.0167734690207
0.48  -0.84  0.020057710963
0.48  -0.82  0.0239850068331
0.48  -0.8  0.0286812664639
0.48  -0.78  0.0342970528086
0.48  -0.76  0.0410124090176
0.48  -0.74  0.0490426306543
0.48  -0.72  0.0586451681115
0.48  -0.7  0.0701278805183
0.48  -0.68  0.0838589057608
0.48  -0.66  0.100278463051
0.48  -0.64  0.119912966436
0.48  -0.62  0.143391901731
0.48  -0.6  0.171468007948
0.48  -0.58  0.205041410253
0.48  -0.56  0.24518847814
0.48  -0.54  0.29319633404
0.48  -0.52  0.350604118704
0.48  -0.5  0.419252336338
0.48  -0.48  0.501341861512
0.48  -0.46  0.599504499605
0.48  -0.44  0.716887362972
0.48  -0.42  0.857253767948
0.48  -0.4  1.02510388747
0.48  -0.38  1.22581902746
0.48  -0.36  1.46583415246
0.48  -0.34  1.75284419183
0.48  -0.32  2.09605074059
0.48  -0.3  2.50645706423
0.48  -0.28  2.9972208655
0.48  -0.26  3.58407612275
0.48  -0.24  4.28583752418
0.48  -0.22  5.1250036703
0.48  -0.2  4.51466799008
0.48  -0.18  4.51467868781
0.48  -0.16  4.51514911808
0.48  -0.14  4.51602841343
0.48  -0.12  4.51722153703
0.48  -0.1  4.5185996182
0.48  -0.08  4.52001393124
0.48  -0.06  4.52131197659
0.48  -0.04  4.52235391272
0.48  -0.02  4.52302757333
0.48  6.17561557e-16  4.52326047738
0.48  0.02  4.52302757333
0.48  0.04  4.52235391272
0.48  0.06  4.52131197659
0.48  0.08  4.52001393124
0.48  0.1  4.5185996182
0.48  0.12  4.51722153703
0.48  0.14  4.51602841343
0.48  0.16  4.51514911808
0.48  0.18  4.51467868781
0.48  0.2  6.12847838313
0.48  0.22  5.1250036703
0.48  0.24  4.28583752418
0.48  0.26  3.58407612275
0.48  0.28  2.9972208655
0.48  0.3  2.50645706423
0.48  0.32  2.09605074059
0.48  0.34  1.75284419183
0.48  0.36  1.46583415246
0.48  0.38  1.22581902746
0.48  0.4  1.02510388747
0.48  0.42  0.857253767948
0.48  0.44  0.716887362972
0.48  0.46  0.599504499605
0.48  0.48  0.501341861512
0.48  0.5  0.419252336338
0.48  0.52  0.350604118704
0.48  0.54  0.29319633404
0.48  0.56  0.24518847814
0.48  0.58  0.205041410253
0.48  0.6  0.171468007948
0.48  0.62  0.143391901731
0.48  0.64  0.119912966436
0.48  0.66  0.100278463051
0.48  0.68  0.0838589057608
0.48  0.7  0.0701278805183
0.48  0.72  0.0586451681115
0.48  0.74  0.0490426306543
0.48  0.76  0.0410124090176
0.48  0.78  0.0342970528086
0.48  0.8  0.0286812664639
0.48  0.82  0.0239850068331
0.48  0.84  0.020057710963
0.48  0.86  0.0167734690207
0.48  0.88  0.0140269876012
0.48  0.9  0.0117302140018
0.48  0.92  0.00980951323546
0.48  0.94  0.00820330727998
0.48  0.96  0.00686010087499
0.48  0.98  0.00573683057441
0.5  -1  0.00384918729385
0.5  -0.98  0.00460285741056
0.5  -0.96  0.00550409598821
0.5  -0.94  0.00658179690249
0.5  -0.92  0.00787051144429
0.5  -0.9  0.00941155604045
0.5  -0.88  0.0112543368661
0.5  -0.86  0.0134579338157
0.5  -0.84  0.0160929946157
0.5  -0.82  0.0192439998031
0.5  -0.8  0.0230119711878
0.5  -0.78  0.0275177106301
0.5  -0.76  0.032905672971
0.5  -0.74  0.0393485972808
0.5  -0.72  0.047053044906
0.5  -0.7  0.0562660218642
0.5  -0.68  0.0672828979026
0.5  -0.66  0.0804568761073
0.5  -0.64  0.096210316659
0.5  -0.62  0.115048277779
0.5  -0.6  0.137574707989
0.5  -0.58  0.164511808814
0.5  -0.56  0.196723188693
0.5  -0.54  0.235241550431
0.5  -0.52  0.281301799838
0.5  -0.5  0.33638063704
0.5  -0.48  0.402243899755
0.5  -0.46  0.481003176385
0.5  -0.44  0.575183503921
0.5  -0.42  0.687804321106
0.5  -0.4  0.822476272193
0.5  -0.38  0.983516964873
0.5  -0.36  1.17608939357
0.5  -0.34  1.40636746602
0.5  -0.32  1.68173393986
0.5  -0.3  2.01101711524
0.5  -0.28  2.40477387173
0.5  -0.26  2.87562812386
0.5  -0.24  3.43867554615
0.5  -0.22  4.11196754323
0.5  -0.2  3.62227413636
0.5  -0.18  3.62228271952
0.5  -0.16  3.62266016198
0.5  -0.14  3.62336565102
0.5  -0.12  3.62432293532
0.5  -0.1  3.62542861746
0.5  -0.08  3.62656336969
0.5  -0.06  3.62760483632
0.5  -0.04  3.62844081769
0.5  -0.02  3.62898131887
0.5  6.17561557e-16  3.62916818584
0.5  0.02  3.62898131887
0.5  0.04  3.62844081769
0.5  0.06  3.62760483632
0.5  0.08  3.62656336969
0.5  0.1  3.62542861746
0.5  0.12  3.62432293532
0.5  0.14  3.62336565102
0.5  0.16  3.62266016198
0.5  0.18  3.62228271952
0.5  0.2  4.9170899812
0.5  0.22  4.11196754323
0.5  0.24  3.43867554616
0.5  0.26  2.87562812386
0.5  0.28  2.40477387173
0.5  0.3  2.01101711524
0.5  0.32  1.68173393986
0.5  0.34  1.40636746602
0.5  0.36  1.17608939357
0.5  0.38  0.983516964873
0.5  0.4  0.822476272193
0.5  0.42  0.687804321106
0.5  0.44  0.575183503921
0.5  0.46  0.481003176385
0.5  0.48  0.402243899755
0.5  0.5  0.33638063704
0.5  0.52  0.281301799838
0.5  0.54  0.235241550431
0.5  0.56  0.196723188693
0.5  0.58  0.164511808814
0.5  0.6  0.137574707989
0.5  0.62  0.115048277779
0.5  0.64  0.0962103166591
0.5  0.66  0.0804568761074
0.5  0.68  0.0672828979027
0.5  0.7  0.0562660218642
0.5  0.72  0.047053044906
0.5  0.74  0.0393485972808
0.5  0.76  0.032905672971
0.5  0.78  0.0275177106301
0.5  0.8  0.0230119711878
0.5  0.82  0.0192439998031
0.5  0.84  0.0160929946157
0.5  0.86  0.0134579338158
0.5  0.88  0.0112543368661
0.5  0.9  0.00941155604045
0.5  0.92  0.00787051144429
0.5  0.94  0.00658179690249
0.5  0.96  0.00550409598821
0.5  0.98  0.00460285741056
0.52  -1  0.00308833597756
0.52  -0.98  0.00369303155587
0.52  -0.96  0.00441612640973
0.52  -0.94  0.00528080309406
0.52  -0.92  0.00631478330349
0.52  -0.9  0.007551216635
0.52  -0.88  0.00902974337017
0.52  -0.86  0.0107977653499
0.52  -0.84  0.0129119656863
0.52  -0.82  0.0154401260336
0.52  -0.8  0.0184632996808
0.52  -0.78  0.0220784101348
0.52  -0.76  0.0264013585062
0.52  -0.74  0.0315707393203
0.52  -0.72  0.0377522838832
0.52  -0.7  0.0451441736585
0.52  -0.68  0.053983394001
0.52  -0.66  0.0645533319518
0.52  -0.64  0.0771928616791
0.52  -0.62  0.0923072088463
0.52  -0.6  0.110380942223
0.52  -0.58  0.131993509047
0.52  -0.56  0.157837812214
0.52  -0.54  0.188742424869
0.52  -0.52  0.225698154616
0.52  -0.5  0.269889808996
0.52  -0.48  0.322734180629
0.52  -0.46  0.385925469858
0.52  -0.44  0.461489601117
0.52  -0.42  0.551849174445
0.52  -0.4  0.659901134498
0.52  -0.38  0.789109647124
0.52  -0.36  0.943617161163
0.52  -0.34  1.12837721613
0.52  -0.32  1.3493132536
0.52  -0.3  1.61350852384
0.52  -0.28  1.92943317615
0.52  -0.26  2.30721581338
0.52  -0.24  2.75896821683
0.52  -0.22  3.29917365222
0.52  -0.2  2.90627571015
0.52  -0.18  2.90628259671
0.52  -0.16  2.90658543184
0.52  -0.14  2.90715147008
0.52  -0.12  2.90791953235
0.52  -0.1  2.90880665934
0.52  -0.08  2.90971711026
0.52  -0.06  2.91055271493
0.52  -0.04  2.91122345167
0.52  -0.02  2.91165711445
0.52  6.17561557e-16  2.91180704428
0.52  0.02  2.91165711445
0.52  0.04  2.91122345167
0.52  0.06  2.91055271493
0.52  0.08  2.90971711026
0.52  0.1  2.90880665934
0.52  0.12  2.90791953235
0.52  0.14  2.90715147008
0.52  0.16  2.90658543184
0.52  0.18  2.90628259671
0.52  0.2  3.94515120585
0.52  0.22  3.29917365222
0.52  0.24  2.75896821683
0.52  0.26  2.30721581338
0.52  0.28  1.92943317615
0.52  0.3  1.61350852384
0.52  0.32  1.3493132536
0.52  0.34  1.12837721613
0.52  0.36  0.943617161163
0.52  0.38  0.789109647124
0.52  0.4  0.659901134498
0.52  0.42  0.551849174445
0.52  0.44  0.461489601117
0.52  0.46  0.385925469858
0.52  0.48  0.32273418063
0.52  0.5  0.269889808996
0.52  0.52  0.225698154616
0.52  0.54  0.188742424869
0.52  0.56  0.157837812214
0.52  0.58  0.131993509047
0.52  0.6  0.110380942223
0.52  0.62  0.0923072088463
0.52  0.64  0.0771928616791
0.52  0.66  0.0645533319519
0.52  0.68  0.053983394001
0.52  0.7  0.0451441736585
0.52  0.72  0.0377522838832
0.52  0.74  0.0315707393203
0.52  0.76  0.0264013585062
0.52  0.78  0.0220784101348
0.52  0.8  0.0184632996808
0.52  0.82  0.0154401260336
0.52  0.84  0.0129119656863
0.52  0.86  0.0107977653499
0.52  0.88  0.00902974337017
0.52  0.9  0.00755121663501
0.52  0.92  0.00631478330349
0.52  0.94  0.00528080309406
0.52  0.96  0.00441612640973
0.52  0.98  0.00369303155587
0.54  -1  0.00247787867469
0.54  -0.98  0.0029630468329
0.54  -0.96  0.00354321082126
0.54  -0.94  0.00423697080469
0.54  -0.92  0.00506656885672
0.54  -0.9  0.00605860204452
0.54  -0.88  0.0072448751358
0.54  -0.86  0.00866342026555
0.54  -0.84  0.0103597162533
0.54  -0.82  0.0123881466625
0.54  -0.8  0.0148137433478
0.54  -0.78  0.017714271388
0.54  -0.76  0.0211827222493
0.54  -0.74  0.0253302951085
0.54  -0.72  0.0302899619195
0.54  -0.7  0.0362207305188
0.54  -0.68  0.0433127424458
0.54  -0.66  0.0517933689164
0.54  -0.64  0.0619345003854
0.54  -0.62  0.0740612634059
0.54  -0.6  0.0885624442459
0.54  -0.58  0.105902953448
0.54  -0.56  0.126638730949
0.54  -0.54  0.151434569616
0.54  -0.52  0.181085428627
0.54  -0.5  0.216541920013
0.54  -0.48  0.258940785454
0.54  -0.46  0.309641340427
0.54  -0.44  0.370269054114
0.54  -0.42  0.442767662242
0.54  -0.4  0.529461483613
0.54  -0.38  0.633129938195
0.54  -0.36  0.757096655838
0.54  -0.34  0.905336032466
0.54  -0.32  1.08260064995
0.54  -0.3  1.29457364474
0.54  -0.28  1.54805091031
0.54  -0.26  1.85115897474
0.54  -0.24  2.21361553869
0.54  -0.22  2.64704102673
0.54  -0.2  2.33180543091
0.54  -0.18  2.33181095623
0.54  -0.16  2.33205393132
