-0.28  -0.96  0.00594553293316
-0.28  -0.94  0.00701856532808
-0.28  -0.92  0.00828525547136
-0.28  -0.9  0.00978055414701
-0.28  -0.88  0.0115457199543
-0.28  -0.86  0.013629457724
-0.28  -0.84  0.0160892623921
-0.28  -0.82  0.0189930054125
-0.28  -0.8  0.0224208074806
-0.28  -0.78  0.0264672492408
-0.28  -0.76  0.0312439809752
-0.28  -0.74  0.0368828032826
-0.28  -0.72  0.0435393037482
-0.28  -0.7  0.0513971499496
-0.28  -0.68  0.0606731572517
-0.28  -0.66  0.0716232712222
-0.28  -0.64  0.0845496297364
-0.28  -0.62  0.0998088996296
-0.28  -0.6  0.117822117924
-0.28  -0.58  0.139086309174
-0.28  -0.56  0.164188199469
-0.28  -0.54  0.193820405509
-0.28  -0.52  0.228800545431
-0.28  -0.5  0.270093798699
-0.28  -0.48  0.318839537547
-0.28  -0.46  0.376382764776
-0.28  -0.44  0.444311225359
-0.28  -0.42  0.524499215839
-0.28  -0.4  0.619159300315
-0.28  -0.38  0.730903359985
-0.28  -0.36  0.862814660728
-0.28  -0.34  1.01853292723
-0.28  -0.32  1.20235477104
-0.28  -0.3  1.4193522436
-0.28  -0.28  1.67551278536
-0.28  -0.26  1.9779044325
-0.28  -0.24  2.33487083972
-0.28  -0.22  2.75626150009
-0.28  -0.2  2.41111164556
-0.28  -0.18  2.41161446913
-0.28  -0.16  2.40108948588
-0.28  -0.14  2.38055443807
-0.28  -0.12  2.3520313639
-0.28  -0.1  2.31841178947
-0.28  -0.08  2.28323467441
-0.28  -0.06  2.25036456732
-0.28  -0.04  2.22357250572
-0.28  -0.02  2.2060540813
-0.28  6.17561557e-16  2.19996114665
-0.28  0.02  2.2060540813
-0.28  0.04  2.22357250572
-0.28  0.06  2.25036456732
-0.28  0.08  2.28323467441
-0.28  0.1  2.31841178947
-0.28  0.12  2.3520313639
-0.28  0.14  2.38055443807
-0.28  0.16  2.40108948588
-0.28  0.18  2.41161446913
-0.28  0.2  3.25370351441
-0.28  0.22  2.75626150009
-0.28  0.24  2.33487083972
-0.28  0.26  1.9779044325
-0.28  0.28  1.67551278536
-0.28  0.3  1.4193522436
-0.28  0.32  1.20235477104
-0.28  0.34  1.01853292723
-0.28  0.36  0.862814660728
-0.28  0.38  0.730903359985
-0.28  0.4  0.619159300314
-0.28  0.42  0.524499215839
-0.28  0.44  0.444311225359
-0.28  0.46  0.376382764776
-0.28  0.48  0.318839537547
-0.28  0.5  0.270093798699
-0.28  0.52  0.228800545431
-0.28  0.54  0.193820405509
-0.28  0.56  0.164188199469
-0.28  0.58  0.139086309174
-0.28  0.6  0.117822117924
-0.28  0.62  0.0998088996296
-0.28  0.64  0.0845496297364
-0.28  0.66  0.0716232712222
-0.28  0.68  0.0606731572517
-0.28  0.7  0.0513971499496
-0.28  0.72  0.0435393037482
-0.28  0.74  0.0368828032826
-0.28  0.76  0.0312439809752
-0.28  0.78  0.0264672492408
-0.28  0.8  0.0224208074806
-0.28  0.82  0.0189930054125
-0.28  0.84  0.0160892623921
-0.28  0.86  0.013629457724
-0.28  0.88  0.0115457199543
-0.28  0.9  0.009780554147
-0.28  0.92  0.00828525547135
-0.28  0.94  0.00701856532808
-0.28  0.96  0.00594553293316
-0.28  0.98  0.00503655094836
-0.26  -1  0.00519495210822
-0.26  -0.98  0.00613252187108
-0.26  -0.96  0.00723930148263
-0.26  -0.94  0.00854582944149
-0.26  -0.92  0.0100881557452
-0.26  -0.9  0.0119088365893
-0.26  -0.88  0.0140581085873
-0.26  -0.86  0.0165952749095
-0.26  -0.84  0.0195903415891
-0.26  -0.82  0.0231259491433
-0.26  -0.8  0.0272996528084
-0.26  -0.78  0.0322266143042
-0.26  -0.76  0.0380427794009
-0.26  -0.74  0.0449086289638
-0.26  -0.72  0.0530136069753
-0.26  -0.7  0.0625813477137
-0.26  -0.68  0.0738758463179
-0.26  -0.66  0.0872087429973
-0.26  -0.64  0.102947921875
-0.26  -0.62  0.121527661724
-0.26  -0.6  0.143460618681
-0.26  -0.58  0.169351971562
-0.26  -0.56  0.199916120087
-0.26  -0.54  0.235996396747
-0.26  -0.52  0.278588336216
-0.26  -0.5  0.328867144351
-0.26  -0.48  0.388220124728
-0.26  -0.46  0.458284957415
-0.26  -0.44  0.540994886186
-0.26  -0.42  0.638632061002
-0.26  -0.4  0.75389050757
-0.26  -0.38  0.889950461478
-0.26  -0.36  1.05056611793
-0.26  -0.34  1.24016921832
-0.26  -0.32  1.46399133173
-0.26  -0.3  1.72820820555
-0.26  -0.28  2.04011016801
-0.26  -0.26  2.40830328444
-0.26  -0.24  2.84294681767
-0.26  -0.22  3.35603354458
-0.26  -0.2  2.93577788681
-0.26  -0.18  2.93639012653
-0.26  -0.16  2.92357487049
-0.26  -0.14  2.89857132518
-0.26  -0.12  2.86384153133
-0.26  -0.1  2.82290622111
-0.26  -0.08  2.78007444403
-0.26  -0.06  2.74005168785
-0.26  -0.04  2.70742958089
-0.26  -0.02  2.68609908666
-0.26  6.17561557e-16  2.67868030835
-0.26  0.02  2.68609908666
-0.26  0.04  2.70742958089
-0.26  0.06  2.74005168785
-0.26  0.08  2.78007444403
-0.26  0.1  2.82290622111
-0.26  0.12  2.86384153133
-0.26  0.14  2.89857132518
-0.26  0.16  2.92357487049
-0.26  0.18  2.93639012653
-0.26  0.2  3.96172066335
-0.26  0.22  3.35603354458
-0.26  0.24  2.84294681767
-0.26  0.26  2.40830328444
-0.26  0.28  2.04011016801
-0.26  0.3  1.72820820555
-0.26  0.32  1.46399133173
-0.26  0.34  1.24016921832
-0.26  0.36  1.05056611793
-0.26  0.38  0.889950461478
-0.26  0.4  0.753890507569
-0.26  0.42  0.638632061002
-0.26  0.44  0.540994886186
-0.26  0.46  0.458284957414
-0.26  0.48  0.388220124728
-0.26  0.5  0.328867144351
-0.26  0.52  0.278588336215
-0.26  0.54  0.235996396747
-0.26  0.56  0.199916120087
-0.26  0.58  0.169351971562
-0.26  0.6  0.143460618681
-0.26  0.62  0.121527661724
-0.26  0.64  0.102947921875
-0.26  0.66  0.0872087429973
-0.26  0.68  0.0738758463179
-0.26  0.7  0.0625813477137
-0.26  0.72  0.0530136069753
-0.26  0.74  0.0449086289638
-0.26  0.76  0.0380427794009
-0.26  0.78  0.0322266143042
-0.26  0.8  0.0272996528084
-0.26  0.82  0.0231259491433
-0.26  0.84  0.019590341589
-0.26  0.86  0.0165952749095
-0.26  0.88  0.0140581085873
-0.26  0.9  0.0119088365893
-0.26  0.92  0.0100881557452
-0.26  0.94  0.00854582944149
-0.26  0.96  0.00723930148263
-0.26  0.98  0.00613252187107
-0.24  -1  0.0063253916717
-0.24  -0.98  0.00746697986078
-0.24  -0.96  0.00881459854744
-0.24  -0.94  0.0104054315133
-0.24  -0.92  0.0122833733601
-0.24  -0.9  0.0145002406591
-0.24  -0.88  0.0171172016845
-0.24  -0.86  0.020206464182
-0.24  -0.84  0.0238532677399
-0.24  -0.82  0.0281582357381
-0.24  -0.8  0.0332401517699
-0.24  -0.78  0.0392392371442
-0.24  -0.76  0.0463210199013
-0.24  -0.74  0.0546809020983
-0.24  -0.72  0.0645495513842
-0.24  -0.7  0.0761992656305
-0.24  -0.68  0.0899514862321
-0.24  -0.66  0.106185667387
-0.24  -0.64  0.125349746077
-0.24  -0.62  0.147972501639
-0.24  -0.6  0.174678145961
-0.24  -0.58  0.206203546864
-0.24  -0.56  0.24341855992
-0.24  -0.54  0.28735002969
-0.24  -0.52  0.339210122639
-0.24  -0.5  0.400429773487
-0.24  -0.48  0.472698167872
-0.24  -0.46  0.558009350713
-0.24  -0.44  0.658717246325
-0.24  -0.42  0.777600608396
-0.24  -0.4  0.917939691958
-0.24  -0.38  1.08360676287
-0.24  -0.36  1.27917294222
-0.24  -0.34  1.51003433364
-0.24  -0.32  1.78256091379
-0.24  -0.3  2.10427229407
-0.24  -0.28  2.48404520336
-0.24  -0.26  2.93235841659
-0.24  -0.24  3.46158188738
-0.24  -0.22  4.08631806235
-0.24  -0.2  3.57461331854
-0.24  -0.18  3.57535878374
-0.24  -0.16  3.55975488361
-0.24  -0.14  3.52931048029
-0.24  -0.12  3.48702336306
-0.24  -0.1  3.43718038763
-0.24  -0.08  3.38502826757
-0.24  -0.06  3.33629642109
-0.24  -0.04  3.29657563071
-0.24  -0.02  3.2706035471
-0.24  6.17561557e-16  3.26157041694
-0.24  0.02  3.2706035471
-0.24  0.04  3.29657563071
-0.24  0.06  3.33629642109
-0.24  0.08  3.38502826757
-0.24  0.1  3.43718038763
-0.24  0.12  3.48702336306
-0.24  0.14  3.52931048029
-0.24  0.16  3.55975488361
-0.24  0.18  3.57535878374
-0.24  0.2  4.82380479502
-0.24  0.22  4.08631806235
-0.24  0.24  3.46158188738
-0.24  0.26  2.93235841659
-0.24  0.28  2.48404520336
-0.24  0.3  2.10427229407
-0.24  0.32  1.78256091379
-0.24  0.34  1.51003433364
-0.24  0.36  1.27917294222
-0.24  0.38  1.08360676287
-0.24  0.4  0.917939691957
-0.24  0.42  0.777600608396
-0.24  0.44  0.658717246325
-0.24  0.46  0.558009350713
-0.24  0.48  0.472698167872
-0.24  0.5  0.400429773487
-0.24  0.52  0.339210122638
-0.24  0.54  0.28735002969
-0.24  0.56  0.24341855992
-0.24  0.58  0.206203546864
-0.24  0.6  0.174678145961
-0.24  0.62  0.147972501639
-0.24  0.64  0.125349746076
-0.24  0.66  0.106185667387
-0.24  0.68  0.0899514862321
-0.24  0.7  0.0761992656305
-0.24  0.72  0.0645495513842
-0.24  0.74  0.0546809020983
-0.24  0.76  0.0463210199013
-0.24  0.78  0.0392392371442
-0.24  0.8  0.0332401517699
-0.24  0.82  0.0281582357381
-0.24  0.84  0.0238532677399
-0.24  0.86  0.020206464182
-0.24  0.88  0.0171172016845
-0.24  0.9  0.0145002406591
-0.24  0.92  0.0122833733601
-0.24  0.94  0.0104054315133
-0.24  0.96  0.00881459854744
-0.24  0.98  0.00746697986078
-0.22  -1  0.00770181879773
-0.22  -0.98  0.0090918205289
-0.22  -0.96  0.0107326857072
-0.22  -0.94  0.0126696894338
-0.22  -0.92  0.0149562779279
-0.22  -0.9  0.0176555432258
-0.22  -0.88  0.0208419640302
-0.22  -0.86  0.024603460742
-0.22  -0.84  0.0290438213792
-0.22  -0.82  0.0342855653175
-0.22  -0.8  0.0404733238712
-0.22  -0.78  0.0477778309915
-0.22  -0.76  0.0564006341934
-0.22  -0.74  0.0665796556982
-0.22  -0.72  0.0785957572336
-0.22  -0.7  0.0927804896307
-0.22  -0.68  0.109525241045
-0.22  -0.66  0.129292036221
-0.22  -0.64  0.152626284779
-0.22  -0.62  0.180171830271
-0.22  -0.6  0.212688715251
-0.22  -0.58  0.251074152531
-0.22  -0.56  0.296387281265
-0.22  -0.54  0.349878390946
-0.22  -0.52  0.413023419657
-0.22  -0.5  0.487564678471
-0.22  -0.48  0.575558925665
-0.22  -0.46  0.679434117236
-0.22  -0.44  0.80205639958
-0.22  -0.42  0.946809192808
-0.22  -0.4  1.1176865468
-0.22  -0.38  1.31940334588
-0.22  -0.36  1.55752540289
-0.22  -0.34  1.83862303233
-0.22  -0.32  2.17045233979
-0.22  -0.3  2.56216923018
-0.22  -0.28  3.02458203928
-0.22  -0.26  3.57044975976
-0.22  -0.24  4.21483408994
-0.22  -0.22  4.9755150194
-0.22  -0.2  4.35246155183
-0.22  -0.18  4.35336923284
-0.22  -0.16  4.33436987002
-0.22  -0.14  4.29730065914
-0.22  -0.12  4.24581171881
-0.22  -0.1  4.18512273936
-0.22  -0.08  4.12162213743
-0.22  -0.06  4.06228607245
-0.22  -0.04  4.01392190058
-0.22  -0.02  3.98229820165
-0.22  6.17561557e-16  3.9712994311
-0.22  0.02  3.98229820165
-0.22  0.04  4.01392190058
-0.22  0.06  4.06228607245
-0.22  0.08  4.12162213743
-0.22  0.1  4.18512273936
-0.22  0.12  4.24581171881
-0.22  0.14  4.29730065914
-0.22  0.16  4.33436987002
-0.22  0.18  4.35336923284
-0.22  0.2  5.87348141825
-0.22  0.22  4.9755150194
-0.22  0.24  4.21483408994
-0.22  0.26  3.57044975976
-0.22  0.28  3.02458203928
-0.22  0.3  2.56216923018
-0.22  0.32  2.17045233979
-0.22  0.34  1.83862303233
-0.22  0.36  1.55752540289
-0.22  0.38  1.31940334588
-0.22  0.4  1.1176865468
-0.22  0.42  0.946809192808
-0.22  0.44  0.802056399579
-0.22  0.46  0.679434117236
-0.22  0.48  0.575558925665
-0.22  0.5  0.487564678471
-0.22  0.52  0.413023419657
-0.22  0.54  0.349878390946
-0.22  0.56  0.296387281265
-0.22  0.58  0.251074152531
-0.22  0.6  0.212688715251
-0.22  0.62  0.180171830271
-0.22  0.64  0.152626284779
-0.22  0.66  0.129292036221
-0.22  0.68  0.109525241045
-0.22  0.7  0.0927804896307
-0.22  0.72  0.0785957572336
-0.22  0.74  0.0665796556982
-0.22  0.76  0.0564006341934
-0.22  0.78  0.0477778309915
-0.22  0.8  0.0404733238712
-0.22  0.82  0.0342855653175
-0.22  0.84  0.0290438213792
-0.22  0.86  0.024603460742
-0.22  0.88  0.0208419640302
-0.22  0.9  0.0176555432258
-0.22  0.92  0.0149562779279
-0.22  0.94  0.0126696894338
-0.22  0.96  0.0107326857072
-0.22  0.98  0.0090918205289
-0.2  -1  0.00937776123153
-0.2  -0.98  0.0110702321515
-0.2  -0.96  0.0130681552732
-0.2  -0.94  0.0154266577166
-0.2  -0.92  0.0182108157831
-0.2  -0.9  0.0214974505546
-0.2  -0.88  0.0253772475572
-0.2  -0.86  0.0299572589757
-0.2  -0.84  0.0353638574599
-0.2  -0.82  0.0417462230259
-0.2  -0.8  0.0492804592628
-0.2  -0.78  0.0581744524203
-0.2  -0.76  0.0686736074508
-0.2  -0.74  0.0810676192744
-0.2  -0.72  0.0956984661032
-0.2  -0.7  0.112969845377
-0.2  -0.68  0.133358312669
-0.2  -0.66  0.157426430907
-0.2  -0.64  0.185838292733
-0.2  -0.62  0.219377844286
-0.2  -0.6  0.25897051601
-0.2  -0.58  0.305708757331
-0.2  -0.56  0.36088217975
-0.2  -0.54  0.426013140082
-0.2  -0.52  0.502898745647
-0.2  -0.5  0.593660440437
-0.2  -0.48  0.700802540453
-0.2  -0.46  0.827281333323
-0.2  -0.44  0.976586648818
-0.2  -0.42  1.15283815098
-0.2  -0.4  1.36089900877
-0.2  -0.38  1.60651008167
-0.2  -0.36  1.89644832266
-0.2  -0.34  2.2387137694
-0.2  -0.32  2.64275028296
-0.2  -0.3  3.1197061248
-0.2  -0.28  3.68274156202
-0.2  -0.26  4.34739198825
-0.2  -0.24  5.13199657951
-0.2  -0.22  6.05820431267
-0.2  -0.2  5.29957225356
-0.2  -0.18  5.30067744911
-0.2  -0.16  5.27754375917
-0.2  -0.14  5.23240815967
-0.2  -0.12  5.16971504766
-0.2  -0.1  5.09581993619
-0.2  -0.08  5.01850138344
-0.2  -0.06  4.9462535853
-0.2  -0.04  4.88736520219
-0.2  -0.02  4.8488600769
-0.2  6.17561557e-16  4.8354679358
-0.2  0.02  4.8488600769
-0.2  0.04  4.88736520219
-0.2  0.06  4.9462535853
-0.2  0.08  5.01850138344
-0.2  0.1  5.09581993619
-0.2  0.12  5.16971504766
-0.2  0.14  5.23240815967
-0.2  0.16  5.27754375917
-0.2  0.18  5.30067744911
-0.2  0.2  7.15157130863
-0.2  0.22  6.05820431266
-0.2  0.24  5.1319965795
-0.2  0.26  4.34739198825
-0.2  0.28  3.68274156202
-0.2  0.3  3.1197061248
-0.2  0.32  2.64275028296
-0.2  0.34  2.2387137694
-0.2  0.36  1.89644832266
-0.2  0.38  1.60651008167
-0.2  0.4  1.36089900877
-0.2  0.42  1.15283815098
-0.2  0.44  0.976586648817
-0.2  0.46  0.827281333322
-0.2  0.48  0.700802540453
-0.2  0.5  0.593660440437
-0.2  0.52  0.502898745647
-0.2  0.54  0.426013140082
-0.2  0.56  0.36088217975
-0.2  0.58  0.305708757331
-0.2  0.6  0.25897051601
-0.2  0.62  0.219377844286
-0.2  0.64  0.185838292733
-0.2  0.66  0.157426430907
-0.2  0.68  0.133358312669
-0.2  0.7  0.112969845377
-0.2  0.72  0.0956984661032
-0.2  0.74  0.0810676192744
-0.2  0.76  0.0686736074508
-0.2  0.78  0.0581744524203
-0.2  0.8  0.0492804592628
-0.2  0.82  0.0417462230259
-0.2  0.84  0.0353638574599
-0.2  0.86  0.0299572589757
-0.2  0.88  0.0253772475572
-0.2  0.9  0.0214974505546
-0.2  0.92  0.0182108157831
-0.2  0.94  0.0154266577166
-0.2  0.96  0.0130681552732
-0.2  0.98  0.0110702321515
-0.18  -1  0.011418394541
-0.18  -0.98  0.0134791529924
-0.18  -0.96  0.0159118311021
-0.18  -0.94  0.0187835518422
-0.18  -0.92  0.0221735523426
-0.18  -0.9  0.0261753702186
-0.18  -0.88  0.0308994244808
-0.18  -0.86  0.0364760622398
-0.18  -0.84  0.0430591552716
-0.18  -0.82  0.0508303456802
-0.18  -0.8  0.0600040578055
-0.18  -0.78  0.0708334146648
-0.18  -0.76  0.0836172221776
-0.18  -0.74  0.0987082138816
-0.18  -0.72  0.116522783632
-0.18  -0.7  0.137552474828
-0.18  -0.68  0.162377543187
-0.18  -0.66  0.191682967277
-0.18  -0.64  0.226277348597
-0.18  -0.62  0.267115222681
-0.18  -0.6  0.31532339684
-0.18  -0.58  0.372232041278
-0.18  -0.56  0.439411391424
-0.18  -0.54  0.518715074205
-0.18  -0.52  0.612331253716
-0.18  -0.5  0.722843007507
-0.18  -0.48  0.853299599408
-0.18  -0.46  1.00730061547
-0.18  -0.44  1.18909528451
-0.18  -0.42  1.40369972372
-0.18  -0.4  1.65703534446
-0.18  -0.38  1.95609223712
-0.18  -0.36  2.3091220431
-0.18  -0.34  2.72586563597
-0.18  -0.32  3.21782189363
-0.18  -0.3  3.79856497786
-0.18  -0.28  4.48411887543
-0.18  -0.26  5.2933995354
-0.18  -0.24  6.24873680199
-0.18  -0.22  7.37649054438
-0.18  -0.2  6.45277752286
-0.18  -0.18  6.45412321279
-0.18  -0.16  6.42595555182
-0.18  -0.14  6.37099828961
-0.18  -0.12  6.2946629394
-0.18  -0.1  6.20468799584
-0.18  -0.08  6.11054465834
-0.18  -0.06  6.0225754892
-0.18  -0.04  5.95087279006
-0.18  -0.02  5.90398881621
-0.18  6.17561557e-16  5.88768249884
-0.18  0.02  5.90398881621
-0.18  0.04  5.95087279006
-0.18  0.06  6.0225754892
-0.18  0.08  6.11054465834
-0.18  0.1  6.20468799584
-0.18  0.12  6.2946629394
-0.18  0.14  6.37099828961
-0.18  0.16  6.42595555182
-0.18  0.18  6.45412321279
-0.18  0.2  8.70777798386
-0.18  0.22  7.37649054438
-0.18  0.24  6.24873680199
-0.18  0.26  5.2933995354
-0.18  0.28  4.48411887543
-0.18  0.3  3.79856497786
-0.18  0.32  3.21782189363
-0.18  0.34  2.72586563597
-0.18  0.36  2.3091220431
-0.18  0.38  1.95609223711
-0.18  0.4  1.65703534446
-0.18  0.42  1.40369972372
-0.18  0.44  1.18909528451
-0.18  0.46  1.00730061547
-0.18  0.48  0.853299599408
-0.18  0.5  0.722843007506
-0.18  0.52  0.612331253716
-0.18  0.54  0.518715074205
-0.18  0.56  0.439411391424
-0.18  0.58  0.372232041278
-0.18  0.6  0.31532339684
-0.18  0.62  0.267115222681
-0.18  0.64  0.226277348597
-0.18  0.66  0.191682967277
-0.18  0.68  0.162377543187
-0.18  0.7  0.137552474828
-0.18  0.72  0.116522783632
-0.18  0.74  0.0987082138816
-0.18  0.76  0.0836172221776
-0.18  0.78  0.0708334146648
-0.18  0.8  0.0600040578054
-0.18  0.82  0.0508303456802
-0.18  0.84  0.0430591552716
-0.18  0.86  0.0364760622398
-0.18  0.88  0.0308994244808
-0.18  0.9  0.0261753702186
-0.18  0.92  0.0221735523426
-0.18  0.94  0.0187835518422
-0.18  0.96  0.0159118311021
-0.18  0.98  0.0134791529924
-0.16  -1  0.0139030767231
-0.16  -0.98  0.0164122633479
-0.16  -0.96  0.0193743006361
-0.16  -0.94  0.0228709177511
-0.16  -0.92  0.0269985940964
-0.16  -0.9  0.0318712213964
-0.16  -0.88  0.0376232462205
-0.16  -0.86  0.0444133796619
-0.16  -0.84  0.0524289765278
-0.16  -0.82  0.061891204873
-0.16  -0.8  0.0730611485157
-0.16  -0.78  0.0862470109185
-0.16  -0.76  0.101812619203
-0.16  -0.74  0.120187462946
-0.16  -0.72  0.141878544748
-0.16  -0.7  0.167484369553
-0.16  -0.68  0.197711458729
-0.16  -0.66  0.233393844556
-0.16  -0.64  0.275516083016
-0.16  -0.62  0.325240419879
-0.16  -0.6  0.383938859631
-0.16  -0.58  0.453231022114
-0.16  -0.56  0.535028831424
-0.16  -0.54  0.631589270125
-0.16  -0.52  0.745576654393
-0.16  -0.5  0.880136148396
-0.16  -0.48  1.03898054633
-0.16  -0.46  1.22649271663
-0.16  -0.44  1.44784653502
-0.16  -0.42  1.70914964315
-0.16  -0.4  2.01761197201
-0.16  -0.38  2.38174467983
-0.16  -0.36  2.81159499378
-0.16  -0.34  3.3190234352
-0.16  -0.32  3.91803107767
-0.16  -0.3  4.62514586753
-0.16  -0.28  5.45987866658
-0.16  -0.26  6.44526159986
-0.16  -0.24  7.60848356299
-0.16  -0.22  8.98164042397
-0.16  -0.2  7.85692425111
-0.16  -0.18  7.85856276782
-0.16  -0.16  7.82426572632
-0.16  -0.14  7.75734957359
-0.16  -0.12  7.6644033869
-0.16  -0.1  7.55484958414
-0.16  -0.08  7.44022033047
-0.16  -0.06  7.33310876559
-0.16  -0.04  7.24580331088
-0.16  -0.02  7.188717222
-0.16  6.17561557e-16  7.16886259352
-0.16  0.02  7.188717222
-0.16  0.04  7.24580331088
-0.16  0.06  7.33310876559
-0.16  0.08  7.44022033047
-0.16  0.1  7.55484958414
-0.16  0.12  7.6644033869
-0.16  0.14  7.75734957359
-0.16  0.16  7.82426572632
-0.16  0.18  7.85856276782
-0.16  0.2  10.6026206192
-0.16  0.22  8.98164042397
-0.16  0.24  7.60848356299
-0.16  0.26  6.44526159986
-0.16  0.28  5.45987866658
-0.16  0.3  4.62514586753
-0.16  0.32  3.91803107767
-0.16  0.34  3.3190234352
-0.16  0.36  2.81159499378
-0.16  0.38  2.38174467983
-0.16  0.4  2.01761197201
-0.16  0.42  1.70914964315
-0.16  0.44  1.44784653502
-0.16  0.46  1.22649271663
-0.16  0.48  1.03898054633
-0.16  0.5  0.880136148395
-0.16  0.52  0.745576654393
-0.16  0.54  0.631589270125
-0.16  0.56  0.535028831424
-0.16  0.58  0.453231022114
-0.16  0.6  0.383938859631
-0.16  0.62  0.325240419879
-0.16  0.64  0.275516083016
-0.16  0.66  0.233393844556
-0.16  0.68  0.197711458729
-0.16  0.7  0.167484369553
-0.16  0.72  0.141878544748
-0.16  0.74  0.120187462946
-0.16  0.76  0.101812619203
-0.16  0.78  0.0862470109185
-0.16  0.8  0.0730611485157
-0.16  0.82  0.061891204873
-0.16  0.84  0.0524289765278
-0.16  0.86  0.0444133796619
-0.16  0.88  0.0376232462204
-0.16  0.9  0.0318712213963
-0.16  0.92  0.0269985940964
-0.16  0.94  0.0228709177511
-0.16  0.96  0.0193743006361
-0.16  0.98  0.0164122633479
-0.14  -1  0.01692843435
-0.14  -0.98  0.0199836286711
-0.14  -0.96  0.0235902155277
-0.14  -0.94  0.027847708632
-0.14  -0.92  0.0328735816399
-0.14  -0.9  0.0388065095092
-0.14  -0.88  0.0458101948483
-0.14  -0.86  0.0540778848338
-0.14  -0.84  0.0638377033275
-0.14  -0.82  0.0753589453184
-0.14  -0.8  0.0889595073678
-0.14  -0.78  0.105014659078
-0.14  -0.76  0.123967397613
-0.14  -0.74  0.146340670968
-0.14  -0.72  0.172751807263
-0.14  -0.7  0.203929548192
-0.14  -0.68  0.240734156619
-0.14  -0.66  0.284181153132
-0.14  -0.64  0.335469336507
-0.14  -0.62  0.396013861215
-0.14  -0.6  0.467485284668
-0.14  -0.58  0.551855661595
-0.14  -0.56  0.651452957392
-0.14  -0.54  0.769025281842
-0.14  -0.52  0.907816715547
-0.14  -0.5  1.07165682128
-0.14  -0.48  1.26506631012
-0.14  -0.46  1.49338177785
-0.14  -0.44  1.76290295343
-0.14  -0.42  2.08106652252
-0.14  -0.4  2.45665132202
-0.14  -0.38  2.90002056767
-0.14  -0.36  3.42340779806
-0.14  -0.34  4.04125442504
-0.14  -0.32  4.77060820425
-0.14  -0.3  5.63159362039
-0.14  -0.28  6.64796716632
-0.14  -0.26  7.84777283724
-0.14  -0.24  9.26411592659
-0.14  -0.22  10.9360764743
-0.14  -0.2  9.56661816853
-0.14  -0.18  9.56861323215
-0.14  -0.16  9.52685303568
-0.14  -0.14  9.44537569646
-0.14  -0.12  9.33220409777
-0.14  -0.1  9.19881100825
-0.14  -0.08  9.05923803215
-0.14  -0.06  8.92881861993
-0.14  -0.04  8.82251519603
-0.14  -0.02  8.75300697658
-0.14  6.17561557e-16  8.72883191221
-0.14  0.02  8.75300697658
-0.14  0.04  8.82251519603
-0.14  0.06  8.92881861993
-0.14  0.08  9.05923803215
-0.14  0.1  9.19881100825
-0.14  0.12  9.33220409777
-0.14  0.14  9.44537569646
-0.14  0.16  9.52685303568
-0.14  0.18  9.56861323215
-0.14  0.2  12.9097875718
-0.14  0.22  10.9360764743
-0.14  0.24  9.26411592659
-0.14  0.26  7.84777283724
-0.14  0.28  6.64796716632
-0.14  0.3  5.63159362039
-0.14  0.32  4.77060820425
-0.14  0.34  4.04125442504
-0.14  0.36  3.42340779806
-0.14  0.38  2.90002056767
-0.14  0.4  2.45665132202
-0.14  0.42  2.08106652252
-0.14  0.44  1.76290295343
-0.14  0.46  1.49338177785
-0.14  0.48  1.26506631012
-0.14  0.5  1.07165682128
-0.14  0.52  0.907816715547
-0.14  0.54  0.769025281842
-0.14  0.56  0.651452957391
-0.14  0.58  0.551855661595
-0.14  0.6  0.467485284668
-0.14  0.62  0.396013861215
-0.14  0.64  0.335469336507
-0.14  0.66  0.284181153132
-0.14  0.68  0.240734156618
-0.14  0.7  0.203929548192
-0.14  0.72  0.172751807263
-0.14  0.74  0.146340670968
-0.14  0.76  0.123967397613
-0.14  0.78  0.105014659078
-0.14  0.8  0.0889595073677
-0.14  0.82  0.0753589453184
-0.14  0.84  0.0638377033275
-0.14  0.86  0.0540778848338
-0.14  0.88  0.0458101948483
-0.14  0.9  0.0388065095092
-0.14  0.92  0.0328735816399
-0.14  0.94  0.027847708632
-0.14  0.96  0.0235902155277
-0.14  0.98  0.0199836286711
-0.12  -1  0.0206121202702
-0.12  -0.98  0.0243321354525
-0.12  -0.96  0.0287235280949
-0.12  -0.94  0.033907466438
-0.12  -0.92  0.0400269868119
-0.12  -0.9  0.0472509403251
-0.12  -0.88  0.0557786518405
-0.12  -0.86  0.0658454197893
-0.12  -0.84  0.0777290085753
-0.12  -0.82  0.0917573127095
-0.12  -0.8  0.108317404145
-0.12  -0.78  0.127866212451
-0.12  -0.76  0.150943132504
-0.12  -0.74  0.178184907597
-0.12  -0.72  0.210343198584
-0.12  -0.7  0.248305323875
-0.12  -0.68  0.293118742511
-0.12  -0.66  0.346019955878
-0.12  -0.64  0.408468625513
-0.12  -0.62  0.4821878484
-0.12  -0.6  0.569211701029
-0.12  -0.58  0.671941364062
-0.12  -0.56  0.793211376226
-0.12  -0.54  0.936367845508
-0.12  -0.52  1.10536077568
-0.12  -0.5  1.30485305563
-0.12  -0.48  1.54034911882
-0.12  -0.46  1.81834682274
-0.12  -0.44  2.1465167392
-0.12  -0.42  2.53391380239
-0.12  -0.4  2.99122715453
-0.12  -0.38  3.53107508296
-0.12  -0.36  4.16835318663
-0.12  -0.34  4.9206453786
-0.12  -0.32  5.80870906516
-0.12  -0.3  6.85704788855
-0.12  -0.28  8.09458783673
-0.12  -0.26  9.55547537532
-0.12  -0.24  11.2800196242
-0.12  -0.22  13.3158045754
-0.12  -0.2  11.6483474013
-0.12  -0.18  11.6507765977
-0.12  -0.16  11.5999292379
-0.12  -0.14  11.5007221475
-0.12  -0.12  11.3629240172
-0.12  -0.1  11.2005041296
-0.12  -0.08  11.0305595907
-0.12  -0.06  10.8717604629
-0.12  -0.04  10.7423250459
-0.12  -0.02  10.6576915973
-0.12  6.17561557e-16  10.6282559552
-0.12  0.02  10.6576915973
-0.12  0.04  10.7423250459
-0.12  0.06  10.8717604629
-0.12  0.08  11.0305595907
-0.12  0.1  11.2005041296
-0.12  0.12  11.3629240172
-0.12  0.14  11.5007221475
-0.12  0.16  11.5999292379
-0.12  0.18  11.6507765977
-0.12  0.2  15.7190020406
-0.12  0.22  13.3158045754
-0.12  0.24  11.2800196242
-0.12  0.26  9.55547537532
-0.12  0.28  8.09458783672
-0.12  0.3  6.85704788855
-0.12  0.32  5.80870906516
-0.12  0.34  4.9206453786
-0.12  0.36  4.16835318663
-0.12  0.38  3.53107508296
-0.12  0.4  2.99122715453
-0.12  0.42  2.53391380239
-0.12  0.44  2.1465167392
-0.12  0.46  1.81834682274
-0.12  0.48  1.54034911882
-0.12  0.5  1.30485305563
-0.12  0.52  1.10536077568
-0.12  0.54  0.936367845508
-0.12  0.56  0.793211376226
-0.12  0.58  0.671941364061
-0.12  0.6  0.569211701029
-0.12  0.62  0.4821878484
-0.12  0.64  0.408468625513
-0.12  0.66  0.346019955878
-0.12  0.68  0.293118742511
-0.12  0.7  0.248305323875
-0.12  0.72  0.210343198584
-0.12  0.74  0.178184907597
-0.12  0.76  0.150943132504
-0.12  0.78  0.127866212451
-0.12  0.8  0.108317404145
-0.12  0.82  0.0917573127095
-0.12  0.84  0.0777290085753
-0.12  0.86  0.0658454197893
-0.12  0.88  0.0557786518405
-0.12  0.9  0.0472509403251
-0.12  0.92  0.0400269868119
-0.12  0.94  0.033907466438
-0.12  0.96  0.0287235280949
-0.12  0.98  0.0243321354525
-0.1  -1  0.0250973889994
-0.1  -0.98  0.0296268923639
-0.1  -0.96  0.0349738672482
-0.1  -0.94  0.0412858485213
-0.1  -0.92  0.0487369977141
-0.1  -0.9  0.0575329085208
-0.1  -0.88  0.0679162795846
-0.1  -0.86  0.0801736110898
-0.1  -0.84  0.0946431099362
-0.1  -0.82  0.111724021616
-0.1  -0.8  0.131887646278
-0.1  -0.78  0.155690342948
-0.1  -0.76  0.183788880697
-0.1  -0.74  0.216958560359
-0.1  -0.72  0.256114606796
-0.1  -0.7  0.302337421974
-0.1  -0.68  0.356902395648
-0.1  -0.66  0.421315096185
-0.1  -0.64  0.497352812528
-0.1  -0.62  0.587113593529
-0.1  -0.6  0.693074137762
-0.1  -0.58  0.818158131117
-0.1  -0.56  0.965816917761
-0.1  -0.54  1.14012473036
-0.1  -0.52  1.34589110718
-0.1  -0.5  1.58879359789
-0.1  -0.48  1.87553441971
-0.1  -0.46  2.21402538641
-0.1  -0.44  2.61360621281
-0.1  -0.42  3.08530221811
-0.1  -0.4  3.64212853887
-0.1  -0.38  4.29944924546
-0.1  -0.36  5.07540127072
-0.1  -0.34  5.99139484808
-0.1  -0.32  7.07270426727
-0.1  -0.3  8.34916524795
-0.1  -0.28  9.85599817316
-0.1  -0.26  11.6347798977
-0.1  -0.24  13.7345909455
-0.1  -0.22  16.2133697499
-0.1  -0.2  14.1830681219
-0.1  -0.18  14.1860259199
-0.1  -0.16  14.1241139985
-0.1  -0.14  14.0033191019
-0.1  -0.12  13.8355356213
-0.1  -0.1  13.6377726039
-0.1  -0.08  13.430847545
-0.1  -0.06  13.2374931772
-0.1  -0.04  13.0798921654
-0.1  -0.02  12.9768421854
-0.1  6.17561557e-16  12.9410012457
-0.1  0.02  12.9768421854
-0.1  0.04  13.0798921654
-0.1  0.06  13.2374931772
-0.1  0.08  13.430847545
-0.1  0.1  13.6377726039
-0.1  0.12  13.8355356213
-0.1  0.14  14.0033191019
-0.1  0.16  14.1241139985
-0.1  0.18  14.1860259199
-0.1  0.2  19.1395113032
-0.1  0.22  16.2133697499
-0.1  0.24  13.7345909455
-0.1  0.26  11.6347798977
-0.1  0.28  9.85599817316
-0.1  0.3  8.34916524795
-0.1  0.32  7.07270426727
-0.1  0.34  5.99139484807
-0.1  0.36  5.07540127072
-0.1  0.38  4.29944924546
-0.1  0.4  3.64212853887
-0.1  0.42  3.08530221811
-0.1  0.44  2.61360621281
-0.1  0.46  2.21402538641
-0.1  0.48  1.87553441971
-0.1  0.5  1.58879359789
-0.1  0.52  1.34589110718
-0.1  0.54  1.14012473036
-0.1  0.56  0.965816917761
-0.1  0.58  0.818158131117
-0.1  0.6  0.693074137762
-0.1  0.62  0.587113593529
-0.1  0.64  0.497352812528
-0.1  0.66  0.421315096185
-0.1  0.68  0.356902395648
-0.1  0.7  0.302337421974
-0.1  0.72  0.256114606796
-0.1  0.74  0.216958560359
-0.1  0.76  0.183788880697
-0.1  0.78  0.155690342948
-0.1  0.8  0.131887646278
-0.1  0.82  0.111724021616
-0.1  0.84  0.0946431099362
-0.1  0.86  0.0801736110898
-0.1  0.88  0.0679162795846
-0.1  0.9  0.0575329085208
-0.1  0.92  0.0487369977141
-0.1  0.94  0.0412858485213
-0.1  0.96  0.0349738672482
-0.1  0.98  0.0296268923639
-0.08  -1  0.0305586677319
-0.08  -0.98  0.0360738067095
-0.08  -0.96  0.0425843018396
-0.08  -0.94  0.0502697920896
-0.08  -0.92  0.0593423371423
-0.08  -0.9  0.0700522685917
-0.08  -0.88  0.0826950971458
-0.08  -0.86  0.097619666421
-0.08  -0.84  0.115237778309
-0.08  -0.82  0.136035555503
-0.08  -0.8  0.160586854699
-0.08  -0.78  0.189569100568
-0.08  -0.76  0.223781977407
-0.08  -0.74  0.264169494196
-0.08  -0.72  0.311846031894
-0.08  -0.7  0.368127091676
-0.08  -0.68  0.434565592524
-0.08  -0.66  0.512994719692
-0.08  -0.64  0.605578506351
-0.08  -0.62  0.714871544046
-0.08  -0.6  0.843889469536
-0.08  -0.58  0.996192172882
-0.08  -0.56  1.17598202269
-0.08  -0.54  1.38821981876
-0.08  -0.52  1.63876167153
-0.08  -0.5  1.93452058514
-0.08  -0.48  2.28365720247
-0.08  -0.46  2.69580497537
-0.08  -0.44  3.18233597293
-0.08  -0.42  3.75667466197
-0.08  -0.4  4.43466831785
-0.08  -0.38  5.23502428581
-0.08  -0.36  6.17982615808
-0.08  -0.34  7.295143109
-0.08  -0.32  8.61174920127
-0.08  -0.3  10.1659725104
-0.08  -0.28  12.0006974967
-0.08  -0.26  14.1665482826
-0.08  -0.24  16.7232854839
-0.08  -0.22  19.7414551375
-0.08  -0.2  17.2693528465
-0.08  -0.18  17.2729542715
-0.08  -0.16  17.1975701018
-0.08  -0.14  17.0504898175
-0.08  -0.12  16.8461960707
-0.08  -0.1  16.605399136
-0.08  -0.08  16.3534464679
-0.08  -0.06  16.1180175203
-0.08  -0.04  15.9261219827
-0.08  -0.02  15.8006479702
-0.08  6.17561557e-16  15.757007918
-0.08  0.02  15.8006479702
-0.08  0.04  15.9261219827
-0.08  0.06  16.1180175203
-0.08  0.08  16.3534464679
-0.08  0.1  16.605399136
-0.08  0.12  16.8461960707
-0.08  0.14  17.0504898175
-0.08  0.16  17.1975701018
-0.08  0.18  17.2729542715
-0.08  0.2  23.3043352231
-0.08  0.22  19.7414551375
-0.08  0.24  16.7232854839
-0.08  0.26  14.1665482826
-0.08  0.28  12.0006974967
-0.08  0.3  10.1659725104
-0.08  0.32  8.61174920127
-0.08  0.34  7.295143109
-0.08  0.36  6.17982615808
-0.08  0.38  5.23502428581
-0.08  0.4  4.43466831784
-0.08  0.42  3.75667466197
-0.08  0.44  3.18233597293
-0.08  0.46  2.69580497537
-0.08  0.48  2.28365720246
-0.08  0.5  1.93452058514
-0.08  0.52  1.63876167153
-0.08  0.54  1.38821981876
-0.08  0.56  1.17598202269
-0.08  0.58  0.996192172881
-0.08  0.6  0.843889469536
-0.08  0.62  0.714871544046
-0.08  0.64  0.60557850635
-0.08  0.66  0.512994719692
-0.08  0.68  0.434565592524
-0.08  0.7  0.368127091676
-0.08  0.72  0.311846031894
-0.08  0.74  0.264169494196
-0.08  0.76  0.223781977407
-0.08  0.78  0.189569100568
-0.08  0.8  0.160586854699
-0.08  0.82  0.136035555503
-0.08  0.84  0.115237778309
-0.08  0.86  0.097619666421
-0.08  0.88  0.0826950971458
-0.08  0.9  0.0700522685917
-0.08  0.92  0.0593423371423
-0.08  0.94  0.0502697920896
-0.08  0.96  0.0425843018396
-0.08  0.98  0.0360738067094
-0.06  -1  0.0372083396233
-0.06  -0.98  0.0439235919356
-0.06  -0.96  0.0518507933452
-0.06  -0.94  0.0612086728805
-0.06  -0.92  0.0722554351455
-0.06  -0.9  0.0852958847556
-0.06  -0.88  0.100689836572
-0.06  -0.86  0.11886204379
-0.06  -0.84  0.140313917818
-0.06  -0.82  0.165637363331
-0.06  -0.8  0.195531110227
-0.06  -0.78  0.230819993132
-0.06  -0.76  0.272477710415
-0.06  -0.74  0.321653690678
-0.06  -0.72  0.379704808033
-0.06  -0.7  0.448232821268
-0.06  -0.68  0.529128569907
-0.06  -0.66  0.624624146666
-0.06  -0.64  0.737354485823
-0.06  -0.62  0.870430066889
-0.06  -0.6  1.02752273962
-0.06  -0.58  1.21296703848
-0.06  -0.56  1.43187978203
-0.06  -0.54  1.69030125728
-0.06  -0.52  1.99536188459
-0.06  -0.5  2.3554789617
-0.06  -0.48  2.78058891566
-0.06  -0.46  3.28242147079
-0.06  -0.44  3.87482329777
-0.06  -0.42  4.57414007388
-0.06  -0.4  5.39966749647
-0.06  -0.38  6.37418369386
-0.06  -0.36  7.52457772441
-0.06  -0.34  8.88259150504
-0.06  -0.32  10.485695641
-0.06  -0.3  12.3781233229
-0.06  -0.28  14.612090818
-0.06  -0.26  17.249238233
-0.06  -0.24  20.3623303005
-0.06  -0.22  24.0372641196
-0.06  -0.2  21.0272238118
-0.06  -0.18  21.0316089193
-0.06  -0.16  20.9398208933
-0.06  -0.14  20.7607354299
-0.06  -0.12  20.5119866565
-0.06  -0.1  20.2187914753
-0.06  -0.08  19.9120130343
-0.06  -0.06  19.6253539327
-0.06  -0.04  19.3917012618
-0.06  -0.02  19.2389236698
-0.06  6.17561557e-16  19.1857873911
-0.06  0.02  19.2389236698
-0.06  0.04  19.3917012618
-0.06  0.06  19.6253539327
-0.06  0.08  19.9120130343
-0.06  0.1  20.2187914753
-0.06  0.12  20.5119866565
-0.06  0.14  20.7607354299
-0.06  0.16  20.9398208933
-0.06  0.18  21.0316089193
-0.06  0.2  28.3754392464
-0.06  0.22  24.0372641196
-0.06  0.24  20.3623303005
-0.06  0.26  17.249238233
-0.06  0.28  14.612090818
-0.06  0.3  12.3781233229
-0.06  0.32  10.485695641
-0.06  0.34  8.88259150503
-0.06  0.36  7.52457772441
-0.06  0.38  6.37418369386
-0.06  0.4  5.39966749646
-0.06  0.42  4.57414007388
-0.06  0.44  3.87482329776
-0.06  0.46  3.28242147079
-0.06  0.48  2.78058891566
-0.06  0.5  2.3554789617
-0.06  0.52  1.99536188459
-0.06  0.54  1.69030125728
-0.06  0.56  1.43187978203
-0.06  0.58  1.21296703848
-0.06  0.6  1.02752273962
-0.06  0.62  0.870430066889
-0.06  0.64  0.737354485823
-0.06  0.66  0.624624146666
-0.06  0.68  0.529128569907
-0.06  0.7  0.448232821267
-0.06  0.72  0.379704808033
-0.06  0.74  0.321653690678
-0.06  0.76  0.272477710415
-0.06  0.78  0.230819993132
-0.06  0.8  0.195531110227
-0.06  0.82  0.165637363331
-0.06  0.84  0.140313917818
-0.06  0.86  0.11886204379
-0.06  0.88  0.100689836572
-0.06  0.9  0.0852958847556
-0.06  0.92  0.0722554351454
-0.06  0.94  0.0612086728805
-0.06  0.96  0.0518507933452
-0.06  0.98  0.0439235919356
-0.04  -1  0.0453050031392
-0.04  -0.98  0.0534815176026
-0.04  -0.96  0.0631337054826
-0.04  -0.94  0.0745278920014
-0.04  -0.92  0.0879784679787
-0.04  -0.9  0.10385656457
-0.04  -0.88  0.122600293595
-0.04  -0.86  0.144726836015
-0.04  -0.84  0.170846712097
-0.04  -0.82  0.201680627022
-0.04  -0.8  0.238079356734
-0.04  -0.78  0.281047222728
-0.04  -0.76  0.331769803509
-0.04  -0.74  0.391646647322
-0.04  -0.72  0.462329888785
-0.04  -0.7  0.545769834941
-0.04  -0.68  0.644268778542
-0.04  -0.66  0.760544523406
-0.04  -0.64  0.897805374632
-0.04  -0.62  1.05983866284
-0.04  -0.6  1.25111524501
-0.04  -0.58  1.4769128653
-0.04  -0.56  1.74346177972
-0.04  -0.54  2.05811666263
-0.04  -0.52  2.42955953854
-0.04  -0.5  2.86803933835
-0.04  -0.48  3.38565469
-0.04  -0.46  3.99668774645
-0.04  -0.44  4.71799826185
-0.04  -0.42  5.56948878946
-0.04  -0.4  6.57465383714
-0.04  -0.38  7.76122813283
-0.04  -0.36  9.16195188705
-0.04  -0.34  10.8154741677
-0.04  -0.32  12.7674193136
-0.04  -0.3  15.0716458105
-0.04  -0.28  17.7917323665
-0.04  -0.26  21.0027321887
-0.04  -0.24  24.7932438676
-0.04  -0.22  29.2678560082
-0.04  -0.2  25.6028205087
-0.04  -0.18  25.6081598308
-0.04  -0.16  25.4963984125
-0.04  -0.14  25.2783433324
-0.04  -0.12  24.9754659647
-0.04  -0.1  24.618470497
-0.04  -0.08  24.2449360053
-0.04  -0.06  23.8958988907
-0.04  -0.04  23.6114025897
-0.04  -0.02  23.4253800648
-0.04  6.17561557e-16  23.3606811479
-0.04  0.02  23.4253800648
-0.04  0.04  23.6114025897
-0.04  0.06  23.8958988907
-0.04  0.08  24.2449360053
-0.04  0.1  24.618470497
-0.04  0.12  24.9754659647
-0.04  0.14  25.2783433324
-0.04  0.16  25.4963984125
-0.04  0.18  25.6081598308
-0.04  0.2  34.5500330611
-0.04  0.22  29.2678560082
-0.04  0.24  24.7932438676
-0.04  0.26  21.0027321887
-0.04  0.28  17.7917323665
-0.04  0.3  15.0716458105
-0.04  0.32  12.7674193136
-0.04  0.34  10.8154741677
-0.04  0.36  9.16195188704
-0.04  0.38  7.76122813283
-0.04  0.4  6.57465383714
-0.04  0.42  5.56948878946
-0.04  0.44  4.71799826185
-0.04  0.46  3.99668774645
-0.04  0.48  3.38565469
-0.04  0.5  2.86803933835
-0.04  0.52  2.42955953854
-0.04  0.54  2.05811666263
-0.04  0.56  1.74346177972
-0.04  0.58  1.4769128653
-0.04  0.6  1.25111524501
-0.04  0.62  1.05983866284
-0.04  0.64  0.897805374631
-0.04  0.66  0.760544523406
-0.04  0.68  0.644268778542
-0.04  0.7  0.545769834941
-0.04  0.72  0.462329888785
-0.04  0.74  0.391646647322
-0.04  0.76  0.331769803509
-0.04  0.78  0.281047222728
-0.04  0.8  0.238079356734
-0.04  0.82  0.201680627022
-0.04  0.84  0.170846712097
-0.04  0.86  0.144726836015
-0.04  0.88  0.122600293595
-0.04  0.9  0.10385656457
-0.04  0.92  0.0879784679787
-0.04  0.94  0.0745278920014
-0.04  0.96  0.0631337054826
-0.04  0.98  0.0534815176026
-0.02  -1  0.0551635286666
-0.02  -0.98  0.065119280984
-0.02  -0.96  0.0768718183621
-0.02  -0.94  0.0907454193138
-0.02  -0.92  0.107122887189
-0.02  -0.9  0.126456112568
-0.02  -0.88  0.149278541919
-0.02  -0.86  0.17621989657
-0.02  -0.84  0.208023548114
-0.02  -0.82  0.245567029673
-0.02  -0.8  0.289886248981
-0.02  -0.78  0.342204071369
-0.02  -0.76  0.403964061328
-0.02  -0.74  0.476870313646
-0.02  -0.72  0.562934473154
-0.02  -0.7  0.664531240459
-0.02  -0.68  0.784463895188
-0.02  -0.66  0.926041644676
-0.02  -0.64  1.09317093232
-0.02  -0.62  1.290463225
-0.02  -0.6  1.52336225364
-0.02  -0.58  1.79829421781
-0.02  -0.56  2.12284509878
-0.02  -0.54  2.50596997354
-0.02  -0.52  2.95824010518
-0.02  -0.5  3.49213462742
-0.02  -0.48  4.12238487155
-0.02  -0.46  4.86638083647
-0.02  -0.44  5.74465101717
-0.02  -0.42  6.78142883141
-0.02  -0.4  8.00532127331
-0.02  -0.38  9.45009824362
-0.02  -0.36  11.155624336
-0.02  -0.34  13.1689587894
-0.02  -0.32  15.5456539566
-0.02  -0.3  18.3512881164
-0.02  -0.28  21.6632749238
-0.02  -0.26  25.5729994236
-0.02  -0.24  30.1883395664
-0.02  -0.22  35.6366427998
-0.02  -0.2  31.1740828874
-0.02  -0.18  31.1805840645
-0.02  -0.16  31.0445029747
-0.02  -0.14  30.7789983542
-0.02  -0.12  30.4102138228
-0.02  -0.1  29.9755349053
-0.02  -0.08  29.5207180151
-0.02  -0.06  29.095729216
-0.02  -0.04  28.749325535
-0.02  -0.02  28.5228238647
-0.02  6.17561557e-16  28.4440462395
-0.02  0.02  28.5228238647
-0.02  0.04  28.749325535
-0.02  0.06  29.095729216
-0.02  0.08  29.5207180151
-0.02  0.1  29.9755349053
-0.02  0.12  30.4102138228
-0.02  0.14  30.7789983542
-0.02  0.16  31.0445029747
-0.02  0.18  31.1805840645
-0.02  0.2  42.0682398661
-0.02  0.22  35.6366427998
-0.02  0.24  30.1883395664
-0.02  0.26  25.5729994236
-0.02  0.28  21.6632749238
-0.02  0.3  18.3512881164
-0.02  0.32  15.5456539566
-0.02  0.34  13.1689587894
-0.02  0.36  11.155624336
-0.02  0.38  9.45009824362
-0.02  0.4  8.00532127331
-0.02  0.42  6.78142883141
-0.02  0.44  5.74465101717
-0.02  0.46  4.86638083647
-0.02  0.48  4.12238487155
-0.02  0.5  3.49213462742
-0.02  0.52  2.95824010518
-0.02  0.54  2.50596997354
-0.02  0.56  2.12284509878
-0.02  0.58  1.79829421781
-0.02  0.6  1.52336225364
-0.02  0.62  1.290463225
-0.02  0.64  1.09317093232
-0.02  0.66  0.926041644675
-0.02  0.68  0.784463895187
-0.02  0.7  0.664531240459
-0.02  0.72  0.562934473154
-0.02  0.74  0.476870313646
-0.02  0.76  0.403964061328
-0.02  0.78  0.342204071369
-0.02  0.8  0.289886248981
-0.02  0.82  0.245567029673
-0.02  0.84  0.208023548114
-0.02  0.86  0.17621989657
-0.02  0.88  0.149278541919
-0.02  0.9  0.126456112568
-0.02  0.92  0.107122887189
-0.02  0.94  0.0907454193137
-0.02  0.96  0.0768718183621
-0.02  0.98  0.065119280984
2.8449465e-16  -1  0.0671673034785
2.8449465e-16  -0.98  0.0792894619666
2.8449465e-16  -0.96  0.0935993921651
2.8449465e-16  -0.94  0.110491936714
2.8449465e-16  -0.92  0.130433198297
2.8449465e-16  -0.9  0.153973400449
2.8449465e-16  -0.88  0.181762069437
2.8449465e-16  -0.86  0.214565956131
2.8449465e-16  -0.84  0.253290192354
2.8449465e-16  -0.82  0.299003265474
2.8449465e-16  -0.8  0.352966500334
2.8449465e-16  -0.78  0.416668861996
2.8449465e-16  -0.76  0.491868039581
2.8449465e-16  -0.74  0.580638944802
2.8449465e-16  -0.72  0.68543096337
2.8449465e-16  -0.7  0.809135538965
2.8449465e-16  -0.68  0.955165954565
2.8449465e-16  -0.66  1.12755151248
2.8449465e-16  -0.64  1.33104871171
2.8449465e-16  -0.62  1.57127249029
2.8449465e-16  -0.6  1.85485115385
2.8449465e-16  -0.58  2.18960926523
2.8449465e-16  -0.56  2.58478354149
2.8449465e-16  -0.54  3.05127771536
2.8449465e-16  -0.52  3.60196339338
2.8449465e-16  -0.5  4.25203521198
2.8449465e-16  -0.48  5.01943009115
2.8449465e-16  -0.46  5.92532215371
2.8449465e-16  -0.44  6.99470696627
2.8449465e-16  -0.42  8.25709122218
2.8449465e-16  -0.4  9.74730689651
2.8449465e-16  -0.38  11.5064723373
2.8449465e-16  -0.36  13.5831268119
2.8449465e-16  -0.34  16.0345698124
2.8449465e-16  -0.32  18.928442076
2.8449465e-16  -0.3  22.344591942
2.8449465e-16  -0.28  26.3772785446
2.8449465e-16  -0.26  31.137772631
2.8449465e-16  -0.24  36.757426767
2.8449465e-16  -0.22  43.3912996458
2.8449465e-16  -0.2  37.9576712472
2.8449465e-16  -0.18  37.9655871029
2.8449465e-16  -0.16  37.7998942969
2.8449465e-16  -0.14  37.4766149518
2.8449465e-16  -0.12  37.0275816297
2.8449465e-16  -0.1  36.4983150749
2.8449465e-16  -0.08  35.9445284548
2.8449465e-16  -0.06  35.4270606217
2.8449465e-16  -0.04  35.0052783006
2.8449465e-16  -0.02  34.7294890826
2.8449465e-16  6.17561557e-16  34.6335691735
2.8449465e-16  0.02  34.7294890826
2.8449465e-16  0.04  35.0052783006
2.8449465e-16  0.06  35.4270606217
2.8449465e-16  0.08  35.9445284548
2.8449465e-16  0.1  36.4983150749
2.8449465e-16  0.12  37.0275816297
2.8449465e-16  0.14  37.4766149518
2.8449465e-16  0.16  37.7998942969
2.8449465e-16  0.18  37.9655871029
2.8449465e-16  0.2  51.2224344996
2.8449465e-16  0.22  43.3912996458
2.8449465e-16  0.24  36.757426767
2.8449465e-16  0.26  31.137772631
2.8449465e-16  0.28  26.3772785446
2.8449465e-16  0.3  22.344591942
2.8449465e-16  0.32  18.928442076
2.8449465e-16  0.34  16.0345698124
2.8449465e-16  0.36  13.5831268119
2.8449465e-16  0.38  11.5064723373
2.8449465e-16  0.4  9.74730689651
2.8449465e-16  0.42  8.25709122218
2.8449465e-16  0.44  6.99470696627
2.8449465e-16  0.46  5.92532215371
2.8449465e-16  0.48  5.01943009115
2.8449465e-16  0.5  4.25203521198
2.8449465e-16  0.52  3.60196339338
2.8449465e-16  0.54  3.05127771536
2.8449465e-16  0.56  2.58478354149
2.8449465e-16  0.58  2.18960926523
2.8449465e-16  0.6  1.85485115385
2.8449465e-16  0.62  1.57127249029
2.8449465e-16  0.64  1.33104871171
2.8449465e-16  0.66  1.12755151248
2.8449465e-16  0.68  0.955165954565
2.8449465e-16  0.7  0.809135538965
2.8449465e-16  0.72  0.68543096337
2.8449465e-16  0.74  0.580638944802
2.8449465e-16  0.76  0.491868039581
2.8449465e-16  0.78  0.416668861996
2.8449465e-16  0.8  0.352966500334
2.8449465e-16  0.82  0.299003265474
2.8449465e-16  0.84  0.253290192354
2.8449465e-16  0.86  0.214565956131
2.8449465e-16  0.88  0.181762069437
2.8449465e-16  0.9  0.153973400449
2.8449465e-16  0.92  0.130433198297
2.8449465e-16  0.94  0.110491936714
2.8449465e-16  0.96  0.0935993921651
2.8449465e-16  0.98  0.0792894619666
0.02  -1  0.0797628899645
0.02  -0.98  0.0941582630634
0.02  -0.96  0.111151670997
0.02  -0.94  0.131211999494
0.02  -0.92  0.154892757408
0.02  -0.9  0.182847349252
0.02  -0.88  0.215847104073
0.02  -0.86  0.254802558129
0.02  -0.84  0.300788578602
0.02  -0.82  0.355074021554
0.02  -0.8  0.419156742482
0.02  -0.78  0.49480492546
0.02  -0.76  0.584105871255
0.02  -0.74  0.68952359057
0.02  -0.72  0.813966791552
0.02  -0.7  0.960869137489
0.02  -0.68  1.13428398918
0.02  -0.66  1.33899624611
0.02  -0.64  1.58065437246
0.02  -0.62  1.86592625067
0.02  -0.6  2.20268316313
0.02  -0.58  2.60021697825
0.02  -0.56  3.06949653365
0.02  -0.54  3.62347029071
0.02  -0.52  4.27742361124
0.02  -0.5  5.04940051445
0.02  -0.48  5.96070155136
0.02  -0.46  7.03647153413
0.02  -0.44  8.3063933371
0.02  -0.42  9.80550691294
0.02  -0.4  11.5751761225
0.02  -0.38  13.6642300553
0.02  -0.36  16.130310332
0.02  -0.34  19.0414615645
0.02  -0.32  22.4780088572
0.02  -0.3  26.5347741545
0.02  -0.28  31.3236925879
0.02  -0.26  36.976901014
0.02  -0.24  43.650383963
0.02  -0.22  51.5282775967
0.02  -0.2  45.0757049667
0.02  -0.18  45.0851052477
0.02  -0.16  44.8883408047
0.02  -0.14  44.5044383179
0.02  -0.12  43.9711997687
0.02  -0.1  43.3426822047
0.02  -0.08  42.6850464361
0.02  -0.06  42.0705401556
0.02  -0.04  41.5696628667
0.02  -0.02  41.24215612
0.02  6.17561557e-16  41.1282487758
0.02  0.02  41.24215612
0.02  0.04  41.5696628667
0.02  0.06  42.0705401556
0.02  0.08  42.6850464361
0.02  0.1  43.3426822047
0.02  0.12  43.9711997687
0.02  0.14  44.5044383179
0.02  0.16  44.8883408047
0.02  0.18  45.0851052477
0.02  0.2  60.827950433
0.02  0.22  51.5282775967
0.02  0.24  43.650383963
0.02  0.26  36.976901014
0.02  0.28  31.3236925879
0.02  0.3  26.5347741545
0.02  0.32  22.4780088572
0.02  0.34  19.0414615645
0.02  0.36  16.130310332
0.02  0.38  13.6642300553
0.02  0.4  11.5751761225
0.02  0.42  9.80550691293
0.02  0.44  8.3063933371
0.02  0.46  7.03647153413
0.02  0.48  5.96070155136
0.02  0.5  5.04940051445
0.02  0.52  4.27742361124
0.02  0.54  3.62347029071
0.02  0.56  3.06949653365
0.02  0.58  2.60021697825
0.02  0.6  2.20268316313
0.02  0.62  1.86592625067
0.02  0.64  1.58065437246
0.02  0.66  1.33899624611
0.02  0.68  1.13428398918
0.02  0.7  0.960869137489
0.02  0.72  0.813966791552
0.02  0.74  0.68952359057
0.02  0.76  0.584105871255
0.02  0.78  0.49480492546
0.02  0.8  0.419156742482
0.02  0.82  0.355074021554
0.02  0.84  0.300788578602
0.02  0.86  0.254802558129
0.02  0.88  0.215847104073
0.02  0.9  0.182847349252
0.02  0.92  0.154892757408
0.02  0.94  0.131211999494
0.02  0.96  0.111151670997
0.02  0.98  0.0941582630634
0.04  -1  0.090957475806
0.04  -0.98  0.107373215017
0.04  -0.96  0.126751618829
0.04  -0.94  0.149627380286
0.04  -0.92  0.176631692266
0.04  -0.9  0.208509663493
0.04  -0.88  0.246140877734
0.04  -0.86  0.290563663461
0.04  -0.84  0.343003743634
0.04  -0.82  0.404908056104
0.04  -0.8  0.477984677839
0.04  -0.78  0.564249954537
0.04  -0.76  0.666084136075
0.04  -0.74  0.786297052863
0.04  -0.72  0.928205645286
0.04  -0.7  1.09572548543
0.04  -0.68  1.29347881638
0.04  -0.66  1.52692209014
0.04  -0.64  1.80249652319
0.04  -0.62  2.12780582395
0.04  -0.6  2.51182599588
0.04  -0.58  2.96515300529
0.04  -0.56  3.50029514753
0.04  -0.54  4.13201817847
0.04  -0.52  4.87775273444
0.04  -0.5  5.75807528203
0.04  -0.48  6.79727586833
0.04  -0.46  8.02402833711
0.04  -0.44  9.47218150358
0.04  -0.42  11.1816931181
0.04  -0.4  13.1997323891
0.04  -0.38  15.5819814855
0.04  -0.36  18.3941719315
0.04  -0.34  21.7138982844
0.04  -0.32  25.6327591403
0.04  -0.3  30.2588845421
0.04  -0.28  35.7199195263
0.04  -0.26  42.1665461327
0.04  -0.24  49.7766410545
0.04  -0.22  58.7601836507
0.04  -0.2  51.402003435
0.04  -0.18  51.4127230294
0.04  -0.16  51.1883430318
0.04  -0.14  50.7505604845
0.04  -0.12  50.1424828125
0.04  -0.1  49.4257538781
0.04  -0.08  48.6758200488
0.04  -0.06  47.9750688578
0.04  -0.04  47.4038942939
0.04  -0.02  47.0304225329
0.04  6.17561557e-16  46.9005284867
0.04  0.02  47.0304225329
0.04  0.04  47.4038942939
0.04  0.06  47.9750688578
0.04  0.08  48.6758200488
0.04  0.1  49.4257538781
0.04  0.12  50.1424828125
0.04  0.14  50.7505604845
0.04  0.16  51.1883430318
0.04  0.18  51.4127230294
0.04  0.2  69.3650497405
0.04  0.22  58.7601836507
0.04  0.24  49.7766410545
0.04  0.26  42.1665461326
0.04  0.28  35.7199195263
0.04  0.3  30.2588845421
0.04  0.32  25.6327591403
0.04  0.34  21.7138982844
0.04  0.36  18.3941719315
0.04  0.38  15.5819814855
0.04  0.4  13.1997323891
0.04  0.42  11.1816931181
0.04  0.44  9.47218150358
0.04  0.46  8.02402833711
0.04  0.48  6.79727586833
0.04  0.5  5.75807528203
0.04  0.52  4.87775273444
0.04  0.54  4.13201817847
0.04  0.56  3.50029514753
0.04  0.58  2.96515300529
0.04  0.6  2.51182599587
0.04  0.62  2.12780582395
0.04  0.64  1.80249652319
0.04  0.66  1.52692209014
0.04  0.68  1.29347881638
0.04  0.7  1.09572548543
0.04  0.72  0.928205645286
0.04  0.74  0.786297052862
0.04  0.76  0.666084136075
0.04  0.78  0.564249954537
0.04  0.8  0.477984677839
0.04  0.82  0.404908056104
0.04  0.84  0.343003743634
0.04  0.86  0.290563663461
0.04  0.88  0.246140877734
0.04  0.9  0.208509663493
0.04  0.92  0.176631692266
0.04  0.94  0.149627380286
0.04  0.96  0.126751618829
0.04  0.98  0.107373215017
0.06  -1  0.100554432947
0.06  -0.98  0.118702202915
0.06  -0.96  0.140125229329
