0.02  0.38  27.3594222382
0.02  0.4  24.1441126547
0.02  0.42  21.3066698122
0.02  0.44  18.8026863931
0.02  0.46  16.5929738769
0.02  0.48  14.6429492213
0.02  0.5  12.9220936216
0.02  0.52  11.4034748767
0.02  0.54  10.0633258875
0.02  0.56  8.88067269088
0.02  0.58  7.83700620689
0.02  0.6  6.91599256325
0.02  0.62  6.10321746242
0.02  0.64  5.38596059104
0.02  0.66  4.75299654106
0.02  0.68  4.19441912681
0.02  0.7  3.70148634854
0.02  0.72  3.26648357596
0.02  0.74  2.88260281068
0.02  0.76  2.54383613783
0.02  0.78  2.24488169933
0.02  0.8  1.98106071733
0.02  0.82  1.74824426914
0.02  0.84  1.54278866763
0.02  0.86  1.36147843581
0.02  0.88  1.20147598311
0.02  0.9  1.06027719575
0.02  0.92  0.935672246166
0.02  0.94  0.825711008171
0.02  0.96  0.728672536572
0.02  0.98  0.64303813356
0.04  -1  0.63937886847
0.04  -0.98  0.724525961375
0.04  -0.96  0.821012227011
0.04  -0.94  0.930347720904
0.04  -0.92  1.05424359506
0.04  -0.9  1.19463887829
0.04  -0.88  1.35373082295
0.04  -0.86  1.53400929294
0.04  -0.84  1.73829573127
0.04  -0.82  1.96978731697
0.04  -0.8  2.23210700245
0.04  -0.78  2.52936021441
0.04  -0.76  2.8661991057
0.04  -0.74  3.2478953637
0.04  -0.72  3.68042271472
0.04  -0.7  4.17055041563
0.04  -0.68  4.72594919595
0.04  -0.66  5.35531130829
0.04  -0.64  6.06848656633
0.04  -0.62  6.87663649892
0.04  -0.6  7.79240903336
0.04  -0.58  8.83013644138
0.04  -0.56  10.0060596459
0.04  -0.54  11.3385823993
0.04  -0.52  12.8485593106
0.04  -0.5  14.5596222301
0.04  -0.48  16.4985500987
0.04  -0.46  18.6956880514
0.04  -0.44  21.1854223325
0.04  -0.42  24.0067184568
0.04  -0.4  27.2037310382
0.04  -0.38  30.8264948302
0.04  -0.36  34.9317077934
0.04  -0.34  39.5836184453
0.04  -0.32  44.8550313797
0.04  -0.3  50.8284466934
0.04  -0.28  57.5973511508
0.04  -0.26  65.2676812968
0.04  -0.24  73.9594814127
0.04  -0.22  83.8087822664
0.04  -0.2  72.5883317668
0.04  -0.18  73.0306306347
0.04  -0.16  72.1627613713
0.04  -0.14  70.0407491004
0.04  -0.12  66.8081164645
0.04  -0.1  62.7041506776
0.04  -0.08  58.0778127411
0.04  -0.06  53.4044094735
0.04  -0.04  49.2894538466
0.04  -0.02  46.4163560766
0.04  6.17561557e-16  45.3775375017
0.04  0.02  46.4163560766
0.04  0.04  49.2894538466
0.04  0.06  53.4044094735
0.04  0.08  58.0778127411
0.04  0.1  62.7041506776
0.04  0.12  66.8081164645
0.04  0.14  70.0407491004
0.04  0.16  72.1627613713
0.04  0.18  73.0306306347
0.04  0.2  94.9697300577
0.04  0.22  83.8087822664
0.04  0.24  73.9594814127
0.04  0.26  65.2676812968
0.04  0.28  57.5973511508
0.04  0.3  50.8284466934
0.04  0.32  44.8550313797
0.04  0.34  39.5836184453
0.04  0.36  34.9317077934
0.04  0.38  30.8264948302
0.04  0.4  27.2037310382
0.04  0.42  24.0067184568
0.04  0.44  21.1854223325
0.04  0.46  18.6956880514
0.04  0.48  16.4985500987
0.04  0.5  14.5596222301
0.04  0.52  12.8485593106
0.04  0.54  11.3385823993
0.04  0.56  10.0060596459
0.04  0.58  8.83013644138
0.04  0.6  7.79240903336
0.04  0.62  6.87663649892
0.04  0.64  6.06848656633
0.04  0.66  5.35531130829
0.04  0.68  4.72594919595
0.04  0.7  4.17055041563
0.04  0.72  3.68042271472
0.04  0.74  3.24789536369
0.04  0.76  2.8661991057
0.04  0.78  2.52936021441
0.04  0.8  2.23210700245
0.04  0.82  1.96978731697
0.04  0.84  1.73829573127
0.04  0.86  1.53400929294
0.04  0.88  1.35373082295
0.04  0.9  1.19463887829
0.04  0.92  1.05424359506
0.04  0.94  0.930347720904
0.04  0.96  0.821012227011
0.04  0.98  0.724525961375
0.06  -1  0.700844058001
0.06  -0.98  0.794176567193
0.06  -0.96  0.89993831392
0.06  -0.94  1.01978451936
0.06  -0.92  1.1555908331
0.06  -0.9  1.30948268796
0.06  -0.88  1.48386856399
0.06  -0.86  1.68147768231
0.06  -0.84  1.90540271877
0.06  -0.82  2.15914820571
0.06  -0.8  2.44668537957
0.06  -0.78  2.77251433263
0.06  -0.76  3.14173444156
0.06  -0.74  3.56012417505
0.06  -0.72  4.0342315296
0.06  -0.7  4.57147650874
0.06  -0.68  5.18026724956
0.06  -0.66  5.87013161406
0.06  -0.64  6.65186630464
0.06  -0.62  7.5377058376
0.06  -0.6  8.54151401909
0.06  -0.58  9.6790009202
0.06  -0.56  10.967968747
0.06  -0.54  12.4285904533
0.06  -0.52  14.0837254573
0.06  -0.5  15.9592774017
0.06  -0.48  18.0845995583
0.06  -0.46  20.4929542204
0.06  -0.44  23.2220332735
0.06  -0.42  26.3145480907
0.06  -0.4  29.8188979864
0.06  -0.38  33.7899276879
0.06  -0.36  38.2897856813
0.06  -0.34  43.3888968648
0.06  -0.32  49.1670647314
0.06  -0.3  55.7147203312
0.06  -0.28  63.13433756
0.06  -0.26  71.5420369238
0.06  -0.24  81.06940288
0.06  -0.22  91.8655431955
0.06  -0.2  79.5664409753
0.06  -0.18  80.0512592087
0.06  -0.16  79.0999593669
0.06  -0.14  76.773952418
0.06  -0.12  73.2305582173
0.06  -0.1  68.7320672946
0.06  -0.08  63.6609871995
0.06  -0.06  58.538317258
0.06  -0.04  54.0277800128
0.06  -0.02  50.87848372
0.06  6.17561557e-16  49.7398007552
0.06  0.02  50.87848372
0.06  0.04  54.0277800128
0.06  0.06  58.538317258
0.06  0.08  63.6609871995
0.06  0.1  68.7320672946
0.06  0.12  73.2305582173
0.06  0.14  76.773952418
0.06  0.16  79.0999593669
0.06  0.18  80.0512592087
0.06  0.2  104.099422554
0.06  0.22  91.8655431955
0.06  0.24  81.06940288
0.06  0.26  71.5420369238
0.06  0.28  63.13433756
0.06  0.3  55.7147203312
0.06  0.32  49.1670647314
0.06  0.34  43.3888968648
0.06  0.36  38.2897856813
0.06  0.38  33.7899276879
0.06  0.4  29.8188979864
0.06  0.42  26.3145480907
0.06  0.44  23.2220332735
0.06  0.46  20.4929542204
0.06  0.48  18.0845995583
0.06  0.5  15.9592774017
0.06  0.52  14.0837254573
0.06  0.54  12.4285904533
0.06  0.56  10.967968747
0.06  0.58  9.6790009202
0.06  0.6  8.54151401909
0.06  0.62  7.5377058376
0.06  0.64  6.65186630464
0.06  0.66  5.87013161406
0.06  0.68  5.18026724956
0.06  0.7  4.57147650874
0.06  0.72  4.0342315296
0.06  0.74  3.56012417505
0.06  0.76  3.14173444156
0.06  0.78  2.77251433263
0.06  0.8  2.44668537957
0.06  0.82  2.15914820571
0.06  0.84  1.90540271877
0.06  0.86  1.68147768231
0.06  0.88  1.48386856399
0.06  0.9  1.30948268796
0.06  0.92  1.1555908331
0.06  0.94  1.01978451936
0.06  0.96  0.89993831392
0.06  0.98  0.794176567193
0.08  -1  0.750858937756
0.08  -0.98  0.850852007412
0.08  -0.96  0.964161311951
0.08  -0.94  1.09256019539
0.08  -0.92  1.23805816075
0.08  -0.9  1.40293231978
0.08  -0.88  1.58976303074
0.08  -0.86  1.80147428231
0.08  -0.84  2.04137945536
0.08  -0.82  2.31323317889
0.08  -0.8  2.62129009179
0.08  -0.78  2.97037142992
0.08  -0.76  3.36594048072
0.08  -0.74  3.81418808626
0.08  -0.72  4.3221295328
0.08  -0.7  4.89771434335
0.08  -0.68  5.54995069144
0.08  -0.66  6.28904638328
0.08  -0.64  7.12656861476
0.08  -0.62  8.07562500348
0.08  -0.6  9.15106872917
0.08  -0.58  10.3697309929
0.08  -0.56  11.7506844335
0.08  -0.54  13.3155416231
0.08  -0.52  15.088793314
0.08  -0.5  17.0981917309
0.08  -0.48  19.3751849061
0.08  -0.46  21.9554088556
0.08  -0.44  24.8792453003
0.08  -0.42  28.1924536583
0.08  -0.4  31.946887202
0.08  -0.38  36.2013045854
0.08  -0.36  41.0222894455
0.08  -0.34  46.4852924674
0.08  -0.32  52.6758122228
0.08  -0.3  59.6907332632
0.08  -0.28  67.6398424086
0.08  -0.26  76.6475469632
0.08  -0.24  86.8548217482
0.08  -0.22  98.4214154242
0.08  -0.2  85.2446028038
0.08  -0.18  85.7640194979
0.08  -0.16  84.7448313055
0.08  -0.14  82.252831713
0.08  -0.12  78.4565675154
0.08  -0.1  73.6370472851
0.08  -0.08  68.2040757561
0.08  -0.06  62.7158327342
0.08  -0.04  57.8834065104
0.08  -0.02  54.5093645362
0.08  6.17561557e-16  53.2894208532
0.08  0.02  54.5093645362
0.08  0.04  57.8834065104
0.08  0.06  62.7158327342
0.08  0.08  68.2040757561
0.08  0.1  73.6370472851
0.08  0.12  78.4565675154
0.08  0.14  82.252831713
0.08  0.16  84.7448313055
0.08  0.18  85.7640194979
0.08  0.2  111.528350633
0.08  0.22  98.4214154242
0.08  0.24  86.8548217482
0.08  0.26  76.6475469632
0.08  0.28  67.6398424086
0.08  0.3  59.6907332632
0.08  0.32  52.6758122228
0.08  0.34  46.4852924674
0.08  0.36  41.0222894455
0.08  0.38  36.2013045854
0.08  0.4  31.946887202
0.08  0.42  28.1924536583
0.08  0.44  24.8792453003
0.08  0.46  21.9554088556
0.08  0.48  19.3751849061
0.08  0.5  17.0981917309
0.08  0.52  15.088793314
0.08  0.54  13.3155416231
0.08  0.56  11.7506844335
0.08  0.58  10.3697309929
0.08  0.6  9.15106872917
0.08  0.62  8.07562500348
0.08  0.64  7.12656861476
0.08  0.66  6.28904638328
0.08  0.68  5.54995069144
0.08  0.7  4.89771434335
0.08  0.72  4.3221295328
0.08  0.74  3.81418808626
0.08  0.76  3.36594048072
0.08  0.78  2.97037142992
0.08  0.8  2.62129009179
0.08  0.82  2.31323317889
0.08  0.84  2.04137945536
0.08  0.86  1.80147428231
0.08  0.88  1.58976303074
0.08  0.9  1.40293231978
0.08  0.92  1.23805816075
0.08  0.94  1.09256019539
0.08  0.96  0.964161311951
0.08  0.98  0.850852007412
0.1  -1  0.788606370368
0.1  -0.98  0.893626325194
0.1  -0.96  1.01263195313
0.1  -0.94  1.14748574835
0.1  -0.92  1.30029823628
0.1  -0.9  1.47346100438
0.1  -0.88  1.66968413157
0.1  -0.86  1.89203860226
0.1  -0.84  2.14400436871
0.1  -0.82  2.42952481391
0.1  -0.8  2.75306846736
0.1  -0.78  3.11969893972
0.1  -0.76  3.53515417065
0.1  -0.74  4.00593623031
0.1  -0.72  4.53941307979
0.1  -0.7  5.14393388318
0.1  -0.68  5.82895967594
0.1  -0.66  6.60521143455
0.1  -0.64  7.48483786484
0.1  -0.62  8.48160553497
0.1  -0.6  9.61111432871
0.1  -0.58  10.891041591
0.1  -0.56  12.3414187866
0.1  -0.54  13.9849450021
0.1  -0.52  15.8473421974
0.1  -0.5  17.9577577662
0.1  -0.48  20.3492207067
0.1  -0.46  23.0591585409
0.1  -0.44  26.129983073
0.1  -0.42  29.609754154
0.1  -0.4  33.5529318412
0.1  -0.38  38.0212287237
0.1  -0.36  43.0845757534
0.1  -0.34  48.8222166974
0.1  -0.32  55.3239483403
0.1  -0.3  62.6915258464
0.1  -0.28  71.0402552756
0.1  -0.26  80.5007981778
0.1  -0.24  91.2212165078
0.1  -0.22  103.369289864
0.1  -0.2  89.5300480961
0.1  -0.18  90.0755770806
0.1  -0.16  89.0051519171
0.1  -0.14  86.3878736845
0.1  -0.12  82.4007624185
0.1  -0.1  77.3389536492
0.1  -0.08  71.6328539514
0.1  -0.06  65.8687041336
0.1  -0.04  60.7933405563
0.1  -0.02  57.2496776111
0.1  6.17561557e-16  55.9684045097
0.1  0.02  57.2496776111
0.1  0.04  60.7933405563
0.1  0.06  65.8687041336
0.1  0.08  71.6328539514
0.1  0.1  77.3389536492
0.1  0.12  82.4007624185
0.1  0.14  86.3878736845
0.1  0.16  89.0051519171
0.1  0.18  90.0755770806
0.1  0.2  117.135141321
0.1  0.22  103.369289864
0.1  0.24  91.2212165078
0.1  0.26  80.5007981778
0.1  0.28  71.0402552756
0.1  0.3  62.6915258464
0.1  0.32  55.3239483403
0.1  0.34  48.8222166974
0.1  0.36  43.0845757534
0.1  0.38  38.0212287237
0.1  0.4  33.5529318412
0.1  0.42  29.609754154
0.1  0.44  26.129983073
0.1  0.46  23.0591585409
0.1  0.48  20.3492207067
0.1  0.5  17.9577577662
0.1  0.52  15.8473421974
0.1  0.54  13.9849450021
0.1  0.56  12.3414187866
0.1  0.58  10.891041591
0.1  0.6  9.61111432871
0.1  0.62  8.48160553497
0.1  0.64  7.48483786484
0.1  0.66  6.60521143455
0.1  0.68  5.82895967594
0.1  0.7  5.14393388318
0.1  0.72  4.53941307979
0.1  0.74  4.00593623031
0.1  0.76  3.53515417065
0.1  0.78  3.11969893972
0.1  0.8  2.75306846736
0.1  0.82  2.42952481391
0.1  0.84  2.14400436871
0.1  0.86  1.89203860226
0.1  0.88  1.66968413157
0.1  0.9  1.47346100438
0.1  0.92  1.30029823628
0.1  0.94  1.14748574835
0.1  0.96  1.01263195313
0.1  0.98  0.893626325194
0.12  -1  0.813469642618
0.12  -0.98  0.921800678645
0.12  -0.96  1.04455832969
0.12  -0.94  1.18366381086
0.12  -0.92  1.34129418846
0.12  -0.9  1.51991645221
0.12  -0.88  1.7223261247
0.12  -0.86  1.9516910127
0.12  -0.84  2.21160078478
0.12  -0.82  2.50612315137
0.12  -0.8  2.8398675263
0.12  -0.78  3.21805716632
0.12  -0.76  3.6466109175
0.12  -0.74  4.13223584803
0.12  -0.72  4.68253221691
0.12  -0.7  5.30611242165
0.12  -0.68  6.0127357863
0.12  -0.66  6.81346129954
0.12  -0.64  7.72082069299
0.12  -0.62  8.74901456874
0.12  -0.6  9.9141346455
0.12  -0.58  11.2344156015
0.12  -0.56  12.730520456
0.12  -0.54  14.4258639549
0.12  -0.52  16.3469790229
0.12  -0.5  18.5239320163
0.12  -0.48  20.9907932751
0.12  -0.46  23.7861703407
0.12  -0.44  26.9538121814
0.12  -0.42  30.5432938849
0.12  -0.4  34.6107925313
0.12  -0.38  39.2199663913
0.12  -0.36  44.4429512078
0.12  -0.34  50.3614891547
0.12  -0.32  57.0682081398
0.12  -0.3  64.668071476
0.12  -0.28  73.2800206058
0.12  -0.26  83.0388365916
0.12  -0.24  94.0972495024
0.12  -0.22  106.628328712
0.12  -0.2  92.3527617387
0.12  -0.18  92.9154902237
0.12  -0.16  91.8113165728
0.12  -0.14  89.1115204913
0.12  -0.12  84.9987031232
0.12  -0.1  79.7773050655
0.12  -0.08  73.8913028008
0.12  -0.06  67.9454202053
0.12  -0.04  62.7100399821
0.12  -0.02  59.0546520244
0.12  6.17561557e-16  57.7329827974
0.12  0.02  59.0546520244
0.12  0.04  62.7100399821
0.12  0.06  67.9454202053
0.12  0.08  73.8913028008
0.12  0.1  79.7773050655
0.12  0.12  84.9987031232
0.12  0.14  89.1115204913
0.12  0.16  91.8113165728
0.12  0.18  92.9154902237
0.12  0.2  120.828191514
0.12  0.22  106.628328712
0.12  0.24  94.0972495024
0.12  0.26  83.0388365916
0.12  0.28  73.2800206058
0.12  0.3  64.668071476
0.12  0.32  57.0682081398
0.12  0.34  50.3614891547
0.12  0.36  44.4429512078
0.12  0.38  39.2199663913
0.12  0.4  34.6107925313
0.12  0.42  30.5432938849
0.12  0.44  26.9538121814
0.12  0.46  23.7861703407
0.12  0.48  20.9907932751
0.12  0.5  18.5239320163
0.12  0.52  16.3469790229
0.12  0.54  14.4258639549
0.12  0.56  12.730520456
0.12  0.58  11.2344156015
0.12  0.6  9.9141346455
0.12  0.62  8.74901456874
0.12  0.64  7.72082069299
0.12  0.66  6.81346129954
0.12  0.68  6.0127357863
0.12  0.7  5.30611242165
0.12  0.72  4.68253221691
0.12  0.74  4.13223584803
0.12  0.76  3.6466109175
0.12  0.78  3.21805716632
0.12  0.8  2.8398675263
0.12  0.82  2.50612315137
0.12  0.84  2.21160078478
0.12  0.86  1.9516910127
0.12  0.88  1.7223261247
0.12  0.9  1.51991645221
0.12  0.92  1.34129418846
0.12  0.94  1.18366381086
0.12  0.96  1.04455832969
0.12  0.98  0.921800678645
0.14  -1  0.825042541216
0.14  -0.98  0.934914758412
0.14  -0.96  1.05941883216
0.14  -0.94  1.20050330989
0.14  -0.92  1.36037623015
0.14  -0.9  1.5415396795
0.14  -0.88  1.7468289513
0.14  -0.86  1.97945691938
0.14  -0.84  2.24306432107
0.14  -0.82  2.54177673644
0.14  -0.8  2.88026915556
0.14  -0.78  3.2638391443
0.14  -0.76  3.69848975374
0.14  -0.74  4.19102347076
0.14  -0.72  4.74914868013
0.14  -0.7  5.3816003044
0.14  -0.68  6.09827650953
0.14  -0.66  6.91039361587
0.14  -0.64  7.83066163885
0.14  -0.62  8.8734832067
0.14  -0.6  10.0551789684
0.14  -0.58  11.3942430195
0.14  -0.56  12.9116323434
0.14  -0.54  14.6310947982
0.14  -0.52  16.5795407815
0.14  -0.5  18.7874643912
0.14  -0.48  21.2894206723
0.14  -0.46  24.1245664196
0.14  -0.44  27.3372730002
0.14  -0.42  30.977820786
0.14  -0.4  35.1031860656
0.14  -0.38  39.7779327495
0.14  -0.36  45.0752228266
0.14  -0.34  51.0779613827
0.14  -0.32  57.8800941051
0.14  -0.3  65.5880775764
0.14  -0.28  74.3225453705
0.14  -0.26  84.2201960244
0.14  -0.24  95.4359324351
0.14  -0.22  108.145286163
0.14  -0.2  93.6666265603
0.14  -0.18  94.2373607524
0.14  -0.16  93.1174784763
0.14  -0.14  90.3792735045
0.14  -0.12  86.2079447724
0.14  -0.1  80.9122640284
0.14  -0.08  74.9425240262
0.14  -0.06  68.9120518005
0.14  -0.04  63.6021899724
0.14  -0.02  59.8947983111
0.14  6.17561557e-16  58.5543262387
0.14  0.02  59.8947983111
0.14  0.04  63.6021899724
0.14  0.06  68.9120518005
0.14  0.08  74.9425240262
0.14  0.1  80.9122640284
0.14  0.12  86.2079447724
0.14  0.14  90.3792735045
0.14  0.16  93.1174784763
0.14  0.18  94.2373607524
0.14  0.2  122.547164583
0.14  0.22  108.145286163
0.14  0.24  95.4359324351
0.14  0.26  84.2201960244
0.14  0.28  74.3225453705
0.14  0.3  65.5880775764
0.14  0.32  57.8800941051
0.14  0.34  51.0779613827
0.14  0.36  45.0752228265
0.14  0.38  39.7779327495
0.14  0.4  35.1031860656
0.14  0.42  30.977820786
0.14  0.44  27.3372730002
0.14  0.46  24.1245664196
0.14  0.48  21.2894206723
0.14  0.5  18.7874643912
0.14  0.52  16.5795407815
0.14  0.54  14.6310947982
0.14  0.56  12.9116323434
0.14  0.58  11.3942430195
0.14  0.6  10.0551789684
0.14  0.62  8.8734832067
0.14  0.64  7.83066163885
0.14  0.66  6.91039361587
0.14  0.68  6.09827650953
0.14  0.7  5.3816003044
0.14  0.72  4.74914868013
0.14  0.74  4.19102347076
0.14  0.76  3.69848975374
0.14  0.78  3.2638391443
0.14  0.8  2.88026915556
0.14  0.82  2.54177673644
0.14  0.84  2.24306432107
0.14  0.86  1.97945691938
0.14  0.88  1.7468289513
0.14  0.9  1.5415396795
0.14  0.92  1.36037623015
0.14  0.94  1.20050330989
0.14  0.96  1.05941883216
0.14  0.98  0.934914758412
0.16  -1  0.823135989474
0.16  -0.98  0.932754308166
0.16  -0.96  1.05697067134
0.16  -0.94  1.19772912363
0.16  -0.92  1.35723260114
0.16  -0.9  1.53797740845
0.16  -0.88  1.74279228699
0.16  -0.86  1.97488268611
0.16  -0.84  2.23788092994
0.16  -0.82  2.53590306494
0.16  -0.8  2.87361327795
0.16  -0.78  3.25629689297
0.16  -0.76  3.6899430889
0.16  -0.74  4.18133863307
0.16  -0.72  4.73817409732
0.16  -0.7  5.36916421908
0.16  -0.68  6.0841842911
0.16  -0.66  6.89442471447
0.16  -0.64  7.81256613365
0.16  -0.62  8.85297789452
0.16  -0.6  10.0319429314
0.16  -0.58  11.3679126028
0.16  -0.56  12.8817954636
0.16  -0.54  14.597284494
0.16  -0.52  16.5412279057
0.16  -0.5  18.7440493293
0.16  -0.48  21.2402239581
0.16  -0.46  24.0688181014
0.16  -0.44  27.2741005905
0.16  -0.42  30.9062356068
0.16  -0.4  35.0220677751
0.16  -0.38  39.6860118083
0.16  -0.36  44.9710606285
0.16  -0.34  50.9599277403
0.16  -0.32  57.7463417363
0.16  -0.3  65.4365131936
0.16  -0.28  74.1507969196
0.16  -0.26  84.0255755613
0.16  -0.24  95.2153940578
0.16  -0.22  107.895378342
0.16  -0.2  93.4501767881
0.16  -0.18  94.0195920977
0.16  -0.16  92.9022977044
0.16  -0.14  90.1704203209
0.16  -0.12  86.0087309149
0.16  -0.1  80.7252877087
0.16  -0.08  74.769342896
0.16  -0.06  68.752806203
0.16  -0.04  63.4552146832
0.16  -0.02  59.7563902578
0.16  6.17561557e-16  58.4190158188
0.16  0.02  59.7563902578
0.16  0.04  63.4552146832
0.16  0.06  68.752806203
0.16  0.08  74.769342896
0.16  0.1  80.7252877087
0.16  0.12  86.0087309149
0.16  0.14  90.1704203209
0.16  0.16  92.9022977044
0.16  0.18  94.0195920977
0.16  0.2  122.263976143
0.16  0.22  107.895378342
0.16  0.24  95.2153940578
0.16  0.26  84.0255755613
0.16  0.28  74.1507969196
0.16  0.3  65.4365131936
0.16  0.32  57.7463417363
0.16  0.34  50.9599277403
0.16  0.36  44.9710606285
0.16  0.38  39.6860118083
0.16  0.4  35.022067775
0.16  0.42  30.9062356068
0.16  0.44  27.2741005905
0.16  0.46  24.0688181014
0.16  0.48  21.2402239581
0.16  0.5  18.7440493293
0.16  0.52  16.5412279057
0.16  0.54  14.597284494
0.16  0.56  12.8817954636
0.16  0.58  11.3679126028
0.16  0.6  10.0319429314
0.16  0.62  8.85297789452
0.16  0.64  7.81256613365
0.16  0.66  6.89442471447
0.16  0.68  6.0841842911
0.16  0.7  5.36916421908
0.16  0.72  4.73817409732
0.16  0.74  4.18133863307
0.16  0.76  3.6899430889
0.16  0.78  3.25629689297
0.16  0.8  2.87361327795
0.16  0.82  2.53590306494
0.16  0.84  2.23788092994
0.16  0.86  1.97488268611
0.16  0.88  1.74279228699
0.16  0.9  1.53797740845
0.16  0.92  1.35723260114
0.16  0.94  1.19772912363
0.16  0.96  1.05697067134
0.16  0.98  0.932754308166
0.18  -1  0.807781136415
0.18  -0.98  0.915354625094
0.18  -0.96  1.03725384502
0.18  -0.94  1.17538657643
0.18  -0.92  1.33191466167
0.18  -0.9  1.50928783903
0.18  -0.88  1.71028208233
0.18  -0.86  1.93804304619
0.18  -0.84  2.19613529704
0.18  -0.82  2.48859810023
0.18  -0.8  2.82000863644
0.18  -0.78  3.19555363675
0.18  -0.76  3.6211105574
0.18  -0.74  4.10333956472
0.18  -0.72  4.64978776996
0.18  -0.7  5.26900734502
0.18  -0.68  5.97068936806
0.18  -0.66  6.76581549343
0.18  -0.64  7.66682981969
0.18  -0.62  8.68783364565
0.18  -0.6  9.84480616233
0.18  -0.58  11.1558545349
0.18  -0.56  12.6414972881
0.18  -0.54  14.3249854312
0.18  -0.52  16.2326663471
0.18  -0.5  18.394396141
0.18  -0.48  20.8440069029
0.18  -0.46  23.6198361956
0.18  -0.44  26.7653270558
0.18  -0.42  30.3297078976
0.18  -0.4  34.368762961
0.18  -0.38  38.9457053612
0.18  -0.36  44.1321664036
0.18  -0.34  50.0093166476
0.18  -0.32  56.6691362643
0.18  -0.3  64.215854569
0.18  -0.28  72.7675812597
0.18  -0.26  82.4581548891
0.18  -0.24  93.4392375012
0.18  -0.22  105.882688214
0.18  -0.2  91.7069487538
0.18  -0.18  92.2657421387
0.18  -0.16  91.169289856
0.18  -0.14  88.4883731598
0.18  -0.12  84.4043162837
0.18  -0.1  79.219430904
0.18  -0.08  73.3745888236
0.18  -0.06  67.4702851492
0.18  -0.04  62.2715153799
0.18  -0.02  58.6416891592
0.18  6.17561557e-16  57.3292622237
0.18  0.02  58.6416891592
0.18  0.04  62.2715153799
0.18  0.06  67.4702851492
0.18  0.08  73.3745888236
0.18  0.1  79.219430904
0.18  0.12  84.4043162837
0.18  0.14  88.4883731598
0.18  0.16  91.169289856
0.18  0.18  92.2657421387
0.18  0.2  119.983252894
0.18  0.22  105.882688214
0.18  0.24  93.4392375012
0.18  0.26  82.4581548891
0.18  0.28  72.7675812597
0.18  0.3  64.215854569
0.18  0.32  56.6691362643
0.18  0.34  50.0093166476
0.18  0.36  44.1321664036
0.18  0.38  38.9457053612
0.18  0.4  34.368762961
0.18  0.42  30.3297078976
0.18  0.44  26.7653270558
0.18  0.46  23.6198361956
0.18  0.48  20.8440069029
0.18  0.5  18.394396141
0.18  0.52  16.2326663471
0.18  0.54  14.3249854312
0.18  0.56  12.6414972881
0.18  0.58  11.1558545349
0.18  0.6  9.84480616233
0.18  0.62  8.68783364564
0.18  0.64  7.66682981969
0.18  0.66  6.76581549343
0.18  0.68  5.97068936806
0.18  0.7  5.26900734502
0.18  0.72  4.64978776996
0.18  0.74  4.10333956472
0.18  0.76  3.6211105574
0.18  0.78  3.19555363675
0.18  0.8  2.82000863644
0.18  0.82  2.48859810023
0.18  0.84  2.19613529704
0.18  0.86  1.93804304619
0.18  0.88  1.71028208233
0.18  0.9  1.50928783903
0.18  0.92  1.33191466167
0.18  0.94  1.17538657643
0.18  0.96  1.03725384502
0.18  0.98  0.915354625094
0.2  -1  0.779228847866
0.2  -0.98  0.882999983221
0.2  -0.96  1.00059048443
0.2  -0.94  1.13384069825
0.2  -0.92  1.28483605333
0.2  -0.9  1.45593969813
0.2  -0.88  1.64982948532
0.2  -0.86  1.86953988144
0.2  -0.84  2.11850945773
0.2  -0.82  2.40063470539
0.2  -0.8  2.7203310175
0.2  -0.78  3.082601792
0.2  -0.76  3.49311673724
0.2  -0.74  3.95830060555
0.2  -0.72  4.4854337437
0.2  -0.7  5.08276603373
0.2  -0.68  5.75964600745
0.2  -0.66  6.52666715544
0.2  -0.64  7.39583372013
0.2  -0.62  8.38074856785
0.2  -0.6  9.49682608012
0.2  -0.58  10.761533396
0.2  -0.56  12.1946637809
0.2  -0.54  13.8186464007
0.2  -0.52  15.6588973488
0.2  -0.5  17.7442174197
0.2  -0.48  20.1072428553
0.2  -0.46  22.7849561172
0.2  -0.44  25.8192646798
0.2  -0.42  29.257656902
0.2  -0.4  33.1539452426
0.2  -0.38  37.5691084501
0.2  -0.36  42.5722459095
0.2  -0.34  48.2416590796
0.2  -0.32  54.6660769484
0.2  -0.3  61.9460446831
0.2  -0.28  70.1954972093
0.2  -0.26  79.5435423468
0.2  -0.24  90.1364814072
0.2  -0.22  102.140098879
0.2  -0.2  88.4654231168
0.2  -0.18  89.004465075
0.2  -0.16  87.9467686142
0.2  -0.14  85.3606131146
0.2  -0.12  81.4209136209
0.2  -0.1  76.41929613
0.2  -0.08  70.7810491409
0.2  -0.06  65.0854423208
0.2  -0.04  60.0704312057
0.2  -0.02  56.568906874
0.2  6.17561557e-16  55.3028697227
0.2  0.02  56.568906874
0.2  0.04  60.0704312057
0.2  0.06  65.0854423208
0.2  0.08  70.7810491409
0.2  0.1  76.41929613
0.2  0.12  81.4209136209
0.2  0.14  85.3606131146
0.2  0.16  87.9467686142
0.2  0.18  89.004465075
0.2  0.2  115.742257032
0.2  0.22  102.140098879
0.2  0.24  90.1364814071
0.2  0.26  79.5435423468
0.2  0.28  70.1954972093
0.2  0.3  61.9460446831
0.2  0.32  54.6660769484
0.2  0.34  48.2416590796
0.2  0.36  42.5722459095
0.2  0.38  37.5691084501
0.2  0.4  33.1539452426
0.2  0.42  29.257656902
0.2  0.44  25.8192646798
0.2  0.46  22.7849561172
0.2  0.48  20.1072428553
0.2  0.5  17.7442174197
0.2  0.52  15.6588973488
0.2  0.54  13.8186464007
0.2  0.56  12.1946637809
0.2  0.58  10.761533396
0.2  0.6  9.49682608012
0.2  0.62  8.38074856785
0.2  0.64  7.39583372013
0.2  0.66  6.52666715544
0.2  0.68  5.75964600745
0.2  0.7  5.08276603373
0.2  0.72  4.4854337437
0.2  0.74  3.95830060555
0.2  0.76  3.49311673724
0.2  0.78  3.082601792
0.2  0.8  2.7203310175
0.2  0.82  2.40063470539
0.2  0.84  2.11850945773
0.2  0.86  1.86953988144
0.2  0.88  1.64982948532
0.2  0.9  1.45593969813
0.2  0.92  1.28483605333
0.2  0.94  1.13384069825
0.2  0.96  1.00059048443
0.2  0.98  0.882999983221
0.22  -1  0.73794560784
0.22  -0.98  0.836218988973
0.22  -0.96  0.947579591354
0.22  -0.94  1.07377026089
0.22  -0.92  1.21676594103
0.22  -0.9  1.37880458155
0.22  -0.88  1.56242216354
0.22  -0.86  1.77049238868
0.22  -0.84  2.00627165406
0.22  -0.82  2.27345001629
0.22  -0.8  2.57620894264
0.22  -0.78  2.919286753
0.22  -0.76  3.30805277676
0.22  -0.74  3.74859138541
0.22  -0.72  4.24779721579
0.22  -0.7  4.81348307437
0.22  -0.68  5.45450221145
0.22  -0.66  6.18088687859
0.22  -0.64  7.00400533814
0.22  -0.62  7.9367397819
0.22  -0.6  8.99368794346
0.22  -0.58  10.1913915596
0.22  -0.56  11.5485952565
0.22  -0.54  13.0865399114
0.22  -0.52  14.829295083
0.22  -0.5  16.804135711
0.22  -0.48  19.0419689819
0.22  -0.46  21.5778180409
0.22  -0.44  24.451370121
0.22  -0.42  27.7075976662
0.22  -0.4  31.3974621722
0.22  -0.38  35.5787117574
0.22  -0.36  40.3167849481
0.22  -0.34  45.6858348228
0.22  -0.32  51.769889542
0.22  -0.3  58.6641674293
0.22  -0.28  66.4765671826
0.22  -0.26  75.3293565396
0.22  -0.24  85.3610858257
0.22  -0.22  96.7287563317
0.22  -0.2  83.778559551
0.22  -0.18  84.2890432767
0.22  -0.16  83.2873831614
0.22  -0.14  80.8382411701
0.22  -0.12  77.1072654169
0.22  -0.1  72.3706316672
0.22  -0.08  67.0310968015
0.22  -0.06  61.6372410063
0.22  -0.04  56.8879232215
0.22  -0.02  53.5719082813
0.22  6.17561557e-16  52.3729452838
0.22  0.02  53.5719082813
0.22  0.04  56.8879232215
0.22  0.06  61.6372410063
0.22  0.08  67.0310968015
0.22  0.1  72.3706316672
0.22  0.12  77.1072654169
0.22  0.14  80.8382411701
0.22  0.16  83.2873831614
0.22  0.18  84.2890432767
0.22  0.2  109.610277458
0.22  0.22  96.7287563317
0.22  0.24  85.3610858257
0.22  0.26  75.3293565396
0.22  0.28  66.4765671826
0.22  0.3  58.6641674293
0.22  0.32  51.769889542
0.22  0.34  45.6858348228
0.22  0.36  40.3167849481
0.22  0.38  35.5787117574
0.22  0.4  31.3974621722
0.22  0.42  27.7075976662
0.22  0.44  24.451370121
0.22  0.46  21.5778180409
0.22  0.48  19.0419689819
0.22  0.5  16.804135711
0.22  0.52  14.829295083
0.22  0.54  13.0865399114
0.22  0.56  11.5485952565
0.22  0.58  10.1913915596
0.22  0.6  8.99368794346
0.22  0.62  7.9367397819
0.22  0.64  7.00400533814
0.22  0.66  6.18088687858
0.22  0.68  5.45450221145
0.22  0.7  4.81348307437
0.22  0.72  4.24779721579
0.22  0.74  3.74859138541
0.22  0.76  3.30805277676
0.22  0.78  2.919286753
0.22  0.8  2.57620894264
0.22  0.82  2.27345001629
0.22  0.84  2.00627165406
0.22  0.86  1.77049238868
0.22  0.88  1.56242216354
0.22  0.9  1.37880458155
0.22  0.92  1.21676594103
0.22  0.94  1.07377026089
0.22  0.96  0.947579591354
0.22  0.98  0.836218988973
0.24  -1  0.684605897174
0.24  -0.98  0.775775944863
0.24  -0.96  0.879087251677
0.24  -0.94  0.996156688253
0.24  -0.92  1.12881644644
0.24  -0.9  1.27914271398
0.24  -0.88  1.44948816779
0.24  -0.86  1.6425187945
0.24  -0.84  1.86125561439
0.24  -0.82  2.10912196176
0.24  -0.8  2.38999706177
0.24  -0.78  2.7082767421
0.24  -0.76  3.06894222972
0.24  -0.74  3.47763810949
0.24  -0.72  3.94076066452
0.24  -0.7  4.46555798104
0.24  -0.68  5.06024338438
0.24  -0.66  5.73412398135
0.24  -0.64  6.49774632085
0.24  -0.62  7.36306145236
0.24  -0.6  8.34361196547
0.24  -0.58  9.45474393779
0.24  -0.56  10.7138471083
0.24  -0.54  12.140627035
0.24  -0.52  13.7574134962
0.24  -0.5  15.5895099618
0.24  -0.48  17.6655896049
0.24  -0.46  20.0181440502
0.24  -0.44  22.6839918836
0.24  -0.42  25.7048548799
0.24  -0.4  29.1280109686
0.24  -0.38  33.0070341556
0.24  -0.36  37.4026329818
0.24  -0.34  42.3836006404
0.24  -0.32  48.0278916223
0.24  -0.3  54.4238417415
0.24  -0.28  61.6715506314
0.24  -0.26  69.8844483516
0.24  -0.24  79.1910706218
0.24  -0.22  89.7370704663
0.24  -0.2  77.7229314953
0.24  -0.18  78.1965167641
0.24  -0.16  77.2672580021
0.24  -0.14  74.9951433199
0.24  -0.12  71.5338475608
0.24  -0.1  67.1395841309
0.24  -0.08  62.1859980964
0.24  -0.06  57.1820175229
0.24  -0.04  52.7759868771
0.24  -0.02  49.699658
0.24  6.17561557e-16  48.5873576762
0.24  0.02  49.699658
0.24  0.04  52.7759868771
0.24  0.06  57.1820175229
0.24  0.08  62.1859980964
0.24  0.1  67.1395841309
0.24  0.12  71.5338475608
0.24  0.14  74.9951433199
0.24  0.16  77.2672580021
0.24  0.18  78.1965167641
0.24  0.2  101.687497753
0.24  0.22  89.7370704663
0.24  0.24  79.1910706218
0.24  0.26  69.8844483516
0.24  0.28  61.6715506314
0.24  0.3  54.4238417415
0.24  0.32  48.0278916223
0.24  0.34  42.3836006404
0.24  0.36  37.4026329818
0.24  0.38  33.0070341556
0.24  0.4  29.1280109686
0.24  0.42  25.7048548799
0.24  0.44  22.6839918836
0.24  0.46  20.0181440502
0.24  0.48  17.6655896049
0.24  0.5  15.5895099618
0.24  0.52  13.7574134962
0.24  0.54  12.140627035
0.24  0.56  10.7138471083
0.24  0.58  9.45474393779
0.24  0.6  8.34361196547
0.24  0.62  7.36306145236
0.24  0.64  6.49774632085
0.24  0.66  5.73412398135
0.24  0.68  5.06024338438
0.24  0.7  4.46555798104
0.24  0.72  3.94076066452
0.24  0.74  3.47763810949
0.24  0.76  3.06894222972
0.24  0.78  2.7082767421
0.24  0.8  2.38999706177
0.24  0.82  2.10912196176
0.24  0.84  1.86125561439
0.24  0.86  1.6425187945
0.24  0.88  1.44948816779
0.24  0.9  1.27914271398
0.24  0.92  1.12881644644
0.24  0.94  0.996156688253
0.24  0.96  0.879087251677
0.24  0.98  0.775775944863
0.26  -1  0.620081173939
0.26  -0.98  0.70265836241
0.26  -0.96  0.796232485383
0.26  -0.94  0.90226802198
0.26  -0.92  1.02242447832
0.26  -0.9  1.15858235956
0.26  -0.88  1.31287260072
0.26  -0.86  1.48770991678
0.26  -0.84  1.68583059412
0.26  -0.82  1.91033531471
0.26  -0.8  2.16473768323
0.26  -0.78  2.45301921664
0.26  -0.76  2.77969165678
0.26  -0.74  3.14986758129
0.26  -0.72  3.56934041783
0.26  -0.7  4.04467511397
0.26  -0.68  4.58331088172
0.26  -0.66  5.19367762467
0.26  -0.64  5.88532786998
0.26  -0.62  6.66908626994
0.26  -0.6  7.55721901286
0.26  -0.58  8.5636257947
0.26  -0.56  9.70405735586
0.26  -0.54  10.9963619877
0.26  -0.52  12.4607648668
0.26  -0.5  14.1201845881
0.26  -0.48  16.0005918525
0.26  -0.46  18.1314159197
0.26  -0.44  20.5460051906
0.26  -0.42  23.282149125
0.26  -0.4  26.3826696651
0.26  -0.38  29.8960914184
0.26  -0.36  33.877401091
0.26  -0.34  38.3889080555
0.26  -0.32  43.501219522
0.26  -0.3  49.2943455741
0.26  -0.28  55.8589513646
0.26  -0.26  63.2977760677
0.26  -0.24  71.7272407956
0.26  -0.22  81.2792706436
0.26  -0.2  70.3974751058
0.26  -0.18  70.8264245359
0.26  -0.16  69.9847492503
0.26  -0.14  67.9267834261
0.26  -0.12  64.7917179139
0.26  -0.1  60.8116177753
0.26  -0.08  56.3249116921
0.26  -0.06  51.7925608006
0.26  -0.04  47.8018025168
0.26  -0.02  45.0154204108
0.26  6.17561557e-16  44.0079553956
0.26  0.02  45.0154204108
0.26  0.04  47.8018025168
0.26  0.06  51.7925608006
0.26  0.08  56.3249116921
0.26  0.1  60.8116177753
0.26  0.12  64.7917179139
0.26  0.14  67.9267834261
0.26  0.16  69.9847492503
0.26  0.18  70.8264245359
0.26  0.2  92.1033593804
0.26  0.22  81.2792706436
0.26  0.24  71.7272407956
0.26  0.26  63.2977760677
0.26  0.28  55.8589513646
0.26  0.3  49.2943455741
0.26  0.32  43.501219522
0.26  0.34  38.3889080555
0.26  0.36  33.8774010909
0.26  0.38  29.8960914184
0.26  0.4  26.3826696651
0.26  0.42  23.282149125
0.26  0.44  20.5460051906
0.26  0.46  18.1314159197
0.26  0.48  16.0005918525
0.26  0.5  14.1201845881
0.26  0.52  12.4607648668
0.26  0.54  10.9963619877
0.26  0.56  9.70405735586
0.26  0.58  8.5636257947
0.26  0.6  7.55721901286
0.26  0.62  6.66908626994
0.26  0.64  5.88532786998
0.26  0.66  5.19367762467
0.26  0.68  4.58331088172
0.26  0.7  4.04467511397
0.26  0.72  3.56934041783
0.26  0.74  3.14986758129
0.26  0.76  2.77969165678
0.26  0.78  2.45301921664
0.26  0.8  2.16473768323
0.26  0.82  1.91033531471
0.26  0.84  1.68583059412
0.26  0.86  1.48770991678
0.26  0.88  1.31287260072
0.26  0.9  1.15858235956
0.26  0.92  1.02242447832
0.26  0.94  0.90226802198
0.26  0.96  0.796232485383
0.26  0.98  0.70265836241
0.28  -1  0.545425635657
0.28  -0.98  0.618060828283
0.28  -0.96  0.700368964135
0.28  -0.94  0.793638204326
0.28  -0.92  0.899328256421
0.28  -0.9  1.01909321954
0.28  -0.88  1.1548074718
0.28  -0.86  1.30859500519
0.28  -0.84  1.4828626671
0.28  -0.82  1.68033782856
0.28  -0.8  1.90411106889
0.28  -0.78  2.15768454477
0.28  -0.76  2.4450268006
0.28  -0.74  2.77063487808
0.28  -0.72  3.13960469708
0.28  -0.7  3.55771080914
0.28  -0.68  4.03149677194
0.28  -0.66  4.56837755908
0.28  -0.64  5.17675560789
0.28  -0.62  5.86615232152
0.28  -0.6  6.64735708344
0.28  -0.58  7.5325961163
0.28  -0.56  8.53572382814
0.28  -0.54  9.67243964039
0.28  -0.52  10.9605336912
0.28  -0.5  12.4201652594
0.28  -0.48  14.074178267
0.28  -0.46  15.948458797
0.28  -0.44  18.072340223
0.28  -0.42  20.4790622901
0.28  -0.4  23.2062913328
0.28  -0.38  26.296709771
0.28  -0.36  29.7986841095
0.28  -0.34  33.767021897
0.28  -0.32  38.2638294901
0.28  -0.3  43.3594840467
0.28  -0.28  49.1337349619
0.28  -0.26  55.6769519837
0.28  -0.24  63.091539542
0.28  -0.22  71.4935394263
0.28  -0.2  61.9218728482
0.28  -0.18  62.2991783131
0.28  -0.16  61.5588376981
0.28  -0.14  59.7486435412
0.28  -0.12  56.9910286165
0.28  -0.1  53.4901181885
0.28  -0.08  49.5435953455
0.28  -0.06  45.5569231646
0.28  -0.04  42.0466377937
0.28  -0.02  39.5957260498
0.28  6.17561557e-16  38.7095561911
0.28  0.02  39.5957260498
0.28  0.04  42.0466377937
0.28  0.06  45.5569231646
0.28  0.08  49.5435953455
0.28  0.1  53.4901181885
0.28  0.12  56.9910286165
0.28  0.14  59.7486435412
0.28  0.16  61.5588376981
0.28  0.18  62.2991783131
0.28  0.2  81.0144468942
0.28  0.22  71.4935394263
0.28  0.24  63.091539542
0.28  0.26  55.6769519837
0.28  0.28  49.1337349619
0.28  0.3  43.3594840467
0.28  0.32  38.2638294901
0.28  0.34  33.767021897
0.28  0.36  29.7986841095
0.28  0.38  26.296709771
0.28  0.4  23.2062913328
0.28  0.42  20.47906229
0.28  0.44  18.072340223
0.28  0.46  15.948458797
0.28  0.48  14.074178267
0.28  0.5  12.4201652594
0.28  0.52  10.9605336912
0.28  0.54  9.67243964039
0.28  0.56  8.53572382814
0.28  0.58  7.5325961163
0.28  0.6  6.64735708344
0.28  0.62  5.86615232152
0.28  0.64  5.17675560789
0.28  0.66  4.56837755908
0.28  0.68  4.03149677194
0.28  0.7  3.55771080914
0.28  0.72  3.13960469708
0.28  0.74  2.77063487808
0.28  0.76  2.4450268006
0.28  0.78  2.15768454477
0.28  0.8  1.90411106889
0.28  0.82  1.68033782856
0.28  0.84  1.4828626671
0.28  0.86  1.30859500519
0.28  0.88  1.1548074718
0.28  0.9  1.01909321954
0.28  0.92  0.899328256421
0.28  0.94  0.793638204326
0.28  0.96  0.700368964135
0.28  0.98  0.618060828283
0.3  -1  0.461858995944
0.3  -0.98  0.523365487284
0.3  -0.96  0.593062895138
0.3  -0.94  0.672042016784
0.3  -0.92  0.761538912695
0.3  -0.9  0.862954251467
0.3  -0.88  0.977875230946
0.3  -0.86  1.10810041862
0.3  -0.84  1.25566790003
0.3  -0.82  1.42288717583
0.3  -0.8  1.61237530646
0.3  -0.78  1.82709787048
0.3  -0.76  2.07041537719
0.3  -0.74  2.34613586026
0.3  -0.72  2.65857447515
0.3  -0.7  3.01262103345
0.3  -0.68  3.41381653063
0.3  -0.66  3.86843986529
0.3  -0.64  4.38360610686
0.3  -0.62  4.96737784979
0.3  -0.6  5.62889139696
0.3  -0.58  6.37849974714
0.3  -0.56  7.22793462424
0.3  -0.54  8.19049008441
0.3  -0.52  9.2812305742
0.3  -0.5  10.5172266963
0.3  -0.48  11.9178223725
0.3  -0.46  13.5049375851
0.3  -0.44  15.3034114351
0.3  -0.42  17.341390886
0.3  -0.4  19.6507712763
0.3  -0.38  22.2676954977
0.3  -0.36  25.2331196473
0.3  -0.34  28.5934540106
0.3  -0.32  32.4012894039
0.3  -0.3  36.7162202457
0.3  -0.28  41.6057772369
0.3  -0.26  47.1464842488
0.3  -0.24  53.4250559571
0.3  -0.22  60.5397549679
0.3  -0.2  52.4345981394
0.3  -0.18  52.7540952656
0.3  -0.16  52.1271849213
0.3  -0.14  50.5943371761
0.3  -0.12  48.2592264349
0.3  -0.1  45.2947031902
0.3  -0.08  41.9528414247
0.3  -0.06  38.576981747
0.3  -0.04  35.6045199284
0.3  -0.02  33.5291212614
0.3  6.17561557e-16  32.7787247006
0.3  0.02  33.5291212614
0.3  0.04  35.6045199284
0.3  0.06  38.576981747
0.3  0.08  41.9528414247
0.3  0.1  45.2947031902
0.3  0.12  48.2592264349
0.3  0.14  50.5943371761
0.3  0.16  52.1271849213
0.3  0.18  52.7540952656
0.3  0.2  68.6019296735
0.3  0.22  60.5397549679
0.3  0.24  53.4250559571
0.3  0.26  47.1464842488
0.3  0.28  41.6057772369
0.3  0.3  36.7162202457
0.3  0.32  32.4012894039
0.3  0.34  28.5934540106
0.3  0.36  25.2331196473
0.3  0.38  22.2676954977
0.3  0.4  19.6507712763
0.3  0.42  17.341390886
0.3  0.44  15.3034114351
0.3  0.46  13.5049375851
0.3  0.48  11.9178223725
0.3  0.5  10.5172266963
0.3  0.52  9.2812305742
0.3  0.54  8.19049008441
0.3  0.56  7.22793462424
0.3  0.58  6.37849974714
0.3  0.6  5.62889139696
0.3  0.62  4.96737784979
0.3  0.64  4.38360610686
0.3  0.66  3.86843986529
0.3  0.68  3.41381653063
0.3  0.7  3.01262103345
0.3  0.72  2.65857447515
0.3  0.74  2.34613586026
0.3  0.76  2.07041537719
0.3  0.78  1.82709787048
0.3  0.8  1.61237530646
0.3  0.82  1.42288717583
0.3  0.84  1.25566790003
0.3  0.86  1.10810041862
0.3  0.88  0.977875230946
0.3  0.9  0.862954251467
0.3  0.92  0.761538912695
0.3  0.94  0.672042016784
0.3  0.96  0.593062895138
0.3  0.98  0.523365487284
0.32  -1  0.382083315283
0.32  -0.98  0.432965953337
0.32  -0.96  0.490624712598
0.32  -0.94  0.555961979819
0.32  -0.92  0.630000314024
0.32  -0.9  0.713898450034
0.32  -0.88  0.808969433213
0.32  -0.86  0.916701169252
0.32  -0.84  1.03877971059
0.32  -0.82  1.17711564393
0.32  -0.8  1.33387399181
0.32  -0.78  1.51150809626
0.32  -0.76  1.71279801472
0.32  -0.74  1.94089402927
0.32  -0.72  2.19936595003
0.32  -0.7  2.49225898437
0.32  -0.68  2.8241570463
0.32  -0.66  3.2002544969
0.32  -0.64  3.62643743851
0.32  -0.62  4.10937583501
0.32  -0.6  4.65662789988
0.32  -0.58  5.27675838583
0.32  -0.56  5.97947262722
0.32  -0.54  6.77576843307
0.32  -0.52  7.678108208
0.32  -0.5  8.70061399473
0.32  -0.48  9.85928849067
0.32  -0.46  11.1722654977
0.32  -0.44  12.6600937248
0.32  -0.42  14.3460583847
0.32  -0.4  16.2565456191
0.32  -0.38  18.4214554533
0.32  -0.36  20.8746697465
0.32  -0.34  23.6545824585
0.32  -0.32  26.8047005334
0.32  -0.3  30.3743248033
0.32  -0.28  34.4193215705
0.32  -0.26  39.0029969405
0.32  -0.24  44.1970875929
0.32  -0.22  50.0828834941
0.32  -0.2  43.3777089298
0.32  -0.18  43.6420201639
0.32  -0.16  43.1233943823
0.32  -0.14  41.8553113668
0.32  -0.12  39.923538117
0.32  -0.1  37.4710691178
0.32  -0.08  34.7064382807
0.32  -0.06  31.9136819007
0.32  -0.04  29.4546455363
0.32  -0.02  27.7377249823
0.32  6.17561557e-16  27.1169424312
0.32  0.02  27.7377249823
0.32  0.04  29.4546455363
0.32  0.06  31.9136819007
0.32  0.08  34.7064382807
0.32  0.1  37.4710691178
0.32  0.12  39.923538117
0.32  0.14  41.8553113668
0.32  0.16  43.1233943823
0.32  0.18  43.6420201639
0.32  0.2  56.7525001238
0.32  0.22  50.0828834941
0.32  0.24  44.1970875929
0.32  0.26  39.0029969405
0.32  0.28  34.4193215705
0.32  0.3  30.3743248033
0.32  0.32  26.8047005333
0.32  0.34  23.6545824585
0.32  0.36  20.8746697465
0.32  0.38  18.4214554533
0.32  0.4  16.2565456191
0.32  0.42  14.3460583847
0.32  0.44  12.6600937248
0.32  0.46  11.1722654977
0.32  0.48  9.85928849067
0.32  0.5  8.70061399473
0.32  0.52  7.678108208
0.32  0.54  6.77576843307
0.32  0.56  5.97947262722
0.32  0.58  5.27675838583
0.32  0.6  4.65662789988
0.32  0.62  4.10937583501
0.32  0.64  3.62643743851
0.32  0.66  3.2002544969
0.32  0.68  2.8241570463
0.32  0.7  2.49225898437
0.32  0.72  2.19936595003
0.32  0.74  1.94089402927
0.32  0.76  1.71279801472
0.32  0.78  1.51150809626
0.32  0.8  1.33387399181
0.32  0.82  1.17711564393
0.32  0.84  1.03877971059
0.32  0.86  0.916701169252
0.32  0.88  0.808969433213
0.32  0.9  0.713898450034
0.32  0.92  0.630000314024
0.32  0.94  0.555961979819
0.32  0.96  0.490624712598
0.32  0.98  0.432965953337
0.34  -1  0.316087076575
0.34  -0.98  0.358180891373
0.34  -0.96  0.405880405915
0.34  -0.94  0.459932140083
0.34  -0.92  0.521182028987
0.34  -0.9  0.590588662254
0.34  -0.88  0.669238286402
0.34  -0.86  0.758361805114
0.34  -0.84  0.859354043456
0.34  -0.82  0.973795577552
0.34  -0.8  1.10347747134
0.34  -0.78  1.25042930758
0.34  -0.76  1.41695095174
0.34  -0.74  1.60564854605
0.34  -0.72  1.81947529677
0.34  -0.7  2.06177769331
0.34  -0.68  2.33634788238
0.34  -0.66  2.64748301682
0.34  -0.64  3.00005250811
0.34  -0.62  3.39957423494
0.34  -0.6  3.8523009006
0.34  -0.58  4.36531789077
0.34  -0.56  4.9466541631
0.34  -0.54  5.60540790422
0.34  -0.52  6.3518889206
0.34  -0.5  7.19777999195
0.34  -0.48  8.15631971215
0.34  -0.46  9.24250967953
0.34  -0.44  10.473349279
0.34  -0.42  11.8681017302
0.34  -0.4  13.4485955665
0.34  -0.38  15.239566261
0.34  -0.36  17.2690433492
0.34  -0.34  19.568789104
0.34  -0.32  22.1747956301
0.34  -0.3  25.1278481577
0.34  -0.28  28.4741633506
0.34  -0.26  32.2661126185
0.34  -0.24  36.5630417544
0.34  -0.22  41.4321997242
0.34  -0.2  35.8851921968
0.34  -0.18  36.1038496518
0.34  -0.16  35.6748047273
0.34  -0.14  34.6257543313
0.34  -0.12  33.0276511566
0.34  -0.1  30.9987906298
0.34  -0.08  28.7116871522
0.34  -0.06  26.4013161822
0.34  -0.04  24.3670226538
0.34  -0.02  22.946661238
0.34  6.17561557e-16  22.4331048122
0.34  0.02  22.946661238
0.34  0.04  24.3670226538
0.34  0.06  26.4013161822
0.34  0.08  28.7116871522
0.34  0.1  30.9987906298
0.34  0.12  33.0276511566
0.34  0.14  34.6257543313
0.34  0.16  35.6748047273
0.34  0.18  36.1038496518
0.34  0.2  46.9497911448
0.34  0.22  41.4321997242
0.34  0.24  36.5630417544
0.34  0.26  32.2661126185
0.34  0.28  28.4741633506
0.34  0.3  25.1278481577
0.34  0.32  22.17479563
0.34  0.34  19.568789104
0.34  0.36  17.2690433492
0.34  0.38  15.239566261
0.34  0.4  13.4485955665
0.34  0.42  11.8681017302
0.34  0.44  10.473349279
0.34  0.46  9.24250967953
0.34  0.48  8.15631971215
0.34  0.5  7.19777999195
0.34  0.52  6.3518889206
0.34  0.54  5.60540790422
0.34  0.56  4.9466541631
0.34  0.58  4.36531789077
0.34  0.6  3.8523009006
0.34  0.62  3.39957423494
0.34  0.64  3.00005250811
0.34  0.66  2.64748301682
0.34  0.68  2.33634788238
0.34  0.7  2.06177769331
0.34  0.72  1.81947529677
0.34  0.74  1.60564854605
0.34  0.76  1.41695095174
0.34  0.78  1.25042930758
0.34  0.8  1.10347747134
0.34  0.82  0.973795577552
0.34  0.84  0.859354043456
0.34  0.86  0.758361805113
0.34  0.88  0.669238286402
0.34  0.9  0.590588662254
0.34  0.92  0.521182028987
0.34  0.94  0.459932140082
0.34  0.96  0.405880405915
0.34  0.98  0.358180891373
0.36  -1  0.26149019332
0.36  -0.98  0.296313255017
0.36  -0.96  0.335773758793
0.36  -0.94  0.38048928013
0.36  -0.92  0.431159638007
0.36  -0.9  0.488577847404
0.36  -0.88  0.553642530358
0.36  -0.86  0.627371979818
0.36  -0.84  0.710920096413
0.36  -0.82  0.805594447541
0.36  -0.8  0.912876731412
0.36  -0.78  1.03444596633
0.36  -0.76  1.1722047681
0.36  -0.74  1.3283091269
0.36  -0.72  1.50520214951
0.36  -0.7  1.70565229509
0.36  -0.68  1.93279670288
0.36  -0.66  2.19019028991
0.36  -0.64  2.48186138711
0.36  -0.62  2.8123747846
0.36  -0.6  3.18690317282
0.36  -0.58  3.61130809753
0.36  -0.56  4.09223169581
0.36  -0.54  4.63720064861
0.36  -0.52  5.25474397686
0.36  -0.5  5.95452652466
0.36  -0.48  6.74750021867
0.36  -0.46  7.64607547088
0.36  -0.44  8.66431540746
0.36  -0.42  9.81815596325
0.36  -0.4  11.1256552867
0.36  -0.38  12.6072763584
0.36  -0.36  14.2862072463
0.36  -0.34  16.1887240101
0.36  -0.32  18.3446019336
0.36  -0.3  20.7875815224
0.36  -0.28  23.5558965582
0.36  -0.26  26.6928724759
0.36  -0.24  30.247604427
0.36  -0.22  34.2757256417
0.36  -0.2  29.6868380275
0.36  -0.18  29.8677273596
0.36  -0.16  29.5127902282
0.36  -0.14  28.6449395276
0.36  -0.12  27.3228724801
0.36  -0.1  25.6444516565
0.36  -0.08  23.7523935028
0.36  -0.06  21.8410867891
0.36  -0.04  20.1581713919
0.36  -0.02  18.9831452402
0.36  6.17561557e-16  18.5582940551
0.36  0.02  18.9831452402
0.36  0.04  20.1581713919
0.36  0.06  21.8410867891
0.36  0.08  23.7523935028
0.36  0.1  25.6444516565
0.36  0.12  27.3228724801
0.36  0.14  28.6449395276
0.36  0.16  29.5127902282
0.36  0.18  29.8677273596
0.36  0.2  38.8402781152
0.36  0.22  34.2757256417
0.36  0.24  30.247604427
0.36  0.26  26.6928724759
0.36  0.28  23.5558965582
0.36  0.3  20.7875815224
0.36  0.32  18.3446019336
0.36  0.34  16.1887240101
0.36  0.36  14.2862072463
0.36  0.38  12.6072763584
0.36  0.4  11.1256552867
0.36  0.42  9.81815596325
0.36  0.44  8.66431540746
0.36  0.46  7.64607547088
0.36  0.48  6.74750021867
0.36  0.5  5.95452652466
0.36  0.52  5.25474397686
0.36  0.54  4.63720064861
0.36  0.56  4.09223169581
0.36  0.58  3.61130809753
0.36  0.6  3.18690317282
0.36  0.62  2.8123747846
0.36  0.64  2.48186138711
0.36  0.66  2.19019028991
0.36  0.68  1.93279670288
0.36  0.7  1.70565229509
0.36  0.72  1.50520214951
0.36  0.74  1.3283091269
0.36  0.76  1.1722047681
0.36  0.78  1.03444596633
0.36  0.8  0.912876731412
0.36  0.82  0.805594447541
0.36  0.84  0.710920096413
0.36  0.86  0.627371979818
0.36  0.88  0.553642530358
0.36  0.9  0.488577847404
0.36  0.92  0.431159638007
0.36  0.94  0.380489280129
0.36  0.96  0.335773758793
0.36  0.98  0.296313255017
0.38  -1  0.216323685054
0.38  -0.98  0.245131851568
0.38  -0.96  0.277776447079
0.38  -0.94  0.31476837489
0.38  -0.92  0.356686576104
0.38  -0.9  0.404187090323
0.38  -0.88  0.458013322981
0.38  -0.86  0.519007679984
0.38  -0.84  0.588124751763
0.38  -0.82  0.666446253063
0.38  -0.8  0.755197952288
0.38  -0.78  0.855768855357
0.38  -0.76  0.969732944296
0.38  -0.74  1.0988738108
0.38  -0.72  1.2452125703
0.38  -0.7  1.41103949333
0.38  -0.68  1.59894984939
0.38  -0.66  1.8118845241
0.38  -0.64  2.05317604548
0.38  -0.62  2.32660073953
0.38  -0.6  2.63643783157
0.38  -0.58  2.98753641811
0.38  -0.56  3.38539135748
0.38  -0.54  3.83622926697
0.38  -0.52  4.34710597233
0.38  -0.5  4.92601693475
0.38  -0.48  5.5820223836
0.38  -0.46  6.32538911329
0.38  -0.44  7.16775116348
0.38  -0.42  8.1222918972
0.38  -0.4  9.20395032678
0.38  -0.38  10.4296549164
0.38  -0.36  11.8185885204
0.38  -0.34  13.3924886043
0.38  -0.32  15.1759874462
0.38  -0.3  17.1969976433
0.38  -0.28  19.4871489577
0.38  -0.26  22.0822833367
0.38  -0.24  25.0230158562
0.38  -0.22  28.3553703661
0.38  -0.2  24.5591091512
0.38  -0.18  24.7087539482
0.38  -0.16  24.4151241671
0.38  -0.14  23.6971750186
0.38  -0.12  22.6034651093
0.38  -0.1  21.2149534676
0.38  -0.08  19.6497055057
0.38  -0.06  18.0685337366
0.38  -0.04  16.6763038571
0.38  -0.02  15.7042368592
0.38  6.17561557e-16  15.3527690937
0.38  0.02  15.7042368592
0.38  0.04  16.6763038571
0.38  0.06  18.0685337366
0.38  0.08  19.6497055057
0.38  0.1  21.2149534676
0.38  0.12  22.6034651093
0.38  0.14  23.6971750186
0.38  0.16  24.4151241671
0.38  0.18  24.7087539482
0.38  0.2  32.1314997848
0.38  0.22  28.3553703661
0.38  0.24  25.0230158562
0.38  0.26  22.0822833367
0.38  0.28  19.4871489577
0.38  0.3  17.1969976433
0.38  0.32  15.1759874462
0.38  0.34  13.3924886043
0.38  0.36  11.8185885204
0.38  0.38  10.4296549164
0.38  0.4  9.20395032678
0.38  0.42  8.1222918972
0.38  0.44  7.16775116348
0.38  0.46  6.32538911329
0.38  0.48  5.5820223836
0.38  0.5  4.92601693475
0.38  0.52  4.34710597233
0.38  0.54  3.83622926697
0.38  0.56  3.38539135748
0.38  0.58  2.98753641811
0.38  0.6  2.63643783157
0.38  0.62  2.32660073953
0.38  0.64  2.05317604548
0.38  0.66  1.8118845241
0.38  0.68  1.59894984939
0.38  0.7  1.41103949333
0.38  0.72  1.2452125703
0.38  0.74  1.0988738108
0.38  0.76  0.969732944296
0.38  0.78  0.855768855357
0.38  0.8  0.755197952288
0.38  0.82  0.666446253063
0.38  0.84  0.588124751763
0.38  0.86  0.519007679984
0.38  0.88  0.458013322981
0.38  0.9  0.404187090323
0.38  0.92  0.356686576104
0.38  0.94  0.31476837489
0.38  0.96  0.277776447079
0.38  0.98  0.245131851568
0.4  -1  0.17895866809
0.4  -0.98  0.202790876331
