-0.34  -0.72  0.00489553969376
-0.34  -0.7  0.00599353139522
-0.34  -0.68  0.00733778517438
-0.34  -0.66  0.00898353369907
-0.34  -0.64  0.0109983974462
-0.34  -0.62  0.0134651630901
-0.34  -0.6  0.01648518504
-0.34  -0.58  0.0201825498871
-0.34  -0.56  0.0247091748716
-0.34  -0.54  0.0302510498549
-0.34  -0.52  0.0370358792668
-0.34  -0.5  0.0453424380192
-0.34  -0.48  0.0555120258039
-0.34  -0.46  0.0679624904057
-0.34  -0.44  0.0832053962229
-0.34  -0.42  0.101867043413
-0.34  -0.4  0.124714201299
-0.34  -0.38  0.152685613369
-0.34  -0.36  0.186930568348
-0.34  -0.34  0.228856122145
-0.34  -0.32  0.280184910933
-0.34  -0.3  0.343025930784
-0.34  -0.28  0.419961192052
-0.34  -0.26  0.514151808951
-0.34  -0.24  0.629467883344
-0.34  -0.22  0.770647519397
-0.34  -0.2  0.689205101893
-0.34  -0.18  0.690024955375
-0.34  -0.16  0.697178682029
-0.34  -0.14  0.709737209648
-0.34  -0.12  0.726137213964
-0.34  -0.1  0.744457385991
-0.34  -0.08  0.762697133965
-0.34  -0.06  0.779001323133
-0.34  -0.04  0.791815146577
-0.34  -0.02  0.799978860895
-0.34  6.17561557e-16  0.802780070959
-0.34  0.02  0.799978860895
-0.34  0.04  0.791815146577
-0.34  0.06  0.779001323133
-0.34  0.08  0.762697133965
-0.34  0.1  0.744457385991
-0.34  0.12  0.726137213964
-0.34  0.14  0.709737209648
-0.34  0.16  0.697178682029
-0.34  0.18  0.690024955375
-0.34  0.2  0.943491502692
-0.34  0.22  0.770647519397
-0.34  0.24  0.629467883344
-0.34  0.26  0.514151808951
-0.34  0.28  0.419961192052
-0.34  0.3  0.343025930784
-0.34  0.32  0.280184910933
-0.34  0.34  0.228856122145
-0.34  0.36  0.186930568348
-0.34  0.38  0.152685613369
-0.34  0.4  0.124714201299
-0.34  0.42  0.101867043413
-0.34  0.44  0.0832053962229
-0.34  0.46  0.0679624904057
-0.34  0.48  0.0555120258039
-0.34  0.5  0.0453424380192
-0.34  0.52  0.0370358792668
-0.34  0.54  0.0302510498549
-0.34  0.56  0.0247091748715
-0.34  0.58  0.0201825498871
-0.34  0.6  0.01648518504
-0.34  0.62  0.0134651630901
-0.34  0.64  0.0109983974462
-0.34  0.66  0.00898353369907
-0.34  0.68  0.00733778517438
-0.34  0.7  0.00599353139521
-0.34  0.72  0.00489553969375
-0.34  0.74  0.00399869581267
-0.34  0.76  0.00326615025155
-0.34  0.78  0.00266780419554
-0.34  0.8  0.00217907281588
-0.34  0.82  0.00177987512908
-0.34  0.84  0.00145380890994
-0.34  0.86  0.00118747675726
-0.34  0.88  0.000969935621797
-0.34  0.9  0.000792247178464
-0.34  0.92  0.00064711056866
-0.34  0.94  0.000528562422757
-0.34  0.96  0.00043173183731
-0.34  0.98  0.000352640239492
-0.32  -1  0.000359195583341
-0.32  -0.98  0.000439757440538
-0.32  -0.96  0.00053838804116
-0.32  -0.94  0.000659139917018
-0.32  -0.92  0.000806974518361
-0.32  -0.9  0.00098796606983
-0.32  -0.88  0.00120955114806
-0.32  -0.86  0.00148083423555
-0.32  -0.84  0.00181296180545
-0.32  -0.82  0.00221958030759
-0.32  -0.8  0.00271739687347
-0.32  -0.78  0.00332686577849
-0.32  -0.76  0.00407302886677
-0.32  -0.74  0.0049865444698
-0.32  -0.72  0.00610494709531
-0.32  -0.7  0.00747418964421
-0.32  -0.68  0.0091505315223
-0.32  -0.66  0.0112028502254
-0.32  -0.64  0.0137154713765
-0.32  -0.62  0.0167916334944
-0.32  -0.6  0.0205577298565
-0.32  -0.58  0.0251685017417
-0.32  -0.56  0.0308133964376
-0.32  -0.54  0.0377243512452
-0.32  -0.52  0.0461853233139
-0.32  -0.5  0.0565439568661
-0.32  -0.48  0.0692258671948
-0.32  -0.46  0.0847521283347
-0.32  -0.44  0.10376068294
-0.32  -0.42  0.127032554058
-0.32  -0.4  0.155523935785
-0.32  -0.38  0.190405481345
-0.32  -0.36  0.233110402867
-0.32  -0.34  0.285393359166
-0.32  -0.32  0.349402551129
-0.32  -0.3  0.427767986935
-0.32  -0.28  0.523709543778
-0.32  -0.26  0.6411692661
-0.32  -0.24  0.784973336222
-0.32  -0.22  0.961030372413
-0.32  -0.2  0.859468199236
-0.32  -0.18  0.860490591545
-0.32  -0.16  0.869411594231
-0.32  -0.14  0.885072614569
-0.32  -0.12  0.905524120425
-0.32  -0.1  0.928370157429
-0.32  -0.08  0.951115902204
-0.32  -0.06  0.971447922478
-0.32  -0.04  0.987427307614
-0.32  -0.02  0.997607808055
-0.32  6.17561557e-16  1.00110103665
-0.32  0.02  0.997607808055
-0.32  0.04  0.987427307614
-0.32  0.06  0.971447922478
-0.32  0.08  0.951115902204
-0.32  0.1  0.928370157429
-0.32  0.12  0.905524120425
-0.32  0.14  0.885072614569
-0.32  0.16  0.869411594231
-0.32  0.18  0.860490591545
-0.32  0.2  1.17657420206
-0.32  0.22  0.961030372413
-0.32  0.24  0.784973336222
-0.32  0.26  0.641169266099
-0.32  0.28  0.523709543778
-0.32  0.3  0.427767986935
-0.32  0.32  0.349402551129
-0.32  0.34  0.285393359166
-0.32  0.36  0.233110402867
-0.32  0.38  0.190405481345
-0.32  0.4  0.155523935785
-0.32  0.42  0.127032554058
-0.32  0.44  0.10376068294
-0.32  0.46  0.0847521283347
-0.32  0.48  0.0692258671948
-0.32  0.5  0.0565439568661
-0.32  0.52  0.0461853233139
-0.32  0.54  0.0377243512452
-0.32  0.56  0.0308133964376
-0.32  0.58  0.0251685017417
-0.32  0.6  0.0205577298565
-0.32  0.62  0.0167916334944
-0.32  0.64  0.0137154713765
-0.32  0.66  0.0112028502254
-0.32  0.68  0.0091505315223
-0.32  0.7  0.00747418964421
-0.32  0.72  0.00610494709531
-0.32  0.74  0.0049865444698
-0.32  0.76  0.00407302886677
-0.32  0.78  0.00332686577849
-0.32  0.8  0.00271739687347
-0.32  0.82  0.00221958030759
-0.32  0.84  0.00181296180545
-0.32  0.86  0.00148083423555
-0.32  0.88  0.00120955114806
-0.32  0.9  0.00098796606983
-0.32  0.92  0.000806974518361
-0.32  0.94  0.000659139917018
-0.32  0.96  0.00053838804116
-0.32  0.98  0.000439757440537
-0.3  -1  0.000447932234308
-0.3  -0.98  0.000548396311172
-0.3  -0.96  0.000671392882836
-0.3  -0.94  0.000821975629559
-0.3  -0.92  0.00100633169171
-0.3  -0.9  0.00123203588686
-0.3  -0.88  0.0015083619437
-0.3  -0.86  0.00184666354079
-0.3  -0.84  0.00226084080622
-0.3  -0.82  0.00276791144579
-0.3  -0.8  0.00338870996607
-0.3  -0.78  0.00414874372213
-0.3  -0.76  0.00507924096316
-0.3  -0.74  0.00621843393802
-0.3  -0.72  0.007613129781
-0.3  -0.7  0.00932063372225
-0.3  -0.68  0.0114111036438
-0.3  -0.66  0.0139704327248
-0.3  -0.64  0.0171037786186
-0.3  -0.62  0.0209398841681
-0.3  -0.6  0.0256363671882
-0.3  -0.58  0.0313861966634
-0.3  -0.56  0.0384256214526
-0.3  -0.54  0.0470438772768
-0.3  -0.52  0.0575950708297
-0.3  -0.5  0.0705127293049
-0.3  -0.48  0.0863276131517
-0.3  -0.46  0.105689523947
-0.3  -0.44  0.12939400343
-0.3  -0.42  0.158415020697
-0.3  -0.4  0.193944990627
-0.3  -0.38  0.237443767794
-0.3  -0.36  0.290698628935
-0.3  -0.34  0.355897708538
-0.3  -0.32  0.435719904861
-0.3  -0.3  0.533444950439
-0.3  -0.28  0.653088169656
-0.3  -0.26  0.799565460305
-0.3  -0.24  0.978895277875
-0.3  -0.22  1.19844592171
-0.3  -0.2  1.07179355386
-0.3  -0.18  1.07306852074
-0.3  -0.16  1.08419339212
-0.3  -0.14  1.10372335339
-0.3  -0.12  1.12922725471
-0.3  -0.1  1.15771723865
-0.3  -0.08  1.1860821539
-0.3  -0.06  1.2114370516
-0.3  -0.04  1.23136402737
-0.3  -0.02  1.24405954625
-0.3  6.17561557e-16  1.24841575151
-0.3  0.02  1.24405954625
-0.3  0.04  1.23136402737
-0.3  0.06  1.2114370516
-0.3  0.08  1.1860821539
-0.3  0.1  1.15771723865
-0.3  0.12  1.12922725471
-0.3  0.14  1.10372335339
-0.3  0.16  1.08419339212
-0.3  0.18  1.07306852074
-0.3  0.2  1.46723828354
-0.3  0.22  1.19844592171
-0.3  0.24  0.978895277875
-0.3  0.26  0.799565460305
-0.3  0.28  0.653088169656
-0.3  0.3  0.533444950439
-0.3  0.32  0.435719904861
-0.3  0.34  0.355897708538
-0.3  0.36  0.290698628934
-0.3  0.38  0.237443767794
-0.3  0.4  0.193944990627
-0.3  0.42  0.158415020697
-0.3  0.44  0.12939400343
-0.3  0.46  0.105689523947
-0.3  0.48  0.0863276131517
-0.3  0.5  0.0705127293049
-0.3  0.52  0.0575950708296
-0.3  0.54  0.0470438772768
-0.3  0.56  0.0384256214526
-0.3  0.58  0.0313861966634
-0.3  0.6  0.0256363671882
-0.3  0.62  0.0209398841681
-0.3  0.64  0.0171037786186
-0.3  0.66  0.0139704327248
-0.3  0.68  0.0114111036438
-0.3  0.7  0.00932063372225
-0.3  0.72  0.00761312978099
-0.3  0.74  0.00621843393802
-0.3  0.76  0.00507924096316
-0.3  0.78  0.00414874372213
-0.3  0.8  0.00338870996607
-0.3  0.82  0.00276791144579
-0.3  0.84  0.00226084080622
-0.3  0.86  0.00184666354079
-0.3  0.88  0.0015083619437
-0.3  0.9  0.00123203588686
-0.3  0.92  0.00100633169171
-0.3  0.94  0.000821975629558
-0.3  0.96  0.000671392882836
-0.3  0.98  0.000548396311172
-0.28  -1  0.000558590628164
-0.28  -0.98  0.000683873623013
-0.28  -0.96  0.00083725560128
-0.28  -0.94  0.0010250387181
-0.28  -0.92  0.00125493860178
-0.28  -0.9  0.00153640137336
-0.28  -0.88  0.00188099176862
-0.28  -0.86  0.00230286830964
-0.28  -0.84  0.00281936504989
-0.28  -0.82  0.00345170379532
-0.28  -0.8  0.00422586606551
-0.28  -0.78  0.00517366062172
-0.28  -0.76  0.00633403042447
-0.28  -0.74  0.00775465272107
-0.28  -0.72  0.00949389800721
-0.28  -0.7  0.0116232283525
-0.28  -0.68  0.0142301336323
-0.28  -0.66  0.0174217263098
-0.28  -0.64  0.0213291424702
-0.28  -0.62  0.0261129299372
-0.28  -0.6  0.0319696448585
-0.28  -0.58  0.0391399277995
-0.28  -0.56  0.047918391178
-0.28  -0.54  0.0586657242918
-0.28  -0.52  0.0718235133124
-0.28  -0.5  0.0879323851672
-0.28  -0.48  0.107654220806
-0.28  -0.46  0.13179935055
-0.28  -0.44  0.161359848925
-0.28  -0.42  0.197550296996
-0.28  -0.4  0.241857687047
-0.28  -0.38  0.296102520084
-0.28  -0.36  0.362513606536
-0.28  -0.34  0.443819643571
-0.28  -0.32  0.543361331734
-0.28  -0.3  0.665228637579
-0.28  -0.28  0.814428842118
-0.28  -0.26  0.997092279862
-0.28  -0.24  1.22072422187
-0.28  -0.22  1.49451325213
-0.28  -0.2  1.33657233987
-0.28  -0.18  1.33816227802
-0.28  -0.16  1.3520354678
-0.28  -0.14  1.37639016367
-0.28  -0.12  1.40819461793
-0.28  -0.1  1.44372284476
-0.28  -0.08  1.47909510559
-0.28  -0.06  1.51071374597
-0.28  -0.04  1.53556353588
-0.28  -0.02  1.55139539016
-0.28  6.17561557e-16  1.55682776418
-0.28  0.02  1.55139539016
-0.28  0.04  1.53556353588
-0.28  0.06  1.51071374597
-0.28  0.08  1.47909510559
-0.28  0.1  1.44372284476
-0.28  0.12  1.40819461793
-0.28  0.14  1.37639016367
-0.28  0.16  1.3520354678
-0.28  0.18  1.33816227802
-0.28  0.2  1.82970880793
-0.28  0.22  1.49451325213
-0.28  0.24  1.22072422187
-0.28  0.26  0.997092279862
-0.28  0.28  0.814428842118
-0.28  0.3  0.665228637579
-0.28  0.32  0.543361331734
-0.28  0.34  0.443819643571
-0.28  0.36  0.362513606536
-0.28  0.38  0.296102520084
-0.28  0.4  0.241857687047
-0.28  0.42  0.197550296996
-0.28  0.44  0.161359848925
-0.28  0.46  0.13179935055
-0.28  0.48  0.107654220806
-0.28  0.5  0.0879323851672
-0.28  0.52  0.0718235133124
-0.28  0.54  0.0586657242918
-0.28  0.56  0.047918391178
-0.28  0.58  0.0391399277995
-0.28  0.6  0.0319696448585
-0.28  0.62  0.0261129299372
-0.28  0.64  0.0213291424702
-0.28  0.66  0.0174217263098
-0.28  0.68  0.0142301336323
-0.28  0.7  0.0116232283525
-0.28  0.72  0.0094938980072
-0.28  0.74  0.00775465272107
-0.28  0.76  0.00633403042447
-0.28  0.78  0.00517366062171
-0.28  0.8  0.00422586606551
-0.28  0.82  0.00345170379532
-0.28  0.84  0.00281936504988
-0.28  0.86  0.00230286830964
-0.28  0.88  0.00188099176862
-0.28  0.9  0.00153640137336
-0.28  0.92  0.00125493860178
-0.28  0.94  0.0010250387181
-0.28  0.96  0.00083725560128
-0.28  0.98  0.000683873623013
-0.26  -1  0.000696586371718
-0.26  -0.98  0.000852819617355
-0.26  -0.96  0.00104409349547
-0.26  -0.94  0.0012782670627
-0.26  -0.92  0.00156496203708
-0.26  -0.9  0.00191595813502
-0.26  -0.88  0.00234567707597
-0.26  -0.86  0.00287177514173
-0.26  -0.84  0.0035158686373
-0.26  -0.82  0.00430442206116
-0.26  -0.8  0.00526983547795
-0.26  -0.78  0.00645177577152
-0.26  -0.76  0.00789880647701
-0.26  -0.74  0.00967038315818
-0.26  -0.72  0.0118392963162
-0.26  -0.7  0.0144946622043
-0.26  -0.68  0.0177455844338
-0.26  -0.66  0.0217256368212
-0.26  -0.64  0.0265983516659
-0.26  -0.62  0.0325639389614
-0.26  -0.6  0.0398675126189
-0.26  -0.58  0.0488091617018
-0.26  -0.56  0.0597562804786
-0.26  -0.54  0.0731586639092
-0.26  -0.52  0.0895669888105
-0.26  -0.5  0.109655440052
-0.26  -0.48  0.134249411448
-0.26  -0.46  0.16435941952
-0.26  -0.44  0.201222623575
-0.26  -0.42  0.246353658078
-0.26  -0.4  0.30160686592
-0.26  -0.38  0.36925248961
-0.26  -0.36  0.452069950951
-0.26  -0.34  0.553462051858
-0.26  -0.32  0.6775947886
-0.26  -0.3  0.829568524159
-0.26  -0.28  1.01562755182
-0.26  -0.26  1.24341666057
-0.26  -0.24  1.52229524397
-0.26  -0.22  1.86372185873
-0.26  -0.2  1.6667627952
-0.26  -0.18  1.66874551599
-0.26  -0.16  1.68604597619
-0.26  -0.14  1.71641732216
-0.26  -0.12  1.75607883505
-0.26  -0.1  1.80038405139
-0.26  -0.08  1.84449477145
-0.26  -0.06  1.8839245665
-0.26  -0.04  1.91491331588
-0.26  -0.02  1.93465631439
-0.26  6.17561557e-16  1.94143071682
-0.26  0.02  1.93465631439
-0.26  0.04  1.91491331588
-0.26  0.06  1.8839245665
-0.26  0.08  1.84449477145
-0.26  0.1  1.80038405139
-0.26  0.12  1.75607883505
-0.26  0.14  1.71641732216
-0.26  0.16  1.68604597619
-0.26  0.18  1.66874551599
-0.26  0.2  2.2817250336
-0.26  0.22  1.86372185873
-0.26  0.24  1.52229524397
-0.26  0.26  1.24341666057
-0.26  0.28  1.01562755182
-0.26  0.3  0.829568524158
-0.26  0.32  0.6775947886
-0.26  0.34  0.553462051858
-0.26  0.36  0.452069950951
-0.26  0.38  0.369252489609
-0.26  0.4  0.30160686592
-0.26  0.42  0.246353658078
-0.26  0.44  0.201222623575
-0.26  0.46  0.16435941952
-0.26  0.48  0.134249411448
-0.26  0.5  0.109655440052
-0.26  0.52  0.0895669888105
-0.26  0.54  0.0731586639092
-0.26  0.56  0.0597562804786
-0.26  0.58  0.0488091617018
-0.26  0.6  0.0398675126189
-0.26  0.62  0.0325639389614
-0.26  0.64  0.0265983516659
-0.26  0.66  0.0217256368212
-0.26  0.68  0.0177455844338
-0.26  0.7  0.0144946622043
-0.26  0.72  0.0118392963162
-0.26  0.74  0.00967038315817
-0.26  0.76  0.00789880647701
-0.26  0.78  0.00645177577152
-0.26  0.8  0.00526983547794
-0.26  0.82  0.00430442206116
-0.26  0.84  0.0035158686373
-0.26  0.86  0.00287177514172
-0.26  0.88  0.00234567707597
-0.26  0.9  0.00191595813502
-0.26  0.92  0.00156496203708
-0.26  0.94  0.0012782670627
-0.26  0.96  0.00104409349547
-0.26  0.98  0.000852819617354
-0.24  -1  0.000868672957975
-0.24  -0.98  0.00106350248828
-0.24  -0.96  0.00130202918394
-0.24  -0.94  0.00159405362424
-0.24  -0.92  0.00195157450255
-0.24  -0.9  0.00238928162834
-0.24  -0.88  0.00292515950177
-0.24  -0.86  0.00358122626035
-0.24  -0.84  0.00438443835971
-0.24  -0.82  0.00536779815979
-0.24  -0.8  0.00657170992504
-0.24  -0.78  0.00804563995389
-0.24  -0.76  0.00985014904889
-0.24  -0.74  0.0120593808375
-0.24  -0.72  0.0147641081837
-0.24  -0.7  0.0180754628615
-0.24  -0.68  0.0221295017344
-0.24  -0.66  0.0270927970566
-0.24  -0.64  0.0331692805902
-0.24  -0.62  0.0406086227486
-0.24  -0.6  0.049716491048
-0.24  -0.58  0.0608671093682
-0.24  -0.56  0.0745186340537
-0.24  -0.54  0.0912319786313
-0.24  -0.52  0.111693860612
-0.24  -0.5  0.136745017323
-0.24  -0.48  0.167414750107
-0.24  -0.46  0.204963216224
-0.24  -0.44  0.250933206174
-0.24  -0.42  0.307213533826
-0.24  -0.4  0.376116643967
-0.24  -0.38  0.460473625973
-0.24  -0.36  0.563750537547
-0.24  -0.34  0.690190818015
-0.24  -0.32  0.844989642662
-0.24  -0.3  1.03450738197
-0.24  -0.28  1.26653093638
-0.24  -0.26  1.55059368427
-0.24  -0.24  1.89836718917
-0.24  -0.22  2.32414076071
-0.24  -0.2  2.07852439602
-0.24  -0.18  2.08099693352
-0.24  -0.16  2.10257134632
-0.24  -0.14  2.14044571197
-0.24  -0.12  2.18990531256
-0.24  -0.1  2.24515580968
-0.24  -0.08  2.30016376165
-0.24  -0.06  2.34933440019
-0.24  -0.04  2.38797869426
-0.24  -0.02  2.41259905665
-0.24  6.17561557e-16  2.42104702583
-0.24  0.02  2.41259905665
-0.24  0.04  2.38797869426
-0.24  0.06  2.34933440019
-0.24  0.08  2.30016376165
-0.24  0.1  2.24515580968
-0.24  0.12  2.18990531256
-0.24  0.14  2.14044571197
-0.24  0.16  2.10257134632
-0.24  0.18  2.08099693352
-0.24  0.2  2.84540857343
-0.24  0.22  2.3241407607
-0.24  0.24  1.89836718916
-0.24  0.26  1.55059368427
-0.24  0.28  1.26653093638
-0.24  0.3  1.03450738197
-0.24  0.32  0.844989642662
-0.24  0.34  0.690190818015
-0.24  0.36  0.563750537547
-0.24  0.38  0.460473625973
-0.24  0.4  0.376116643967
-0.24  0.42  0.307213533826
-0.24  0.44  0.250933206174
-0.24  0.46  0.204963216224
-0.24  0.48  0.167414750107
-0.24  0.5  0.136745017323
-0.24  0.52  0.111693860612
-0.24  0.54  0.0912319786313
-0.24  0.56  0.0745186340537
-0.24  0.58  0.0608671093682
-0.24  0.6  0.049716491048
-0.24  0.62  0.0406086227485
-0.24  0.64  0.0331692805902
-0.24  0.66  0.0270927970566
-0.24  0.68  0.0221295017344
-0.24  0.7  0.0180754628615
-0.24  0.72  0.0147641081837
-0.24  0.74  0.0120593808375
-0.24  0.76  0.00985014904889
-0.24  0.78  0.00804563995389
-0.24  0.8  0.00657170992503
-0.24  0.82  0.00536779815979
-0.24  0.84  0.00438443835971
-0.24  0.86  0.00358122626035
-0.24  0.88  0.00292515950177
-0.24  0.9  0.00238928162834
-0.24  0.92  0.00195157450255
-0.24  0.94  0.00159405362424
-0.24  0.96  0.00130202918394
-0.24  0.98  0.00106350248828
-0.22  -1  0.00108327228116
-0.22  -0.98  0.00132623302697
-0.22  -0.96  0.00162368600436
-0.22  -0.94  0.00198785295429
-0.22  -0.92  0.00243369675989
-0.22  -0.9  0.00297953624101
-0.22  -0.88  0.00364779883747
-0.22  -0.86  0.0044659421072
-0.22  -0.84  0.00546758190171
-0.22  -0.82  0.00669387357345
-0.22  -0.8  0.00819520296593
-0.22  -0.78  0.0100332566661
-0.22  -0.76  0.0122835565813
-0.22  -0.74  0.0150385629819
-0.22  -0.72  0.0184114735064
-0.22  -0.7  0.0225408742235
-0.22  -0.68  0.0275964338531
-0.22  -0.66  0.0337858751111
-0.22  -0.64  0.0413635096149
-0.22  -0.62  0.0506406870339
-0.22  -0.6  0.0619985878166
-0.22  -0.58  0.0759038851246
-0.22  -0.56  0.0929279194883
-0.22  -0.54  0.113770174033
-0.22  -0.52  0.139287014826
-0.22  -0.5  0.170526877225
-0.22  -0.48  0.208773343965
-0.22  -0.46  0.255597884975
-0.22  -0.44  0.312924425902
-0.22  -0.42  0.383108398317
-0.22  -0.4  0.469033519637
-0.22  -0.38  0.574230279235
-0.22  -0.36  0.703020999109
-0.22  -0.34  0.860697429341
-0.22  -0.32  1.05373817541
-0.22  -0.3  1.29007489097
-0.22  -0.28  1.57941817346
-0.22  -0.26  1.93365655289
-0.22  -0.24  2.36734496753
-0.22  -0.22  2.89830279678
-0.22  -0.2  2.5920086993
-0.22  -0.18  2.59509205918
-0.22  -0.16  2.62199627342
-0.22  -0.14  2.66922722507
-0.22  -0.12  2.73090545951
-0.22  -0.1  2.79980518927
-0.22  -0.08  2.86840245486
-0.22  -0.06  2.92972034128
-0.22  -0.04  2.97791142655
-0.22  -0.02  3.00861407004
-0.22  6.17561557e-16  3.01914904843
-0.22  0.02  3.00861407004
-0.22  0.04  2.97791142655
-0.22  0.06  2.92972034128
-0.22  0.08  2.86840245486
-0.22  0.1  2.79980518927
-0.22  0.12  2.73090545951
-0.22  0.14  2.66922722507
-0.22  0.16  2.62199627342
-0.22  0.18  2.59509205918
-0.22  0.2  3.54834602353
-0.22  0.22  2.89830279678
-0.22  0.24  2.36734496752
-0.22  0.26  1.93365655289
-0.22  0.28  1.57941817346
-0.22  0.3  1.29007489097
-0.22  0.32  1.05373817541
-0.22  0.34  0.860697429341
-0.22  0.36  0.703020999109
-0.22  0.38  0.574230279235
-0.22  0.4  0.469033519637
-0.22  0.42  0.383108398317
-0.22  0.44  0.312924425902
-0.22  0.46  0.255597884975
-0.22  0.48  0.208773343965
-0.22  0.5  0.170526877225
-0.22  0.52  0.139287014826
-0.22  0.54  0.113770174033
-0.22  0.56  0.0929279194883
-0.22  0.58  0.0759038851246
-0.22  0.6  0.0619985878166
-0.22  0.62  0.0506406870339
-0.22  0.64  0.0413635096149
-0.22  0.66  0.0337858751111
-0.22  0.68  0.0275964338531
-0.22  0.7  0.0225408742235
-0.22  0.72  0.0184114735064
-0.22  0.74  0.0150385629819
-0.22  0.76  0.0122835565813
-0.22  0.78  0.0100332566661
-0.22  0.8  0.00819520296593
-0.22  0.82  0.00669387357345
-0.22  0.84  0.00546758190171
-0.22  0.86  0.00446594210719
-0.22  0.88  0.00364779883747
-0.22  0.9  0.00297953624101
-0.22  0.92  0.00243369675989
-0.22  0.94  0.00198785295429
-0.22  0.96  0.00162368600435
-0.22  0.98  0.00132623302697
-0.2  -1  0.00135088680309
-0.2  -0.98  0.0016538692304
-0.2  -0.96  0.00202480579795
-0.2  -0.94  0.00247893753873
-0.2  -0.92  0.0030349238071
-0.2  -0.9  0.00371560895382
-0.2  -0.88  0.00454896095429
-0.2  -0.86  0.005569220556
-0.2  -0.84  0.00681830816158
-0.2  -0.82  0.00834754625333
-0.2  -0.8  0.0102197681302
-0.2  -0.78  0.0125118996008
-0.2  -0.76  0.0153181197095
-0.2  -0.74  0.0187537303622
-0.2  -0.72  0.0229598938493
-0.2  -0.7  0.0281094329175
-0.2  -0.68  0.0344139317075
-0.2  -0.66  0.0421324293183
-0.2  -0.64  0.0515820631988
-0.2  -0.62  0.063151099685
-0.2  -0.6  0.0773148870772
-0.2  -0.58  0.0946553867402
-0.2  -0.56  0.115885084718
-0.2  -0.54  0.141876266346
-0.2  -0.52  0.173696856684
-0.2  -0.5  0.212654299406
-0.2  -0.48  0.260349277004
-0.2  -0.46  0.318741479604
-0.2  -0.44  0.390230124658
-0.2  -0.42  0.477752535942
-0.2  -0.4  0.584904832243
-0.2  -0.38  0.716089684602
-0.2  -0.36  0.876697213165
-0.2  -0.34  1.07332645631
-0.2  -0.32  1.31405651176
-0.2  -0.3  1.60877849043
-0.2  -0.28  1.96960192206
-0.2  -0.26  2.41135231137
-0.2  -0.24  2.95218028801
-0.2  -0.22  3.61430737925
-0.2  -0.2  3.23234555733
-0.2  -0.18  3.23619063879
-0.2  -0.16  3.26974134308
-0.2  -0.14  3.3286403571
-0.2  -0.12  3.40555574984
-0.2  -0.1  3.49147665567
-0.2  -0.08  3.57702037577
-0.2  -0.06  3.65348639914
-0.2  -0.04  3.7135827408
-0.2  -0.02  3.75187024859
-0.2  6.17561557e-16  3.76500781661
-0.2  0.02  3.75187024859
-0.2  0.04  3.7135827408
-0.2  0.06  3.65348639914
-0.2  0.08  3.57702037577
-0.2  0.1  3.49147665567
-0.2  0.12  3.40555574984
-0.2  0.14  3.3286403571
-0.2  0.16  3.26974134308
-0.2  0.18  3.23619063879
-0.2  0.2  4.4249390475
-0.2  0.22  3.61430737925
-0.2  0.24  2.95218028801
-0.2  0.26  2.41135231137
-0.2  0.28  1.96960192206
-0.2  0.3  1.60877849043
-0.2  0.32  1.31405651176
-0.2  0.34  1.07332645631
-0.2  0.36  0.876697213165
-0.2  0.38  0.716089684602
-0.2  0.4  0.584904832243
-0.2  0.42  0.477752535942
-0.2  0.44  0.390230124658
-0.2  0.46  0.318741479604
-0.2  0.48  0.260349277004
-0.2  0.5  0.212654299406
-0.2  0.52  0.173696856684
-0.2  0.54  0.141876266346
-0.2  0.56  0.115885084718
-0.2  0.58  0.0946553867402
-0.2  0.6  0.0773148870771
-0.2  0.62  0.063151099685
-0.2  0.64  0.0515820631988
-0.2  0.66  0.0421324293183
-0.2  0.68  0.0344139317075
-0.2  0.7  0.0281094329174
-0.2  0.72  0.0229598938493
-0.2  0.74  0.0187537303622
-0.2  0.76  0.0153181197095
-0.2  0.78  0.0125118996008
-0.2  0.8  0.0102197681302
-0.2  0.82  0.00834754625333
-0.2  0.84  0.00681830816157
-0.2  0.86  0.005569220556
-0.2  0.88  0.00454896095429
-0.2  0.9  0.00371560895382
-0.2  0.92  0.0030349238071
-0.2  0.94  0.00247893753873
-0.2  0.96  0.00202480579795
-0.2  0.98  0.0016538692304
-0.18  -1  0.00168461354223
-0.18  -0.98  0.00206244557
-0.18  -0.96  0.00252501931309
-0.18  -0.94  0.00309134099063
-0.18  -0.92  0.00378467961444
-0.18  -0.9  0.00463352306568
-0.18  -0.88  0.00567274860421
-0.18  -0.86  0.00694505590464
-0.18  -0.84  0.00850272149954
-0.18  -0.82  0.0104097467164
-0.18  -0.8  0.0127444873628
-0.18  -0.78  0.0156028732077
-0.18  -0.76  0.0191023495418
-0.18  -0.74  0.0233867027669
-0.18  -0.72  0.0286319682879
-0.18  -0.7  0.0350536634519
-0.18  -0.68  0.0429156427195
-0.18  -0.66  0.0525409389108
-0.18  -0.64  0.0643250359705
-0.18  -0.62  0.0787521186029
-0.18  -0.6  0.0964149664414
-0.18  -0.58  0.118039310165
-0.18  -0.56  0.144513650302
-0.18  -0.54  0.176925763921
-0.18  -0.52  0.216607399187
-0.18  -0.5  0.265188994202
-0.18  -0.48  0.324666668405
-0.18  -0.46  0.397484239081
-0.18  -0.44  0.486633632871
-0.18  -0.42  0.59577781798
-0.18  -0.4  0.729401308132
-0.18  -0.38  0.892994422162
-0.18  -0.36  1.09327887011
-0.18  -0.34  1.33848393469
-0.18  -0.32  1.63868459586
-0.18  -0.3  2.00621549135
-0.18  -0.28  2.456177722
-0.18  -0.26  3.00705932542
-0.18  -0.24  3.68149491202
-0.18  -0.22  4.50719567542
-0.18  -0.2  4.03087296921
-0.18  -0.18  4.03566795002
-0.18  -0.16  4.07750711129
-0.18  -0.14  4.15095669744
-0.18  -0.12  4.24687347738
-0.18  -0.1  4.35402051679
-0.18  -0.08  4.46069718948
-0.18  -0.06  4.55605358662
-0.18  -0.04  4.6309962915
-0.18  -0.02  4.67874244904
-0.18  6.17561557e-16  4.69512555749
-0.18  0.02  4.67874244904
-0.18  0.04  4.6309962915
-0.18  0.06  4.55605358662
-0.18  0.08  4.46069718948
-0.18  0.1  4.35402051679
-0.18  0.12  4.24687347738
-0.18  0.14  4.15095669744
-0.18  0.16  4.07750711129
-0.18  0.18  4.03566795002
-0.18  0.2  5.51808798924
-0.18  0.22  4.50719567541
-0.18  0.24  3.68149491202
-0.18  0.26  3.00705932542
-0.18  0.28  2.456177722
-0.18  0.3  2.00621549135
-0.18  0.32  1.63868459586
-0.18  0.34  1.33848393469
-0.18  0.36  1.09327887011
-0.18  0.38  0.892994422162
-0.18  0.4  0.729401308131
-0.18  0.42  0.59577781798
-0.18  0.44  0.486633632871
-0.18  0.46  0.397484239081
-0.18  0.48  0.324666668405
-0.18  0.5  0.265188994202
-0.18  0.52  0.216607399187
-0.18  0.54  0.176925763921
-0.18  0.56  0.144513650302
-0.18  0.58  0.118039310165
-0.18  0.6  0.0964149664414
-0.18  0.62  0.0787521186029
-0.18  0.64  0.0643250359705
-0.18  0.66  0.0525409389108
-0.18  0.68  0.0429156427195
-0.18  0.7  0.0350536634519
-0.18  0.72  0.0286319682879
-0.18  0.74  0.0233867027669
-0.18  0.76  0.0191023495418
-0.18  0.78  0.0156028732077
-0.18  0.8  0.0127444873628
-0.18  0.82  0.0104097467164
-0.18  0.84  0.00850272149954
-0.18  0.86  0.00694505590463
-0.18  0.88  0.00567274860421
-0.18  0.9  0.00463352306568
-0.18  0.92  0.00378467961444
-0.18  0.94  0.00309134099063
-0.18  0.96  0.00252501931309
-0.18  0.98  0.00206244557
-0.16  -1  0.00210078504
-0.16  -0.98  0.00257195771651
-0.16  -0.96  0.00314880693149
-0.16  -0.94  0.00385503425198
-0.16  -0.92  0.0047196571296
-0.16  -0.9  0.00577820116891
-0.16  -0.88  0.00707415980262
-0.16  -0.86  0.00866078134876
-0.16  -0.84  0.0106032568763
-0.16  -0.82  0.0129813987742
-0.16  -0.8  0.0158929200811
-0.16  -0.78  0.0194574493165
-0.16  -0.76  0.0238214457739
-0.16  -0.74  0.0291642172379
-0.16  -0.72  0.0357052873773
-0.16  -0.7  0.0437134155288
-0.16  -0.68  0.0535176394746
-0.16  -0.66  0.0655207949387
-0.16  -0.64  0.0802160672919
-0.16  -0.62  0.0982072555408
-0.16  -0.6  0.120233581207
-0.16  -0.58  0.147200061444
-0.16  -0.56  0.180214694361
-0.16  -0.54  0.220633984423
-0.16  -0.52  0.270118678473
-0.16  -0.5  0.330702002463
-0.16  -0.48  0.404873202591
-0.16  -0.46  0.495679823392
-0.16  -0.44  0.606852925177
-0.16  -0.42  0.74296038575
-0.16  -0.4  0.909594585266
-0.16  -0.38  1.11360218582
-0.16  -0.36  1.36336544691
-0.16  -0.34  1.66914663559
-0.16  -0.32  2.04350968217
-0.16  -0.3  2.50183640674
-0.16  -0.28  3.06295852705
-0.16  -0.26  3.74993141564
-0.16  -0.24  4.59098139848
-0.16  -0.22  5.62066551758
-0.16  -0.2  5.02667075836
-0.16  -0.18  5.03265030423
-0.16  -0.16  5.08482552535
-0.16  -0.14  5.17642029645
-0.16  -0.12  5.29603261781
-0.16  -0.1  5.42964955239
-0.16  -0.08  5.56267991959
-0.16  -0.06  5.68159341966
-0.16  -0.04  5.77505017358
-0.16  -0.02  5.83459167136
-0.16  6.17561557e-16  5.85502210735
-0.16  0.02  5.83459167136
-0.16  0.04  5.77505017358
-0.16  0.06  5.68159341966
-0.16  0.08  5.56267991959
-0.16  0.1  5.42964955239
-0.16  0.12  5.29603261781
-0.16  0.14  5.17642029645
-0.16  0.16  5.08482552535
-0.16  0.18  5.03265030423
-0.16  0.2  6.88129140993
-0.16  0.22  5.62066551758
-0.16  0.24  4.59098139848
-0.16  0.26  3.74993141564
-0.16  0.28  3.06295852705
-0.16  0.3  2.50183640674
-0.16  0.32  2.04350968217
-0.16  0.34  1.66914663559
-0.16  0.36  1.36336544691
-0.16  0.38  1.11360218581
-0.16  0.4  0.909594585266
-0.16  0.42  0.74296038575
-0.16  0.44  0.606852925177
-0.16  0.46  0.495679823392
-0.16  0.48  0.404873202591
-0.16  0.5  0.330702002463
-0.16  0.52  0.270118678473
-0.16  0.54  0.220633984423
-0.16  0.56  0.180214694361
-0.16  0.58  0.147200061444
-0.16  0.6  0.120233581207
-0.16  0.62  0.0982072555407
-0.16  0.64  0.0802160672919
-0.16  0.66  0.0655207949386
-0.16  0.68  0.0535176394746
-0.16  0.7  0.0437134155288
-0.16  0.72  0.0357052873773
-0.16  0.74  0.0291642172379
-0.16  0.76  0.0238214457739
-0.16  0.78  0.0194574493164
-0.16  0.8  0.0158929200811
-0.16  0.82  0.0129813987742
-0.16  0.84  0.0106032568763
-0.16  0.86  0.00866078134876
-0.16  0.88  0.00707415980262
-0.16  0.9  0.00577820116891
-0.16  0.92  0.0047196571296
-0.16  0.94  0.00385503425198
-0.16  0.96  0.00314880693149
-0.16  0.98  0.00257195771651
-0.14  -1  0.00261976867314
-0.14  -0.98  0.00320734112537
-0.14  -0.96  0.00392669673471
-0.14  -0.94  0.00480739236758
-0.14  -0.92  0.00588561402555
-0.14  -0.9  0.00720566365487
-0.14  -0.88  0.00882177942381
-0.14  -0.86  0.0108003642593
-0.14  -0.84  0.0132227142087
-0.14  -0.82  0.01618835873
-0.14  -0.8  0.019819150156
-0.14  -0.78  0.0242642703599
-0.14  -0.76  0.0297063603364
-0.14  -0.74  0.0363690245512
-0.14  -0.72  0.0445260183957
-0.14  -0.7  0.0545124962421
-0.14  -0.68  0.0667387822583
-0.14  -0.66  0.0817072297981
-0.14  -0.64  0.100032862084
-0.14  -0.62  0.122468642266
-0.14  -0.6  0.149936411155
-0.14  -0.58  0.183564763797
-0.14  -0.56  0.224735421158
-0.14  -0.54  0.275140002245
-0.14  -0.52  0.336849529305
-0.14  -0.5  0.412399521942
-0.14  -0.48  0.504894176485
-0.14  -0.46  0.618133911137
-0.14  -0.44  0.756771517463
-0.14  -0.42  0.926503334189
-0.14  -0.4  1.13430329823
-0.14  -0.38  1.38870948964
-0.14  -0.36  1.70017494406
-0.14  -0.34  2.0814971468
-0.14  -0.32  2.54834385559
-0.14  -0.3  3.11989685709
-0.14  -0.28  3.81964010764
-0.14  -0.26  4.67632464154
-0.14  -0.24  5.72514989288
-0.14  -0.22  7.00920996904
-0.14  -0.2  6.26847313371
-0.14  -0.18  6.27592988281
-0.14  -0.16  6.34099461204
-0.14  -0.14  6.45521720378
-0.14  -0.12  6.60437887738
-0.14  -0.1  6.77100490182
-0.14  -0.08  6.93689945168
-0.14  -0.06  7.08518966527
-0.14  -0.04  7.20173422911
-0.14  -0.02  7.27598501996
-0.14  6.17561557e-16  7.30146264626
-0.14  0.02  7.27598501996
-0.14  0.04  7.20173422911
-0.14  0.06  7.08518966527
-0.14  0.08  6.93689945168
-0.14  0.1  6.77100490182
-0.14  0.12  6.60437887738
-0.14  0.14  6.45521720378
-0.14  0.16  6.34099461204
-0.14  0.18  6.27592988281
-0.14  0.2  8.58126430037
-0.14  0.22  7.00920996904
-0.14  0.24  5.72514989288
-0.14  0.26  4.67632464154
-0.14  0.28  3.81964010764
-0.14  0.3  3.11989685709
-0.14  0.32  2.54834385559
-0.14  0.34  2.0814971468
-0.14  0.36  1.70017494406
-0.14  0.38  1.38870948964
-0.14  0.4  1.13430329823
-0.14  0.42  0.926503334189
-0.14  0.44  0.756771517463
-0.14  0.46  0.618133911136
-0.14  0.48  0.504894176485
-0.14  0.5  0.412399521942
-0.14  0.52  0.336849529305
-0.14  0.54  0.275140002245
-0.14  0.56  0.224735421158
-0.14  0.58  0.183564763797
-0.14  0.6  0.149936411155
-0.14  0.62  0.122468642266
-0.14  0.64  0.100032862084
-0.14  0.66  0.0817072297981
-0.14  0.68  0.0667387822583
-0.14  0.7  0.054512496242
-0.14  0.72  0.0445260183957
-0.14  0.74  0.0363690245512
-0.14  0.76  0.0297063603364
-0.14  0.78  0.0242642703599
-0.14  0.8  0.019819150156
-0.14  0.82  0.01618835873
-0.14  0.84  0.0132227142087
-0.14  0.86  0.0108003642593
-0.14  0.88  0.00882177942381
-0.14  0.9  0.00720566365487
-0.14  0.92  0.00588561402555
-0.14  0.94  0.00480739236758
-0.14  0.96  0.0039266967347
-0.14  0.98  0.00320734112537
-0.12  -1  0.00326696343038
-0.12  -0.98  0.00399969137458
-0.12  -0.96  0.00489675854437
-0.12  -0.94  0.00599502361464
-0.12  -0.92  0.0073396120749
-0.12  -0.9  0.00898577034432
-0.12  -0.88  0.0110011357354
-0.12  -0.86  0.0134685155341
-0.12  -0.84  0.0164892893838
-0.12  -0.82  0.0201875747699
-0.12  -0.8  0.0247153267557
-0.12  -0.78  0.0302585815089
-0.12  -0.76  0.0370451001509
-0.12  -0.74  0.0453537270011
-0.12  -0.72  0.0555258467248
-0.12  -0.7  0.0679794111394
-0.12  -0.68  0.0832261120081
-0.12  -0.66  0.101892405419
-0.12  -0.64  0.1247452516
-0.12  -0.62  0.152723627759
-0.12  -0.6  0.186977108761
-0.12  -0.58  0.228913100832
-0.12  -0.56  0.280254669034
-0.12  -0.54  0.343111334518
-0.12  -0.52  0.420065750485
-0.12  -0.5  0.514279818178
-0.12  -0.48  0.629624603005
-0.12  -0.46  0.770839388785
-0.12  -0.44  0.943726405333
-0.12  -0.42  1.15538923034
-0.12  -0.4  1.414524661
-0.12  -0.38  1.73178004783
-0.12  -0.36  2.12019077274
-0.12  -0.34  2.5957158465
-0.12  -0.32  3.17789363222
-0.12  -0.3  3.89064463713
-0.12  -0.28  4.76325435784
-0.12  -0.26  5.83157656214
-0.12  -0.24  7.13950644775
-0.12  -0.22  8.7407842072
-0.12  -0.2  7.81705373537
-0.12  -0.18  7.82635261998
-0.12  -0.16  7.90749111637
-0.12  -0.14  8.04993156691
-0.12  -0.12  8.23594254485
-0.12  -0.1  8.44373231422
-0.12  -0.08  8.65060990354
-0.12  -0.06  8.83553413364
-0.12  -0.04  8.98087018257
-0.12  -0.02  9.07346409014
-0.12  6.17561557e-16  9.10523577834
-0.12  0.02  9.07346409014
-0.12  0.04  8.98087018257
-0.12  0.06  8.83553413364
-0.12  0.08  8.65060990354
-0.12  0.1  8.44373231422
-0.12  0.12  8.23594254485
-0.12  0.14  8.04993156691
-0.12  0.16  7.90749111637
-0.12  0.18  7.82635261998
-0.12  0.2  10.7012031036
-0.12  0.22  8.7407842072
-0.12  0.24  7.13950644775
-0.12  0.26  5.83157656214
-0.12  0.28  4.76325435784
-0.12  0.3  3.89064463713
-0.12  0.32  3.17789363222
-0.12  0.34  2.5957158465
-0.12  0.36  2.12019077274
-0.12  0.38  1.73178004783
-0.12  0.4  1.414524661
-0.12  0.42  1.15538923034
-0.12  0.44  0.943726405333
-0.12  0.46  0.770839388785
-0.12  0.48  0.629624603004
-0.12  0.5  0.514279818178
-0.12  0.52  0.420065750485
-0.12  0.54  0.343111334518
-0.12  0.56  0.280254669034
-0.12  0.58  0.228913100832
-0.12  0.6  0.186977108761
-0.12  0.62  0.152723627759
-0.12  0.64  0.1247452516
-0.12  0.66  0.101892405419
-0.12  0.68  0.0832261120081
-0.12  0.7  0.0679794111394
-0.12  0.72  0.0555258467248
-0.12  0.74  0.045353727001
-0.12  0.76  0.0370451001509
-0.12  0.78  0.0302585815088
-0.12  0.8  0.0247153267557
-0.12  0.82  0.0201875747699
-0.12  0.84  0.0164892893838
-0.12  0.86  0.0134685155341
-0.12  0.88  0.0110011357354
-0.12  0.9  0.00898577034432
-0.12  0.92  0.0073396120749
-0.12  0.94  0.00599502361464
-0.12  0.96  0.00489675854437
-0.12  0.98  0.00399969137458
-0.1  -1  0.0040740429355
-0.1  -0.98  0.00498778597803
-0.1  -0.96  0.00610646705409
-0.1  -0.94  0.00747605050557
-0.1  -0.92  0.00915280974527
-0.1  -0.9  0.0112056394176
-0.1  -0.88  0.0137188861401
-0.1  -0.86  0.0167958141352
-0.1  -0.84  0.0205628481485
-0.1  -0.82  0.0251747679853
-0.1  -0.8  0.0308210680999
-0.1  -0.78  0.0377337435393
-0.1  -0.76  0.0461968221503
-0.1  -0.74  0.0565580347086
-0.1  -0.72  0.0692431024735
-0.1  -0.7  0.0847732292123
-0.1  -0.68  0.103786516409
-0.1  -0.66  0.127064181564
-0.1  -0.64  0.155562656836
-0.1  -0.62  0.190452886913
-0.1  -0.6  0.23316844075
-0.1  -0.58  0.285464414023
-0.1  -0.56  0.34948954246
-0.1  -0.54  0.427874489039
-0.1  -0.52  0.52383993261
-0.1  -0.5  0.641328899073
-0.1  -0.48  0.785168772332
-0.1  -0.46  0.961269641735
-0.1  -0.44  1.17686713568
-0.1  -0.42  1.44081971896
-0.1  -0.4  1.76397266913
-0.1  -0.38  2.15960368705
-0.1  -0.36  2.64396845072
-0.1  -0.34  3.23696852823
-0.1  -0.32  3.96296909286
-0.1  -0.3  4.85180003885
-0.1  -0.28  5.93998163129
-0.1  -0.26  7.27222504998
-0.1  -0.24  8.90326948135
-0.1  -0.22  10.9001312408
-0.1  -0.2  9.74819988826
-0.1  -0.18  9.75979599455
-0.1  -0.16  9.86097916511
-0.1  -0.14  10.0386084908
-0.1  -0.12  10.2705721252
-0.1  -0.1  10.5296948426
-0.1  -0.08  10.7876800326
-0.1  -0.06  11.018288446
-0.1  -0.04  11.1995287066
-0.1  -0.02  11.3149972642
-0.1  6.17561557e-16  11.3546179164
-0.1  0.02  11.3149972642
-0.1  0.04  11.1995287066
-0.1  0.06  11.018288446
-0.1  0.08  10.7876800326
-0.1  0.1  10.5296948426
-0.1  0.12  10.2705721252
-0.1  0.14  10.0386084908
-0.1  0.16  9.86097916511
-0.1  0.18  9.75979599455
-0.1  0.2  13.3448573376
-0.1  0.22  10.9001312408
-0.1  0.24  8.90326948135
-0.1  0.26  7.27222504998
-0.1  0.28  5.93998163129
-0.1  0.3  4.85180003885
-0.1  0.32  3.96296909286
-0.1  0.34  3.23696852822
-0.1  0.36  2.64396845072
-0.1  0.38  2.15960368705
-0.1  0.4  1.76397266913
-0.1  0.42  1.44081971896
-0.1  0.44  1.17686713568
-0.1  0.46  0.961269641735
-0.1  0.48  0.785168772332
-0.1  0.5  0.641328899072
-0.1  0.52  0.523839932609
-0.1  0.54  0.427874489038
-0.1  0.56  0.34948954246
-0.1  0.58  0.285464414023
-0.1  0.6  0.23316844075
-0.1  0.62  0.190452886913
-0.1  0.64  0.155562656836
-0.1  0.66  0.127064181563
-0.1  0.68  0.103786516409
-0.1  0.7  0.0847732292123
-0.1  0.72  0.0692431024735
-0.1  0.74  0.0565580347086
-0.1  0.76  0.0461968221502
-0.1  0.78  0.0377337435393
-0.1  0.8  0.0308210680999
-0.1  0.82  0.0251747679853
-0.1  0.84  0.0205628481485
-0.1  0.86  0.0167958141352
-0.1  0.88  0.0137188861401
-0.1  0.9  0.0112056394176
-0.1  0.92  0.00915280974527
-0.1  0.94  0.00747605050557
-0.1  0.96  0.00610646705409
-0.1  0.98  0.00498778597803
-0.08  -1  0.00508050555019
-0.08  -0.98  0.00621998215181
-0.08  -0.96  0.00761502523452
-0.08  -0.94  0.00932295429585
-0.08  -0.92  0.0114139446851
-0.08  -0.9  0.0139739109665
-0.08  -0.88  0.0171080369747
-0.08  -0.86  0.0209450976057
-0.08  -0.84  0.0256427499169
-0.08  -0.82  0.0313940109367
-0.08  -0.8  0.0384351883432
-0.08  -0.78  0.0470555898688
-0.08  -0.76  0.0576094103697
-0.08  -0.74  0.0705302849758
-0.08  -0.72  0.0863491062804
-0.08  -0.7  0.105715837643
-0.08  -0.68  0.129426218869
-0.08  -0.66  0.158454461547
-0.08  -0.64  0.193993277432
-0.08  -0.62  0.237502884561
-0.08  -0.6  0.290771004653
-0.08  -0.58  0.35598631698
-0.08  -0.56  0.435828386767
-0.08  -0.54  0.533577763111
-0.08  -0.52  0.653250770099
-0.08  -0.5  0.799764529441
-0.08  -0.48  0.979138995052
-0.08  -0.46  1.19874430078
-0.08  -0.44  1.46760358428
-0.08  -0.42  1.79676372951
-0.08  -0.4  2.19974926081
-0.08  -0.38  2.69311803826
-0.08  -0.36  3.29714158664
-0.08  -0.34  4.03663801138
-0.08  -0.32  4.94199172425
-0.08  -0.3  6.05040187745
-0.08  -0.28  7.40741080139
-0.08  -0.26  9.06877524699
-0.08  -0.24  11.1027573177
-0.08  -0.22  13.5929292213
-0.08  -0.2  12.1564216236
-0.08  -0.18  12.1708824634
-0.08  -0.16  12.2970621988
-0.08  -0.14  12.5185735549
-0.08  -0.12  12.8078421145
-0.08  -0.1  13.1309792108
-0.08  -0.08  13.4526977617
-0.08  -0.06  13.7402763029
-0.08  -0.04  13.9662906489
-0.08  -0.02  14.1102848721
-0.08  6.17561557e-16  14.1596935176
-0.08  0.02  14.1102848721
-0.08  0.04  13.9662906489
-0.08  0.06  13.7402763029
-0.08  0.08  13.4526977617
-0.08  0.1  13.1309792108
-0.08  0.12  12.8078421145
-0.08  0.14  12.5185735549
-0.08  0.16  12.2970621988
-0.08  0.18  12.1708824634
-0.08  0.2  16.6416070826
-0.08  0.22  13.5929292213
-0.08  0.24  11.1027573177
-0.08  0.26  9.06877524698
-0.08  0.28  7.40741080138
-0.08  0.3  6.05040187744
-0.08  0.32  4.94199172425
-0.08  0.34  4.03663801137
-0.08  0.36  3.29714158664
-0.08  0.38  2.69311803826
-0.08  0.4  2.19974926081
-0.08  0.42  1.79676372951
-0.08  0.44  1.46760358428
-0.08  0.46  1.19874430078
-0.08  0.48  0.979138995052
-0.08  0.5  0.79976452944
-0.08  0.52  0.653250770098
-0.08  0.54  0.533577763111
-0.08  0.56  0.435828386767
-0.08  0.58  0.355986316979
-0.08  0.6  0.290771004653
-0.08  0.62  0.237502884561
-0.08  0.64  0.193993277432
-0.08  0.66  0.158454461547
-0.08  0.68  0.129426218869
-0.08  0.7  0.105715837643
-0.08  0.72  0.0863491062804
-0.08  0.74  0.0705302849758
-0.08  0.76  0.0576094103697
-0.08  0.78  0.0470555898688
-0.08  0.8  0.0384351883431
-0.08  0.82  0.0313940109367
-0.08  0.84  0.0256427499169
-0.08  0.86  0.0209450976057
-0.08  0.88  0.0171080369747
-0.08  0.9  0.0139739109665
-0.08  0.92  0.0114139446851
-0.08  0.94  0.00932295429585
-0.08  0.96  0.00761502523451
-0.08  0.98  0.0062199821518
-0.06  -1  0.0063356074185
-0.06  -0.98  0.00775658340979
-0.06  -0.96  0.0094962617187
-0.06  -0.94  0.0116261222069
-0.06  -0.92  0.0142336765322
-0.06  -0.9  0.0174260638258
-0.06  -0.88  0.0213344528221
-0.06  -0.86  0.0261194313166
-0.06  -0.84  0.0319776043939
-0.06  -0.82  0.0391496725321
-0.06  -0.8  0.0479303214991
-0.06  -0.78  0.0586803303942
-0.06  -0.76  0.0718413953314
-0.06  -0.74  0.0879542778386
-0.06  -0.72  0.107681023655
-0.06  -0.7  0.131832164852
-0.06  -0.68  0.161400022953
-0.06  -0.66  0.19759948142
-0.06  -0.64  0.241917902756
-0.06  -0.62  0.296176241218
-0.06  -0.6  0.362603862149
-0.06  -0.58  0.443930142082
-0.06  -0.56  0.543496613304
-0.06  -0.54  0.665394260654
-0.06  -0.52  0.814631611814
-0.06  -0.5  0.997340527577
-0.06  -0.48  1.2210281476
-0.06  -0.46  1.49488534357
-0.06  -0.44  1.83016435356
-0.06  -0.42  2.24064111367
-0.06  -0.4  2.74318128343
-0.06  -0.38  3.35843322157
-0.06  -0.36  4.11167638532
-0.06  -0.34  5.03386001217
-0.06  -0.32  6.16287476139
-0.06  -0.3  7.54510956459
-0.06  -0.28  9.23735765301
-0.06  -0.26  11.3091500765
-0.06  -0.24  13.8456125937
-0.06  -0.22  16.9509633171
-0.06  -0.2  15.159576987
-0.06  -0.18  15.1776102719
-0.06  -0.16  15.3349617913
-0.06  -0.14  15.6111959134
-0.06  -0.12  15.9719261624
-0.06  -0.1  16.3748919233
-0.06  -0.08  16.7760886975
-0.06  -0.06  17.1347114213
-0.06  -0.04  17.4165609643
-0.06  -0.02  17.5961279108
-0.06  6.17561557e-16  17.6577426022
-0.06  0.02  17.5961279108
-0.06  0.04  17.4165609643
-0.06  0.06  17.1347114213
-0.06  0.08  16.7760886975
-0.06  0.1  16.3748919233
-0.06  0.12  15.9719261624
-0.06  0.14  15.6111959134
-0.06  0.16  15.3349617913
-0.06  0.18  15.1776102719
-0.06  0.2  20.7527948246
-0.06  0.22  16.9509633171
-0.06  0.24  13.8456125937
-0.06  0.26  11.3091500765
-0.06  0.28  9.23735765301
-0.06  0.3  7.54510956459
-0.06  0.32  6.16287476139
-0.06  0.34  5.03386001217
-0.06  0.36  4.11167638532
-0.06  0.38  3.35843322157
-0.06  0.4  2.74318128343
-0.06  0.42  2.24064111367
-0.06  0.44  1.83016435356
-0.06  0.46  1.49488534357
-0.06  0.48  1.2210281476
-0.06  0.5  0.997340527577
-0.06  0.52  0.814631611814
-0.06  0.54  0.665394260654
-0.06  0.56  0.543496613303
-0.06  0.58  0.443930142082
-0.06  0.6  0.362603862149
-0.06  0.62  0.296176241218
-0.06  0.64  0.241917902756
-0.06  0.66  0.19759948142
-0.06  0.68  0.161400022953
-0.06  0.7  0.131832164852
-0.06  0.72  0.107681023655
-0.06  0.74  0.0879542778386
-0.06  0.76  0.0718413953314
-0.06  0.78  0.0586803303942
-0.06  0.8  0.0479303214991
-0.06  0.82  0.0391496725321
-0.06  0.84  0.0319776043938
-0.06  0.86  0.0261194313166
-0.06  0.88  0.0213344528221
-0.06  0.9  0.0174260638258
-0.06  0.92  0.0142336765322
-0.06  0.94  0.0116261222069
-0.06  0.96  0.0094962617187
-0.06  0.98  0.00775658340979
-0.04  -1  0.00790077305593
-0.04  -0.98  0.00967279080947
-0.04  -0.96  0.0118422439654
-0.04  -0.94  0.0144982709643
-0.04  -0.92  0.0177500025813
-0.04  -0.9  0.0217310458889
-0.04  -0.88  0.0266049739015
-0.04  -0.86  0.0325720464592
-0.04  -0.84  0.0398774384994
-0.04  -0.82  0.0488213137996
-0.04  -0.8  0.0597711580986
-0.04  -0.78  0.0731768783428
-0.04  -0.76  0.0895892884519
-0.04  -0.74  0.109682741148
-0.04  -0.72  0.134282835746
-0.04  -0.7  0.164400340357
-0.04  -0.68  0.201272722305
-0.04  -0.66  0.246414993156
-0.04  -0.64  0.30168195748
-0.04  -0.62  0.369344423013
-0.04  -0.6  0.452182503555
-0.04  -0.58  0.553599848221
-0.04  -0.56  0.677763490496
-0.04  -0.54  0.829775063207
-0.04  -0.52  1.0158804143
-0.04  -0.5  1.24372623607
-0.04  -0.48  1.52267425234
-0.04  -0.46  1.86418587264
-0.04  -0.44  2.28229311846
-0.04  -0.42  2.79417517051
-0.04  -0.4  3.42086422659
-0.04  -0.38  4.18810967195
-0.04  -0.36  5.1274360695
-0.04  -0.34  6.27743844028
-0.04  -0.32  7.68536805479
-0.04  -0.3  9.40907389208
-0.04  -0.28  11.5193795373
-0.04  -0.26  14.1029931793
-0.04  -0.24  17.266070275
-0.04  -0.22  21.1385752622
-0.04  -0.2  18.9046399953
-0.04  -0.18  18.9271282718
-0.04  -0.16  19.1233523373
-0.04  -0.14  19.467828086
-0.04  -0.12  19.9176741139
-0.04  -0.1  20.4201896291
-0.04  -0.08  20.9204991423
-0.04  -0.06  21.3677169963
-0.04  -0.04  21.7191954147
-0.04  -0.02  21.9431230667
-0.04  6.17561557e-16  22.0199592185
-0.04  0.02  21.9431230667
-0.04  0.04  21.7191954147
-0.04  0.06  21.3677169963
-0.04  0.08  20.9204991423
-0.04  0.1  20.4201896291
-0.04  0.12  19.9176741139
-0.04  0.14  19.467828086
-0.04  0.16  19.1233523373
-0.04  0.18  18.9271282718
-0.04  0.2  25.879621535
-0.04  0.22  21.1385752622
-0.04  0.24  17.266070275
-0.04  0.26  14.1029931793
-0.04  0.28  11.5193795373
-0.04  0.3  9.40907389208
-0.04  0.32  7.68536805479
-0.04  0.34  6.27743844028
-0.04  0.36  5.1274360695
-0.04  0.38  4.18810967195
-0.04  0.4  3.42086422659
-0.04  0.42  2.79417517051
-0.04  0.44  2.28229311846
-0.04  0.46  1.86418587264
-0.04  0.48  1.52267425233
-0.04  0.5  1.24372623607
-0.04  0.52  1.0158804143
-0.04  0.54  0.829775063207
-0.04  0.56  0.677763490496
-0.04  0.58  0.553599848221
-0.04  0.6  0.452182503555
-0.04  0.62  0.369344423013
-0.04  0.64  0.30168195748
-0.04  0.66  0.246414993156
-0.04  0.68  0.201272722305
-0.04  0.7  0.164400340357
-0.04  0.72  0.134282835746
-0.04  0.74  0.109682741148
-0.04  0.76  0.0895892884519
-0.04  0.78  0.0731768783428
-0.04  0.8  0.0597711580986
-0.04  0.82  0.0488213137996
-0.04  0.84  0.0398774384994
-0.04  0.86  0.0325720464591
-0.04  0.88  0.0266049739015
-0.04  0.9  0.0217310458889
-0.04  0.92  0.0177500025813
-0.04  0.94  0.0144982709643
-0.04  0.96  0.0118422439654
-0.04  0.98  0.00967279080947
-0.02  -1  0.0098526014568
-0.02  -0.98  0.0120623832815
-0.02  -0.96  0.0147677840282
-0.02  -0.94  0.0180799631394
-0.02  -0.92  0.022135011353
-0.02  -0.9  0.0270995423951
-0.02  -0.88  0.0331775388009
-0.02  -0.86  0.0406187331446
-0.02  -0.84  0.0497288690451
-0.02  -0.82  0.0608822635532
-0.02  -0.8  0.0745371870814
-0.02  -0.78  0.091254692808
-0.02  -0.76  0.111721669217
-0.02  -0.74  0.136779062957
-0.02  -0.72  0.167456431634
-0.02  -0.7  0.205014246256
-0.02  -0.68  0.250995681429
-0.02  -0.66  0.307290021288
-0.02  -0.64  0.37621028635
-0.02  -0.62  0.460588270854
-0.02  -0.6  0.563890895451
-0.02  -0.58  0.690362655965
-0.02  -0.56  0.845200021131
-0.02  -0.54  1.03476494499
-0.02  -0.52  1.26684626669
-0.02  -0.5  1.55097973814
-0.02  -0.48  1.89883982879
-0.02  -0.46  2.32471940588
-0.02  -0.44  2.84611699951
-0.02  -0.42  3.48445578182
-0.02  -0.4  4.26596380175
-0.02  -0.38  5.22275164253
-0.02  -0.36  6.39413178057
-0.02  -0.34  7.82823385558
-0.02  -0.32  9.58398222005
-0.02  -0.3  11.7335170217
-0.02  -0.28  14.3651582961
-0.02  -0.26  17.5870348585
-0.02  -0.24  21.5315270975
-0.02  -0.22  26.360706218
-0.02  -0.2  23.5748935249
-0.02  -0.18  23.6029373662
-0.02  -0.16  23.8476371569
-0.02  -0.14  24.2772131288
-0.02  -0.12  24.8381903393
-0.02  -0.1  25.46484865
-0.02  -0.08  26.0887559821
-0.02  -0.06  26.6464557476
-0.02  -0.04  27.0847643476
-0.02  -0.02  27.3640116939
-0.02  6.17561557e-16  27.459829657
-0.02  0.02  27.3640116939
-0.02  0.04  27.0847643476
-0.02  0.06  26.6464557476
-0.02  0.08  26.0887559821
-0.02  0.1  25.46484865
-0.02  0.12  24.8381903393
-0.02  0.14  24.2772131288
-0.02  0.16  23.8476371569
-0.02  0.18  23.6029373662
-0.02  0.2  32.2729934188
-0.02  0.22  26.360706218
-0.02  0.24  21.5315270975
-0.02  0.26  17.5870348585
-0.02  0.28  14.3651582961
-0.02  0.3  11.7335170217
-0.02  0.32  9.58398222005
-0.02  0.34  7.82823385558
-0.02  0.36  6.39413178057
-0.02  0.38  5.22275164253
-0.02  0.4  4.26596380175
-0.02  0.42  3.48445578182
-0.02  0.44  2.84611699951
-0.02  0.46  2.32471940588
-0.02  0.48  1.89883982878
-0.02  0.5  1.55097973814
-0.02  0.52  1.26684626668
-0.02  0.54  1.03476494499
-0.02  0.56  0.845200021131
-0.02  0.58  0.690362655965
-0.02  0.6  0.563890895451
-0.02  0.62  0.460588270854
-0.02  0.64  0.37621028635
-0.02  0.66  0.307290021288
-0.02  0.68  0.250995681429
-0.02  0.7  0.205014246256
-0.02  0.72  0.167456431634
-0.02  0.74  0.136779062957
-0.02  0.76  0.111721669217
-0.02  0.78  0.091254692808
-0.02  0.8  0.0745371870813
-0.02  0.82  0.0608822635531
-0.02  0.84  0.0497288690451
-0.02  0.86  0.0406187331445
-0.02  0.88  0.0331775388009
-0.02  0.9  0.0270995423951
-0.02  0.92  0.022135011353
-0.02  0.94  0.0180799631394
-0.02  0.96  0.0147677840282
-0.02  0.98  0.0120623832815
2.8449465e-16  -1  0.0122866148387
2.8449465e-16  -0.98  0.0150423071579
2.8449465e-16  -0.96  0.0184160574414
2.8449465e-16  -0.94  0.0225464862622
2.8449465e-16  -0.92  0.0276033045829
