-0.22  0.42  1.96368455359
-0.22  0.44  1.71283087212
-0.22  0.46  1.49402285164
-0.22  0.48  1.30316677354
-0.22  0.5  1.13669187709
-0.22  0.52  0.99148355351
-0.22  0.54  0.864825074142
-0.22  0.56  0.754346762704
-0.22  0.58  0.657981660589
-0.22  0.6  0.573926855759
-0.22  0.62  0.500609751747
-0.22  0.64  0.436658645661
-0.22  0.66  0.38087706475
-0.22  0.68  0.332221381379
-0.22  0.7  0.289781287612
-0.22  0.72  0.2527627641
-0.22  0.74  0.220473224623
-0.22  0.76  0.192308558378
-0.22  0.78  0.167741827556
-0.22  0.8  0.146313408769
-0.22  0.82  0.127622393875
-0.22  0.84  0.111319089313
-0.22  0.86  0.0970984736233
-0.22  0.88  0.0846944907488
-0.22  0.9  0.0738750723418
-0.22  0.92  0.0644377959565
-0.22  0.94  0.0562060978907
-0.22  0.96  0.0490259698242
-0.22  0.98  0.042763077449
-0.2  -1  0.0446966351827
-0.2  -0.98  0.0512427079255
-0.2  -0.96  0.0587474897115
-0.2  -0.94  0.0673513888536
-0.2  -0.92  0.0772153772492
-0.2  -0.9  0.0885240020319
-0.2  -0.88  0.101488838298
-0.2  -0.86  0.116352447502
-0.2  -0.84  0.133392915582
-0.2  -0.82  0.152929055723
-0.2  -0.8  0.175326373086
-0.2  -0.78  0.201003903112
-0.2  -0.76  0.23044205133
-0.2  -0.74  0.264191581352
-0.2  -0.72  0.302883919209
-0.2  -0.7  0.347242966812
-0.2  -0.68  0.398098645564
-0.2  -0.66  0.456402423511
-0.2  -0.64  0.523245116525
-0.2  -0.62  0.599877296577
-0.2  -0.6  0.687732688914
-0.2  -0.58  0.78845499588
-0.2  -0.56  0.903928649239
-0.2  -0.54  1.03631406635
-0.2  -0.52  1.18808806981
-0.2  -0.5  1.36209022675
-0.2  -0.48  1.56157597484
-0.2  -0.46  1.79027752883
-0.2  -0.44  2.05247370726
-0.2  -0.42  2.3530699856
-0.2  -0.4  2.69769027372
-0.2  -0.38  3.09278213459
-0.2  -0.36  3.54573741294
-0.2  -0.34  4.06503053058
-0.2  -0.32  4.66037703588
-0.2  -0.3  5.34291537374
-0.2  -0.28  6.12541527674
-0.2  -0.26  7.02251667637
-0.2  -0.24  8.05100360414
-0.2  -0.22  9.23011820705
-0.2  -0.2  7.99464081699
-0.2  -0.18  8.02229926543
-0.2  -0.16  7.9348439518
-0.2  -0.14  7.73865191815
-0.2  -0.12  7.44867297618
-0.2  -0.1  7.0888434576
-0.2  -0.08  6.69252424861
-0.2  -0.06  6.30236483266
-0.2  -0.04  5.96819500183
-0.2  -0.02  5.74072255627
-0.2  6.17561557e-16  5.65977151098
-0.2  0.02  5.74072255627
-0.2  0.04  5.96819500183
-0.2  0.06  6.30236483266
-0.2  0.08  6.69252424861
-0.2  0.1  7.0888434576
-0.2  0.12  7.44867297618
-0.2  0.14  7.73865191815
-0.2  0.16  7.9348439518
-0.2  0.18  8.02229926543
-0.2  0.2  10.5819207524
-0.2  0.22  9.23011820705
-0.2  0.24  8.05100360414
-0.2  0.26  7.02251667637
-0.2  0.28  6.12541527674
-0.2  0.3  5.34291537374
-0.2  0.32  4.66037703588
-0.2  0.34  4.06503053058
-0.2  0.36  3.54573741294
-0.2  0.38  3.09278213459
-0.2  0.4  2.69769027372
-0.2  0.42  2.3530699856
-0.2  0.44  2.05247370726
-0.2  0.46  1.79027752883
-0.2  0.48  1.56157597484
-0.2  0.5  1.36209022675
-0.2  0.52  1.18808806981
-0.2  0.54  1.03631406635
-0.2  0.56  0.903928649239
-0.2  0.58  0.78845499588
-0.2  0.6  0.687732688914
-0.2  0.62  0.599877296577
-0.2  0.64  0.523245116525
-0.2  0.66  0.456402423511
-0.2  0.68  0.398098645564
-0.2  0.7  0.347242966812
-0.2  0.72  0.302883919209
-0.2  0.74  0.264191581352
-0.2  0.76  0.23044205133
-0.2  0.78  0.201003903112
-0.2  0.8  0.175326373086
-0.2  0.82  0.152929055723
-0.2  0.84  0.133392915582
-0.2  0.86  0.116352447502
-0.2  0.88  0.101488838298
-0.2  0.9  0.0885240020319
-0.2  0.92  0.0772153772492
-0.2  0.94  0.0673513888536
-0.2  0.96  0.0587474897115
-0.2  0.98  0.0512427079255
-0.18  -1  0.0535596771456
-0.18  -0.98  0.0614037920603
-0.18  -0.96  0.0703967215697
-0.18  -0.94  0.0807067160103
-0.18  -0.92  0.0925266669232
-0.18  -0.9  0.106077715897
-0.18  -0.88  0.121613391945
-0.18  -0.86  0.139424354827
-0.18  -0.84  0.159843833051
-0.18  -0.82  0.18325385831
-0.18  -0.8  0.21009241298
-0.18  -0.78  0.240861624408
-0.18  -0.76  0.276137159308
-0.18  -0.74  0.316578994011
-0.18  -0.72  0.362943762078
-0.18  -0.7  0.416098910298
-0.18  -0.68  0.477038927905
-0.18  -0.66  0.546903952653
-0.18  -0.64  0.627001101861
-0.18  -0.62  0.718828927509
-0.18  -0.6  0.824105452908
-0.18  -0.58  0.944800315516
-0.18  -0.56  1.08317161724
-0.18  -0.54  1.24180817165
-0.18  -0.52  1.4236779386
-0.18  -0.5  1.63218355229
-0.18  -0.48  1.87122598175
-0.18  -0.46  2.14527751481
-0.18  -0.44  2.45946543093
-0.18  -0.42  2.81966792835
-0.18  -0.4  3.23262410041
-0.18  -0.38  3.70606001846
-0.18  -0.36  4.24883328027
-0.18  -0.34  4.87109872845
-0.18  -0.32  5.58449843927
-0.18  -0.3  6.40237953626
-0.18  -0.28  7.34004390406
-0.18  -0.26  8.41503447403
-0.18  -0.24  9.64746343819
-0.18  -0.22  11.0603885318
-0.18  -0.2  9.57992428965
-0.18  -0.18  9.61306722229
-0.18  -0.16  9.50827010852
-0.18  -0.14  9.2731745149
-0.18  -0.12  8.9256947002
-0.18  -0.1  8.49451340963
-0.18  -0.08  8.01960676859
-0.18  -0.06  7.5520813661
-0.18  -0.04  7.15164790667
-0.18  -0.02  6.87906920598
-0.18  6.17561557e-16  6.78206611318
-0.18  0.02  6.87906920598
-0.18  0.04  7.15164790667
-0.18  0.06  7.5520813661
-0.18  0.08  8.01960676859
-0.18  0.1  8.49451340963
-0.18  0.12  8.9256947002
-0.18  0.14  9.2731745149
-0.18  0.16  9.50827010852
-0.18  0.18  9.61306722229
-0.18  0.2  12.6802444247
-0.18  0.22  11.0603885318
-0.18  0.24  9.64746343819
-0.18  0.26  8.41503447403
-0.18  0.28  7.34004390406
-0.18  0.3  6.40237953626
-0.18  0.32  5.58449843927
-0.18  0.34  4.87109872845
-0.18  0.36  4.24883328027
-0.18  0.38  3.70606001846
-0.18  0.4  3.23262410041
-0.18  0.42  2.81966792835
-0.18  0.44  2.45946543093
-0.18  0.46  2.14527751481
-0.18  0.48  1.87122598175
-0.18  0.5  1.63218355229
-0.18  0.52  1.4236779386
-0.18  0.54  1.24180817165
-0.18  0.56  1.08317161724
-0.18  0.58  0.944800315516
-0.18  0.6  0.824105452908
-0.18  0.62  0.718828927509
-0.18  0.64  0.627001101861
-0.18  0.66  0.546903952653
-0.18  0.68  0.477038927905
-0.18  0.7  0.416098910298
-0.18  0.72  0.362943762078
-0.18  0.74  0.316578994011
-0.18  0.76  0.276137159308
-0.18  0.78  0.240861624408
-0.18  0.8  0.21009241298
-0.18  0.82  0.18325385831
-0.18  0.84  0.159843833051
-0.18  0.86  0.139424354827
-0.18  0.88  0.121613391945
-0.18  0.9  0.106077715897
-0.18  0.92  0.0925266669232
-0.18  0.94  0.0807067160103
-0.18  0.96  0.0703967215697
-0.18  0.98  0.0614037920603
-0.16  -1  0.0641802006843
-0.16  -0.98  0.0735797507982
-0.16  -0.96  0.0843559177099
-0.16  -0.94  0.0967103146651
-0.16  -0.92  0.1108740823
-0.16  -0.9  0.127112213091
-0.16  -0.88  0.145728509149
-0.16  -0.86  0.167071266108
-0.16  -0.84  0.191539789448
-0.16  -0.82  0.219591865174
-0.16  -0.8  0.25175232462
-0.16  -0.78  0.288622863607
-0.16  -0.76  0.330893299685
-0.16  -0.74  0.379354478049
-0.16  -0.72  0.434913067604
-0.16  -0.7  0.498608523999
-0.16  -0.68  0.571632536991
-0.16  -0.66  0.655351325977
-0.16  -0.64  0.751331200846
-0.16  -0.62  0.861367866348
-0.16  -0.6  0.987520018257
-0.16  -0.58  1.13214785988
-0.16  -0.56  1.29795725954
-0.16  -0.54  1.48805037512
-0.16  -0.52  1.70598369294
-0.16  -0.5  1.95583456664
-0.16  -0.48  2.24227750118
-0.16  -0.46  2.57067160898
-0.16  -0.44  2.94716087447
-0.16  -0.42  3.37878910309
-0.16  -0.4  3.87363170501
-0.16  -0.38  4.44094677954
-0.16  -0.36  5.09134832647
-0.16  -0.34  5.83700482539
-0.16  -0.32  6.69186689791
-0.16  -0.3  7.67192831236
-0.16  -0.28  8.79552521411
-0.16  -0.26  10.0836791798
-0.16  -0.24  11.5604905137
-0.16  -0.22  13.2535891448
-0.16  -0.2  11.4795588065
-0.16  -0.18  11.5192737596
-0.16  -0.16  11.3936960835
-0.16  -0.14  11.1119826157
-0.16  -0.12  10.6955998922
-0.16  -0.1  10.1789182534
-0.16  -0.08  9.60984082144
-0.16  -0.06  9.04960827794
-0.16  -0.04  8.56977155829
-0.16  -0.02  8.24314233562
-0.16  6.17561557e-16  8.12690418232
-0.16  0.02  8.24314233562
-0.16  0.04  8.56977155829
-0.16  0.06  9.04960827794
-0.16  0.08  9.60984082144
-0.16  0.1  10.1789182534
-0.16  0.12  10.6955998922
-0.16  0.14  11.1119826157
-0.16  0.16  11.3936960835
-0.16  0.18  11.5192737596
-0.16  0.2  15.1946515602
-0.16  0.22  13.2535891448
-0.16  0.24  11.5604905137
-0.16  0.26  10.0836791798
-0.16  0.28  8.79552521411
-0.16  0.3  7.67192831236
-0.16  0.32  6.69186689791
-0.16  0.34  5.83700482539
-0.16  0.36  5.09134832647
-0.16  0.38  4.44094677954
-0.16  0.4  3.87363170501
-0.16  0.42  3.37878910309
-0.16  0.44  2.94716087447
-0.16  0.46  2.57067160898
-0.16  0.48  2.24227750118
-0.16  0.5  1.95583456664
-0.16  0.52  1.70598369294
-0.16  0.54  1.48805037512
-0.16  0.56  1.29795725954
-0.16  0.58  1.13214785988
-0.16  0.6  0.987520018257
-0.16  0.62  0.861367866348
-0.16  0.64  0.751331200846
-0.16  0.66  0.655351325977
-0.16  0.68  0.571632536991
-0.16  0.7  0.498608523999
-0.16  0.72  0.434913067604
-0.16  0.74  0.379354478049
-0.16  0.76  0.330893299685
-0.16  0.78  0.288622863607
-0.16  0.8  0.25175232462
-0.16  0.82  0.219591865174
-0.16  0.84  0.191539789448
-0.16  0.86  0.167071266108
-0.16  0.88  0.145728509149
-0.16  0.9  0.127112213091
-0.16  0.92  0.1108740823
-0.16  0.94  0.0967103146651
-0.16  0.96  0.0843559177099
-0.16  0.98  0.0735797507982
-0.14  -1  0.076906702568
-0.14  -0.98  0.0881701202136
-0.14  -0.96  0.101083128504
-0.14  -0.94  0.115887319234
-0.14  -0.92  0.132859666673
-0.14  -0.9  0.152317709523
-0.14  -0.88  0.174625491808
-0.14  -0.86  0.200200373842
-0.14  -0.84  0.229520840695
-0.14  -0.82  0.263135454256
-0.14  -0.8  0.30167311638
-0.14  -0.78  0.345854835122
-0.14  -0.76  0.396507214208
-0.14  -0.74  0.454577918113
-0.14  -0.72  0.521153402085
-0.14  -0.7  0.597479238834
-0.14  -0.68  0.684983422174
-0.14  -0.66  0.785303083616
-0.14  -0.64  0.900315121759
-0.14  -0.62  1.03217131752
-0.14  -0.6  1.18333859219
-0.14  -0.58  1.35664516151
-0.14  -0.56  1.55533344928
-0.14  -0.54  1.78312075041
-0.14  -0.52  2.04426877853
-0.14  -0.5  2.34366339907
-0.14  -0.48  2.68690603987
-0.14  -0.46  3.08041848925
-0.14  -0.44  3.53156304244
-0.14  -0.42  4.04878024407
-0.14  -0.4  4.64174680383
-0.14  -0.38  5.32155663979
-0.14  -0.36  6.10092843649
-0.14  -0.34  6.99444360111
-0.14  -0.32  8.01881906967
-0.14  -0.3  9.19322006711
-0.14  -0.28  10.539618673
-0.14  -0.26  12.0832049012
-0.14  -0.24  13.8528579842
-0.14  -0.22  15.8816866799
-0.14  -0.2  13.7558780641
-0.14  -0.18  13.8034682252
-0.14  -0.16  13.6529893409
-0.14  -0.14  13.3154139884
-0.14  -0.12  12.8164653729
-0.14  -0.1  12.1973292423
-0.14  -0.08  11.5154075852
-0.14  -0.06  10.8440846985
-0.14  -0.04  10.2690995865
-0.14  -0.02  9.87770198709
-0.14  6.17561557e-16  9.73841459024
-0.14  0.02  9.87770198709
-0.14  0.04  10.2690995865
-0.14  0.06  10.8440846985
-0.14  0.08  11.5154075852
-0.14  0.1  12.1973292423
-0.14  0.12  12.8164653729
-0.14  0.14  13.3154139884
-0.14  0.16  13.6529893409
-0.14  0.18  13.8034682252
-0.14  0.2  18.2076487094
-0.14  0.22  15.8816866799
-0.14  0.24  13.8528579842
-0.14  0.26  12.0832049012
-0.14  0.28  10.539618673
-0.14  0.3  9.19322006711
-0.14  0.32  8.01881906967
-0.14  0.34  6.99444360111
-0.14  0.36  6.10092843649
-0.14  0.38  5.32155663979
-0.14  0.4  4.64174680383
-0.14  0.42  4.04878024407
-0.14  0.44  3.53156304244
-0.14  0.46  3.08041848925
-0.14  0.48  2.68690603987
-0.14  0.5  2.34366339907
-0.14  0.52  2.04426877853
-0.14  0.54  1.78312075041
-0.14  0.56  1.55533344928
-0.14  0.58  1.35664516151
-0.14  0.6  1.18333859219
-0.14  0.62  1.03217131752
-0.14  0.64  0.900315121759
-0.14  0.66  0.785303083616
-0.14  0.68  0.684983422174
-0.14  0.7  0.597479238834
-0.14  0.72  0.521153402085
-0.14  0.74  0.454577918113
-0.14  0.76  0.396507214208
-0.14  0.78  0.345854835122
-0.14  0.8  0.30167311638
-0.14  0.82  0.263135454256
-0.14  0.84  0.229520840695
-0.14  0.86  0.200200373842
-0.14  0.88  0.174625491808
-0.14  0.9  0.152317709523
-0.14  0.92  0.132859666673
-0.14  0.94  0.115887319234
-0.14  0.96  0.101083128504
-0.14  0.98  0.0881701202136
-0.12  -1  0.09215678413
-0.12  -0.98  0.105653661696
-0.12  -0.96  0.121127232629
-0.12  -0.94  0.138866994754
-0.12  -0.92  0.159204844472
-0.12  -0.9  0.182521286272
-0.12  -0.88  0.209252551661
-0.12  -0.86  0.239898760691
-0.12  -0.84  0.275033278803
-0.12  -0.82  0.315313444019
-0.12  -0.8  0.361492865196
-0.12  -0.78  0.414435521436
-0.12  -0.76  0.475131926421
-0.12  -0.74  0.544717660113
-0.12  -0.72  0.624494614525
-0.12  -0.7  0.715955351054
-0.12  -0.68  0.820811025075
-0.12  -0.66  0.941023400262
-0.12  -0.64  1.07884155157
-0.12  -0.62  1.2368439436
-0.12  -0.6  1.41798667153
-0.12  -0.58  1.62565876725
-0.12  -0.56  1.86374560538
-0.12  -0.54  2.1367015954
-0.12  -0.52  2.44963352004
-0.12  -0.5  2.80839607901
-0.12  -0.48  3.21970142556
-0.12  -0.46  3.69124474545
-0.12  -0.44  4.23184822748
-0.12  -0.42  4.85162611949
-0.12  -0.4  5.56217395758
-0.12  -0.38  6.37678550911
-0.12  -0.36  7.31070148817
-0.12  -0.34  8.38139469688
-0.12  -0.32  9.60889692713
-0.12  -0.3  11.016173739
-0.12  -0.28  12.6295541277
-0.12  -0.26  14.4792231171
-0.12  -0.24  16.5997864972
-0.12  -0.22  19.0309182699
-0.12  -0.2  16.4835761116
-0.12  -0.18  16.5406030814
-0.12  -0.16  16.360285247
-0.12  -0.14  15.9557709739
-0.12  -0.12  15.3578842057
-0.12  -0.1  14.6159775469
-0.12  -0.08  13.7988354144
-0.12  -0.06  12.9943937171
-0.12  -0.04  12.3053929268
-0.12  -0.02  11.8363838174
-0.12  6.17561557e-16  11.6694766671
-0.12  0.02  11.8363838174
-0.12  0.04  12.3053929268
-0.12  0.06  12.9943937171
-0.12  0.08  13.7988354144
-0.12  0.1  14.6159775469
-0.12  0.12  15.3578842057
-0.12  0.14  15.9557709739
-0.12  0.16  16.360285247
-0.12  0.18  16.5406030814
-0.12  0.2  21.818102917
-0.12  0.22  19.0309182699
-0.12  0.24  16.5997864972
-0.12  0.26  14.4792231171
-0.12  0.28  12.6295541277
-0.12  0.3  11.016173739
-0.12  0.32  9.60889692713
-0.12  0.34  8.38139469688
-0.12  0.36  7.31070148817
-0.12  0.38  6.37678550911
-0.12  0.4  5.56217395758
-0.12  0.42  4.85162611949
-0.12  0.44  4.23184822748
-0.12  0.46  3.69124474545
-0.12  0.48  3.21970142556
-0.12  0.5  2.80839607901
-0.12  0.52  2.44963352004
-0.12  0.54  2.1367015954
-0.12  0.56  1.86374560538
-0.12  0.58  1.62565876725
-0.12  0.6  1.41798667153
-0.12  0.62  1.2368439436
-0.12  0.64  1.07884155157
-0.12  0.66  0.941023400262
-0.12  0.68  0.820811025075
-0.12  0.7  0.715955351054
-0.12  0.72  0.624494614525
-0.12  0.74  0.544717660113
-0.12  0.76  0.475131926421
-0.12  0.78  0.414435521436
-0.12  0.8  0.361492865196
-0.12  0.82  0.315313444019
-0.12  0.84  0.275033278803
-0.12  0.86  0.239898760691
-0.12  0.88  0.209252551661
-0.12  0.9  0.182521286272
-0.12  0.92  0.159204844472
-0.12  0.94  0.138866994754
-0.12  0.96  0.121127232629
-0.12  0.98  0.105653661696
-0.1  -1  0.110430854238
-0.1  -0.98  0.126604071795
-0.1  -0.96  0.145145947713
-0.1  -0.94  0.166403385284
-0.1  -0.92  0.190774093733
-0.1  -0.9  0.218714029031
-0.1  -0.88  0.250745924453
-0.1  -0.86  0.287469070495
-0.1  -0.84  0.329570527105
-0.1  -0.82  0.37783797801
-0.1  -0.8  0.433174467635
-0.1  -0.78  0.49661529632
-0.1  -0.76  0.569347389946
-0.1  -0.74  0.65273150634
-0.1  -0.72  0.748327693939
-0.1  -0.7  0.85792447902
-0.1  -0.68  0.983572327555
-0.1  -0.66  1.12762200775
-0.1  -0.64  1.292768571
-0.1  -0.62  1.48210177406
-0.1  -0.6  1.69916388591
-0.1  -0.58  1.94801596064
-0.1  -0.56  2.23331381652
-0.1  -0.54  2.56039514245
-0.1  -0.52  2.93537936183
-0.1  -0.5  3.36528212188
-0.1  -0.48  3.85814655071
-0.1  -0.46  4.42319373759
-0.1  -0.44  5.07099525203
-0.1  -0.42  5.81367092912
-0.1  -0.4  6.66511562174
-0.1  -0.38  7.64125916186
-0.1  -0.36  8.76036439462
-0.1  -0.34  10.0433688612
-0.1  -0.32  11.514276523
-0.1  -0.3  13.2006068562
-0.1  -0.28  15.1339097184
-0.1  -0.26  17.3503556207
-0.1  -0.24  19.8914124484
-0.1  -0.22  22.8046212909
-0.1  -0.2  19.7521583254
-0.1  -0.18  19.8204933595
-0.1  -0.16  19.6044197121
-0.1  -0.14  19.1196929808
-0.1  -0.12  18.4032492901
-0.1  -0.1  17.5142275337
-0.1  -0.08  16.5350516154
-0.1  -0.06  15.5710945431
-0.1  -0.04  14.7454695329
-0.1  -0.02  14.1834590734
-0.1  6.17561557e-16  13.9834553584
-0.1  0.02  14.1834590734
-0.1  0.04  14.7454695329
-0.1  0.06  15.5710945431
-0.1  0.08  16.5350516154
-0.1  0.1  17.5142275337
-0.1  0.12  18.4032492901
-0.1  0.14  19.1196929808
-0.1  0.16  19.6044197121
-0.1  0.18  19.8204933595
-0.1  0.2  26.1444858966
-0.1  0.22  22.8046212909
-0.1  0.24  19.8914124484
-0.1  0.26  17.3503556207
-0.1  0.28  15.1339097184
-0.1  0.3  13.2006068562
-0.1  0.32  11.514276523
-0.1  0.34  10.0433688612
-0.1  0.36  8.76036439462
-0.1  0.38  7.64125916186
-0.1  0.4  6.66511562174
-0.1  0.42  5.81367092912
-0.1  0.44  5.07099525203
-0.1  0.46  4.42319373759
-0.1  0.48  3.85814655071
-0.1  0.5  3.36528212188
-0.1  0.52  2.93537936183
-0.1  0.54  2.56039514245
-0.1  0.56  2.23331381652
-0.1  0.58  1.94801596064
-0.1  0.6  1.69916388591
-0.1  0.62  1.48210177406
-0.1  0.64  1.292768571
-0.1  0.66  1.12762200775
-0.1  0.68  0.983572327555
-0.1  0.7  0.85792447902
-0.1  0.72  0.748327693939
-0.1  0.74  0.65273150634
-0.1  0.76  0.569347389946
-0.1  0.78  0.49661529632
-0.1  0.8  0.433174467635
-0.1  0.82  0.37783797801
-0.1  0.84  0.329570527105
-0.1  0.86  0.287469070495
-0.1  0.88  0.250745924453
-0.1  0.9  0.218714029031
-0.1  0.92  0.190774093733
-0.1  0.94  0.166403385284
-0.1  0.96  0.145145947713
-0.1  0.98  0.126604071795
-0.08  -1  0.132328549469
-0.08  -0.98  0.151708807227
-0.08  -0.96  0.173927412359
-0.08  -0.94  0.199400056745
-0.08  -0.92  0.228603312673
-0.08  -0.9  0.262083549113
-0.08  -0.88  0.300467153833
-0.08  -0.86  0.344472252601
-0.08  -0.84  0.394922144727
-0.08  -0.82  0.452760706323
-0.08  -0.8  0.519070049443
-0.08  -0.78  0.59509076752
-0.08  -0.76  0.682245145849
-0.08  -0.74  0.782163771376
-0.08  -0.72  0.896716039645
-0.08  -0.7  1.02804512966
-0.08  -0.68  1.17860810099
-0.08  -0.66  1.35122186336
-0.08  -0.64  1.54911587871
-0.08  -0.62  1.77599258179
-0.08  -0.6  2.03609664966
-0.08  -0.58  2.33429441612
-0.08  -0.56  2.67616491686
-0.08  -0.54  3.06810426857
-0.08  -0.52  3.51744533513
-0.08  -0.5  4.03259491939
-0.08  -0.48  4.62319104763
-0.08  -0.46  5.30028328909
-0.08  -0.44  6.07653948435
-0.08  -0.42  6.96648275024
-0.08  -0.4  7.98676319546
-0.08  -0.38  9.15646943046
-0.08  -0.36  10.4974856997
-0.08  -0.34  12.0349013178
-0.08  -0.32  13.7974800702
-0.08  -0.3  15.81819836
-0.08  -0.28  18.1348621692
-0.08  -0.26  20.790814378
-0.08  -0.24  23.8357456742
-0.08  -0.22  27.3266242252
-0.08  -0.2  23.6688783958
-0.08  -0.18  23.7507638072
-0.08  -0.16  23.4918442096
-0.08  -0.14  22.9109994296
-0.08  -0.12  22.0524897764
-0.08  -0.1  20.9871809886
-0.08  -0.08  19.8138410752
-0.08  -0.06  18.6587378026
-0.08  -0.04  17.669396909
-0.08  -0.02  16.9959435575
-0.08  6.17561557e-16  16.7562804518
-0.08  0.02  16.9959435575
-0.08  0.04  17.669396909
-0.08  0.06  18.6587378026
-0.08  0.08  19.8138410752
-0.08  0.1  20.9871809886
-0.08  0.12  22.0524897764
-0.08  0.14  22.9109994296
-0.08  0.16  23.4918442096
-0.08  0.18  23.7507638072
-0.08  0.2  31.328761506
-0.08  0.22  27.3266242252
-0.08  0.24  23.8357456742
-0.08  0.26  20.790814378
-0.08  0.28  18.1348621692
-0.08  0.3  15.81819836
-0.08  0.32  13.7974800702
-0.08  0.34  12.0349013178
-0.08  0.36  10.4974856997
-0.08  0.38  9.15646943046
-0.08  0.4  7.98676319546
-0.08  0.42  6.96648275024
-0.08  0.44  6.07653948435
-0.08  0.46  5.30028328909
-0.08  0.48  4.62319104764
-0.08  0.5  4.03259491939
-0.08  0.52  3.51744533513
-0.08  0.54  3.06810426857
-0.08  0.56  2.67616491686
-0.08  0.58  2.33429441612
-0.08  0.6  2.03609664966
-0.08  0.62  1.77599258179
-0.08  0.64  1.54911587871
-0.08  0.66  1.35122186336
-0.08  0.68  1.17860810099
-0.08  0.7  1.02804512966
-0.08  0.72  0.896716039645
-0.08  0.74  0.782163771376
-0.08  0.76  0.682245145849
-0.08  0.78  0.59509076752
-0.08  0.8  0.519070049443
-0.08  0.82  0.452760706323
-0.08  0.84  0.394922144727
-0.08  0.86  0.344472252601
-0.08  0.88  0.300467153833
-0.08  0.9  0.262083549113
-0.08  0.92  0.228603312673
-0.08  0.94  0.199400056745
-0.08  0.96  0.173927412359
-0.08  0.98  0.151708807227
-0.06  -1  0.158568410301
-0.06  -0.98  0.18179164275
-0.06  -0.96  0.208416047755
-0.06  -0.94  0.2389397461
-0.06  -0.92  0.27393381115
-0.06  -0.9  0.314052953165
-0.06  -0.88  0.360047768392
-0.06  -0.86  0.412778782105
-0.06  -0.84  0.473232548329
-0.06  -0.82  0.542540107453
-0.06  -0.8  0.621998147074
-0.06  -0.78  0.713093261952
-0.06  -0.76  0.817529766982
-0.06  -0.74  0.937261583531
-0.06  -0.72  1.0745287957
-0.06  -0.7  1.23189956046
-0.06  -0.68  1.41231815576
-0.06  -0.66  1.61916006558
-0.06  -0.64  1.85629513241
-0.06  -0.62  2.12815995891
-0.06  -0.6  2.43984091302
-0.06  -0.58  2.7971692898
-0.06  -0.56  3.20683041015
-0.06  -0.54  3.67648869768
-0.06  -0.52  4.21493107381
-0.06  -0.5  4.83223135385
-0.06  -0.48  5.5399387198
-0.06  -0.46  6.35129379613
-0.06  -0.44  7.28147637095
-0.06  -0.42  8.34788939744
-0.06  -0.4  9.57048458879
-0.06  -0.38  10.9721356984
-0.06  -0.36  12.5790664692
-0.06  -0.34  14.4213412581
-0.06  -0.32  16.5334275155
-0.06  -0.3  18.9548406434
-0.06  -0.28  21.7308832957
-0.06  -0.26  24.9134929538
-0.06  -0.24  28.5622136345
-0.06  -0.22  32.7453099097
-0.06  -0.2  28.3622576978
-0.06  -0.18  28.4603804352
-0.06  -0.16  28.1501188239
-0.06  -0.14  27.4540964329
-0.06  -0.12  26.425350093
-0.06  -0.1  25.1487977417
-0.06  -0.08  23.7427924197
-0.06  -0.06  22.3586399416
-0.06  -0.04  21.1731194068
-0.06  -0.02  20.3661247878
-0.06  6.17561557e-16  20.0789381011
-0.06  0.02  20.3661247878
-0.06  0.04  21.1731194068
-0.06  0.06  22.3586399416
-0.06  0.08  23.7427924197
-0.06  0.1  25.1487977417
-0.06  0.12  26.425350093
-0.06  0.14  27.4540964329
-0.06  0.16  28.1501188239
-0.06  0.18  28.4603804352
-0.06  0.2  37.5410440802
-0.06  0.22  32.7453099097
-0.06  0.24  28.5622136345
-0.06  0.26  24.9134929538
-0.06  0.28  21.7308832957
-0.06  0.3  18.9548406434
-0.06  0.32  16.5334275155
-0.06  0.34  14.4213412581
-0.06  0.36  12.5790664692
-0.06  0.38  10.9721356984
-0.06  0.4  9.57048458879
-0.06  0.42  8.34788939744
-0.06  0.44  7.28147637095
-0.06  0.46  6.35129379613
-0.06  0.48  5.5399387198
-0.06  0.5  4.83223135385
-0.06  0.52  4.21493107382
-0.06  0.54  3.67648869768
-0.06  0.56  3.20683041015
-0.06  0.58  2.7971692898
-0.06  0.6  2.43984091302
-0.06  0.62  2.12815995891
-0.06  0.64  1.85629513241
-0.06  0.66  1.61916006558
-0.06  0.68  1.41231815576
-0.06  0.7  1.23189956046
-0.06  0.72  1.0745287957
-0.06  0.74  0.937261583531
-0.06  0.76  0.817529766982
-0.06  0.78  0.713093261952
-0.06  0.8  0.621998147074
-0.06  0.82  0.542540107453
-0.06  0.84  0.473232548329
-0.06  0.86  0.412778782105
-0.06  0.88  0.360047768392
-0.06  0.9  0.314052953165
-0.06  0.92  0.27393381115
-0.06  0.94  0.2389397461
-0.06  0.96  0.208416047755
-0.06  0.98  0.18179164275
-0.04  -1  0.190011458949
-0.04  -0.98  0.217839702108
-0.04  -0.96  0.249743547452
-0.04  -0.94  0.286319889764
-0.04  -0.92  0.328253042415
-0.04  -0.9  0.376327540303
-0.04  -0.88  0.431442817859
-0.04  -0.86  0.494630036729
-0.04  -0.84  0.567071377961
-0.04  -0.82  0.650122159642
-0.04  -0.8  0.745336193793
-0.04  -0.78  0.85449485691
-0.04  -0.76  0.979640418064
-0.04  -0.74  1.12311424808
-0.04  -0.72  1.28760062465
-0.04  -0.7  1.47617695301
-0.04  -0.68  1.6923713416
-0.04  -0.66  1.94022861016
-0.04  -0.64  2.22438596491
-0.04  -0.62  2.55015975693
-0.04  -0.6  2.92364494673
-0.04  -0.58  3.35182913592
-0.04  -0.56  3.84272329955
-0.04  -0.54  4.40551166485
-0.04  -0.52  5.05072354063
-0.04  -0.5  5.79043031197
-0.04  -0.48  6.63847128595
-0.04  -0.46  7.61071261375
-0.04  -0.44  8.72534413333
-0.04  -0.42  10.0032196864
-0.04  -0.4  11.4682472765
-0.04  -0.38  13.1478363685
-0.04  -0.36  15.073410697
-0.04  -0.34  17.2809961786
-0.04  -0.32  19.8118949272
-0.04  -0.3  22.7134579831
-0.04  -0.28  26.0399712114
-0.04  -0.26  29.8536709468
-0.04  -0.24  34.2259083838
-0.04  -0.22  39.2384844995
-0.04  -0.2  33.9863025304
-0.04  -0.18  34.1038823464
-0.04  -0.16  33.7320979455
-0.04  -0.14  32.8980589984
-0.04  -0.12  31.6653191824
-0.04  -0.1  30.1356350906
-0.04  -0.08  28.4508283752
-0.04  -0.06  26.7922077756
-0.04  -0.04  25.3716064969
-0.04  -0.02  24.4045902758
-0.04  6.17561557e-16  24.0604564018
-0.04  0.02  24.4045902758
-0.04  0.04  25.3716064969
-0.04  0.06  26.7922077756
-0.04  0.08  28.4508283752
-0.04  0.1  30.1356350906
-0.04  0.12  31.6653191824
-0.04  0.14  32.8980589984
-0.04  0.16  33.7320979455
-0.04  0.18  34.1038823464
-0.04  0.2  44.9851804823
-0.04  0.22  39.2384844995
-0.04  0.24  34.2259083838
-0.04  0.26  29.8536709468
-0.04  0.28  26.0399712114
-0.04  0.3  22.7134579831
-0.04  0.32  19.8118949272
-0.04  0.34  17.2809961786
-0.04  0.36  15.073410697
-0.04  0.38  13.1478363685
-0.04  0.4  11.4682472765
-0.04  0.42  10.0032196864
-0.04  0.44  8.72534413333
-0.04  0.46  7.61071261375
-0.04  0.48  6.63847128595
-0.04  0.5  5.79043031197
-0.04  0.52  5.05072354063
-0.04  0.54  4.40551166485
-0.04  0.56  3.84272329955
-0.04  0.58  3.35182913592
-0.04  0.6  2.92364494673
-0.04  0.62  2.55015975693
-0.04  0.64  2.22438596491
-0.04  0.66  1.94022861016
-0.04  0.68  1.6923713416
-0.04  0.7  1.47617695301
-0.04  0.72  1.28760062465
-0.04  0.74  1.12311424808
-0.04  0.76  0.979640418064
-0.04  0.78  0.85449485691
-0.04  0.8  0.745336193793
-0.04  0.82  0.650122159642
-0.04  0.84  0.567071377961
-0.04  0.86  0.494630036729
-0.04  0.88  0.431442817859
-0.04  0.9  0.376327540303
-0.04  0.92  0.328253042415
-0.04  0.94  0.286319889764
-0.04  0.96  0.249743547452
-0.04  0.98  0.217839702108
-0.02  -1  0.227689452543
-0.02  -0.98  0.261035849045
-0.02  -0.96  0.299266012218
-0.02  -0.94  0.343095197064
-0.02  -0.92  0.393343411689
-0.02  -0.9  0.450950758982
-0.02  -0.88  0.51699502517
-0.02  -0.86  0.592711844312
-0.02  -0.84  0.679517816004
-0.02  -0.82  0.779037008788
-0.02  -0.8  0.893131345151
-0.02  -0.78  1.02393543656
-0.02  -0.76  1.1738965203
-0.02  -0.74  1.34582024528
-0.02  -0.72  1.54292316339
-0.02  -0.7  1.7688929086
-0.02  -0.68  2.02795718953
-0.02  -0.66  2.32496288644
-0.02  -0.64  2.66546673235
-0.02  -0.62  3.05583927498
-0.02  -0.6  3.50338406448
-0.02  -0.58  4.01647429685
-0.02  -0.56  4.60470946957
-0.02  -0.54  5.27909498033
-0.02  -0.52  6.05224802901
-0.02  -0.5  6.93863367511
-0.02  -0.48  7.95483546719
-0.02  -0.46  9.11986570743
-0.02  -0.44  10.4555211562
-0.02  -0.42  11.9867908317
-0.02  -0.4  13.7423235338
-0.02  -0.38  15.7549638397
-0.02  -0.36  18.0623665991
-0.02  -0.34  20.7077014253
-0.02  -0.32  23.7404603637
-0.02  -0.3  27.2173838469
-0.02  -0.28  31.203522262
-0.02  -0.26  35.77345299
-0.02  -0.24  41.0126756871
-0.02  -0.22  47.0192119134
-0.02  -0.2  40.7255576054
-0.02  -0.18  40.8664527076
-0.02  -0.16  40.420945962
-0.02  -0.14  39.4215227045
-0.02  -0.12  37.9443388789
-0.02  -0.1  36.111328726
-0.02  -0.08  34.0924361771
-0.02  -0.06  32.1049222746
-0.02  -0.04  30.4026253225
-0.02  -0.02  29.2438562925
-0.02  6.17561557e-16  28.8314829872
-0.02  0.02  29.2438562925
-0.02  0.04  30.4026253225
-0.02  0.06  32.1049222746
-0.02  0.08  34.0924361771
-0.02  0.1  36.111328726
-0.02  0.12  37.9443388789
-0.02  0.14  39.4215227045
-0.02  0.16  40.420945962
-0.02  0.18  40.8664527076
-0.02  0.2  53.9054390362
-0.02  0.22  47.0192119134
-0.02  0.24  41.0126756871
-0.02  0.26  35.77345299
-0.02  0.28  31.203522262
-0.02  0.3  27.2173838469
-0.02  0.32  23.7404603637
-0.02  0.34  20.7077014253
-0.02  0.36  18.0623665991
-0.02  0.38  15.7549638397
-0.02  0.4  13.7423235338
-0.02  0.42  11.9867908317
-0.02  0.44  10.4555211562
-0.02  0.46  9.11986570743
-0.02  0.48  7.95483546719
-0.02  0.5  6.93863367511
-0.02  0.52  6.05224802901
-0.02  0.54  5.27909498033
-0.02  0.56  4.60470946957
-0.02  0.58  4.01647429685
-0.02  0.6  3.50338406448
-0.02  0.62  3.05583927498
-0.02  0.64  2.66546673235
-0.02  0.66  2.32496288644
-0.02  0.68  2.02795718953
-0.02  0.7  1.7688929086
-0.02  0.72  1.54292316339
-0.02  0.74  1.34582024528
-0.02  0.76  1.1738965203
-0.02  0.78  1.02393543656
-0.02  0.8  0.893131345151
-0.02  0.82  0.779037008788
-0.02  0.84  0.679517816004
-0.02  0.86  0.592711844312
-0.02  0.88  0.51699502517
-0.02  0.9  0.450950758982
-0.02  0.92  0.393343411689
-0.02  0.94  0.343095197064
-0.02  0.96  0.299266012218
-0.02  0.98  0.261035849045
2.8449465e-16  -1  0.272838738706
2.8449465e-16  -0.98  0.312797501224
2.8449465e-16  -0.96  0.358608448478
2.8449465e-16  -0.94  0.411128665723
2.8449465e-16  -0.92  0.471340763154
2.8449465e-16  -0.9  0.540371259736
2.8449465e-16  -0.88  0.619511659452
2.8449465e-16  -0.86  0.710242614281
2.8449465e-16  -0.84  0.814261625982
2.8449465e-16  -0.82  0.933514804964
2.8449465e-16  -0.8  1.07023328041
2.8449465e-16  -0.78  1.22697494288
2.8449465e-16  -0.76  1.40667230034
2.8449465e-16  -0.74  1.61268734298
2.8449465e-16  -0.72  1.84887444331
2.8449465e-16  -0.7  2.1196524683
2.8449465e-16  -0.68  2.43008745272
2.8449465e-16  -0.66  2.78598738058
2.8449465e-16  -0.64  3.19401084765
2.8449465e-16  -0.62  3.6617916384
2.8449465e-16  -0.6  4.19808154783
2.8449465e-16  -0.58  4.81291412034
2.8449465e-16  -0.56  5.51779236918
2.8449465e-16  -0.54  6.32590398833
2.8449465e-16  -0.52  7.25236808349
2.8449465e-16  -0.5  8.31451803813
2.8449465e-16  -0.48  9.53222580687
2.8449465e-16  -0.46  10.9282737035
2.8449465e-16  -0.44  12.5287806392
2.8449465e-16  -0.42  14.3636907865
2.8449465e-16  -0.4  16.4673338092
2.8449465e-16  -0.38  18.8790671433
2.8449465e-16  -0.36  21.6440123418
2.8449465e-16  -0.34  24.8138992618
2.8449465e-16  -0.32  28.4480338882
2.8449465e-16  -0.3  32.6144078996
2.8449465e-16  -0.28  37.390970737
2.8449465e-16  -0.26  42.8670879741
2.8449465e-16  -0.24  49.1452132738
2.8449465e-16  -0.22  56.3428052118
2.8449465e-16  -0.2  48.8011616087
2.8449465e-16  -0.18  48.9699952616
2.8449465e-16  -0.16  48.4361475264
2.8449465e-16  -0.14  47.2385453627
2.8449465e-16  -0.12  45.4684459255
2.8449465e-16  -0.1  43.2719621948
2.8449465e-16  -0.08  40.85273684
2.8449465e-16  -0.06  38.4711123059
2.8449465e-16  -0.04  36.4312613242
2.8449465e-16  -0.02  35.0427161936
2.8449465e-16  6.17561557e-16  34.548572037
2.8449465e-16  0.02  35.0427161936
2.8449465e-16  0.04  36.4312613242
2.8449465e-16  0.06  38.4711123059
2.8449465e-16  0.08  40.85273684
2.8449465e-16  0.1  43.2719621948
2.8449465e-16  0.12  45.4684459255
2.8449465e-16  0.14  47.2385453627
2.8449465e-16  0.16  48.4361475264
2.8449465e-16  0.18  48.9699952616
2.8449465e-16  0.2  64.594524831
2.8449465e-16  0.22  56.3428052118
2.8449465e-16  0.24  49.1452132738
2.8449465e-16  0.26  42.8670879741
2.8449465e-16  0.28  37.390970737
2.8449465e-16  0.3  32.6144078996
2.8449465e-16  0.32  28.4480338882
2.8449465e-16  0.34  24.8138992618
2.8449465e-16  0.36  21.6440123418
2.8449465e-16  0.38  18.8790671434
2.8449465e-16  0.4  16.4673338092
2.8449465e-16  0.42  14.3636907865
2.8449465e-16  0.44  12.5287806392
2.8449465e-16  0.46  10.9282737035
2.8449465e-16  0.48  9.53222580687
2.8449465e-16  0.5  8.31451803813
2.8449465e-16  0.52  7.25236808349
2.8449465e-16  0.54  6.32590398833
2.8449465e-16  0.56  5.51779236918
2.8449465e-16  0.58  4.81291412034
2.8449465e-16  0.6  4.19808154783
2.8449465e-16  0.62  3.6617916384
2.8449465e-16  0.64  3.19401084765
2.8449465e-16  0.66  2.78598738058
2.8449465e-16  0.68  2.43008745272
2.8449465e-16  0.7  2.1196524683
2.8449465e-16  0.72  1.84887444331
2.8449465e-16  0.74  1.61268734298
2.8449465e-16  0.76  1.40667230034
2.8449465e-16  0.78  1.22697494288
2.8449465e-16  0.8  1.07023328041
2.8449465e-16  0.82  0.933514804964
2.8449465e-16  0.84  0.814261625982
2.8449465e-16  0.86  0.710242614281
2.8449465e-16  0.88  0.619511659452
2.8449465e-16  0.9  0.540371259736
2.8449465e-16  0.92  0.471340763154
2.8449465e-16  0.94  0.411128665723
2.8449465e-16  0.96  0.358608448478
2.8449465e-16  0.98  0.312797501224
0.02  -1  0.319785880227
0.02  -0.98  0.366620314754
0.02  -0.96  0.420313914721
0.02  -0.94  0.48187124335
0.02  -0.92  0.55244398778
0.02  -0.9  0.633352506184
0.02  -0.88  0.726110530594
0.02  -0.86  0.832453487577
0.02  -0.84  0.954370966653
0.02  -0.82  1.09414394387
0.02  -0.8  1.25438745702
0.02  -0.78  1.43809953082
0.02  -0.76  1.64871726752
0.02  -0.74  1.89018115225
0.02  -0.72  2.16700877627
0.02  -0.7  2.48437935743
0.02  -0.68  2.84823063903
0.02  -0.66  3.26536998017
0.02  -0.64  3.74360171584
0.02  -0.62  4.29187316964
0.02  -0.6  4.92044205087
0.02  -0.58  5.64106836781
0.02  -0.56  6.46723444791
0.02  -0.54  7.41439718102
0.02  -0.52  8.50027720515
0.02  -0.5  9.74519044506
0.02  -0.48  11.1724282066
0.02  -0.46  12.8086929378
0.02  -0.44  14.68459781
0.02  -0.42  16.835239465
0.02  -0.4  19.3008546445
0.02  -0.38  22.1275729866
0.02  -0.36  25.3682800734
0.02  -0.34  29.0836068768
0.02  -0.32  33.3430641147
0.02  -0.3  38.2263427389
0.02  -0.28  43.8248048879
0.02  -0.26  50.2431931974
0.02  -0.24  57.6015904494
0.02  -0.22  66.0376662219
0.02  -0.2  57.198338092
0.02  -0.18  57.3962228152
0.02  -0.16  56.7705163312
0.02  -0.14  55.36684373
0.02  -0.12  53.2921647116
0.02  -0.1  50.7177337984
0.02  -0.08  47.8822342897
0.02  -0.06  45.0908055446
0.02  -0.04  42.6999590511
0.02  -0.02  41.0724880808
0.02  6.17561557e-16  40.4933169381
0.02  0.02  41.0724880808
0.02  0.04  42.6999590511
0.02  0.06  45.0908055446
0.02  0.08  47.8822342897
0.02  0.1  50.7177337984
0.02  0.12  53.2921647116
0.02  0.14  55.36684373
0.02  0.16  56.7705163312
0.02  0.18  57.3962228152
0.02  0.2  75.7092525748
0.02  0.22  66.0376662219
0.02  0.24  57.6015904494
0.02  0.26  50.2431931974
0.02  0.28  43.8248048879
0.02  0.3  38.2263427389
0.02  0.32  33.3430641147
0.02  0.34  29.0836068768
0.02  0.36  25.3682800734
0.02  0.38  22.1275729866
0.02  0.4  19.3008546445
0.02  0.42  16.835239465
0.02  0.44  14.68459781
0.02  0.46  12.8086929378
0.02  0.48  11.1724282066
0.02  0.5  9.74519044506
0.02  0.52  8.50027720515
0.02  0.54  7.41439718102
0.02  0.56  6.46723444791
0.02  0.58  5.64106836781
0.02  0.6  4.92044205087
0.02  0.62  4.29187316964
0.02  0.64  3.74360171584
0.02  0.66  3.26536998017
0.02  0.68  2.84823063903
0.02  0.7  2.48437935743
0.02  0.72  2.16700877627
0.02  0.74  1.89018115225
0.02  0.76  1.64871726752
0.02  0.78  1.43809953082
0.02  0.8  1.25438745702
0.02  0.82  1.09414394388
0.02  0.84  0.954370966653
0.02  0.86  0.832453487577
0.02  0.88  0.726110530594
0.02  0.9  0.633352506184
0.02  0.92  0.55244398778
0.02  0.94  0.48187124335
0.02  0.96  0.420313914721
0.02  0.98  0.366620314754
0.04  -1  0.361407498098
0.04  -0.98  0.414337651848
0.04  -0.96  0.475019723283
0.04  -0.94  0.544589024197
0.04  -0.92  0.624347139158
0.04  -0.9  0.715786277092
0.04  -0.88  0.820617189284
0.04  -0.86  0.940801176134
0.04  -0.84  1.07858678148
0.04  -0.82  1.236551861
0.04  -0.8  1.41765181179
0.04  -0.78  1.62527486543
0.04  -0.76  1.86330547898
0.04  -0.74  2.13619701002
0.04  -0.72  2.44905503531
0.04  -0.7  2.80773287194
0.04  -0.68  3.2189410881
0.04  -0.66  3.6903730523
0.04  -0.64  4.23084886999
0.04  -0.62  4.8504804005
0.04  -0.6  5.56086044161
0.04  -0.58  6.37527962136
0.04  -0.56  7.30897505473
0.04  -0.54  8.37941541758
0.04  -0.52  9.60662777129
0.04  -0.5  11.0135722526
0.04  -0.48  12.626571639
0.04  -0.46  14.4758038262
0.04  -0.44  16.595866432
0.04  -0.42  19.0264240892
0.04  -0.4  21.8129505383
0.04  -0.38  25.0075794041
0.04  -0.36  28.6700795728
0.04  -0.34  32.8689734192
0.04  -0.32  37.6828188038
0.04  -0.3  43.2016788261
0.04  -0.28  49.5288068314
0.04  -0.26  56.782578196
0.04  -0.24  65.0987050335
0.04  -0.22  74.6327752575
0.04  -0.2  64.6429675086
0.04  -0.18  64.8666078478
0.04  -0.16  64.1594627581
0.04  -0.14  62.5730956471
0.04  -0.12  60.2283875166
0.04  -0.1  57.3188824606
0.04  -0.08  54.1143295186
0.04  -0.06  50.9595833548
0.04  -0.04  48.2575570836
0.04  -0.02  46.4182632061
0.04  6.17561557e-16  45.7637102486
0.04  0.02  46.4182632061
0.04  0.04  48.2575570836
0.04  0.06  50.9595833548
0.04  0.08  54.1143295186
0.04  0.1  57.3188824606
0.04  0.12  60.2283875166
0.04  0.14  62.5730956471
0.04  0.16  64.1594627581
0.04  0.18  64.8666078478
0.04  0.2  85.5631635034
0.04  0.22  74.6327752575
0.04  0.24  65.0987050335
0.04  0.26  56.782578196
0.04  0.28  49.5288068314
0.04  0.3  43.2016788261
0.04  0.32  37.6828188038
0.04  0.34  32.8689734192
0.04  0.36  28.6700795728
0.04  0.38  25.0075794041
0.04  0.4  21.8129505383
0.04  0.42  19.0264240892
0.04  0.44  16.595866432
0.04  0.46  14.4758038262
0.04  0.48  12.626571639
0.04  0.5  11.0135722526
0.04  0.52  9.60662777129
0.04  0.54  8.37941541758
0.04  0.56  7.30897505473
0.04  0.58  6.37527962136
0.04  0.6  5.56086044161
0.04  0.62  4.8504804005
0.04  0.64  4.23084886999
0.04  0.66  3.6903730523
0.04  0.68  3.2189410881
0.04  0.7  2.80773287194
0.04  0.72  2.44905503531
0.04  0.74  2.13619701002
0.04  0.76  1.86330547898
0.04  0.78  1.62527486543
0.04  0.8  1.41765181179
0.04  0.82  1.236551861
0.04  0.84  1.07858678148
0.04  0.86  0.940801176134
0.04  0.88  0.820617189284
0.04  0.9  0.715786277092
0.04  0.92  0.624347139158
0.04  0.94  0.544589024197
0.04  0.96  0.475019723283
0.04  0.98  0.414337651848
0.06  -1  0.397010450678
0.06  -0.98  0.455154856384
0.06  -0.96  0.5218148362
0.06  -0.94  0.598237543682
0.06  -0.92  0.685852785017
0.06  -0.9  0.78629976952
0.06  -0.88  0.901457777899
0.06  -0.86  1.03348132205
0.06  -0.84  1.18484045423
0.06  -0.82  1.35836697967
0.06  -0.8  1.55730743735
0.06  -0.78  1.78538384011
0.06  -0.76  2.04686331039
0.06  -0.74  2.34663791467
0.06  -0.72  2.69031618995
0.06  -0.7  3.08432807492
0.06  -0.68  3.53604520885
0.06  -0.66  4.05391884887
0.06  -0.64  4.64763798611
0.06  -0.62  5.32831061873
0.06  -0.6  6.1086715735
0.06  -0.58  7.00332076394
0.06  -0.56  8.02899634274
0.06  -0.54  9.20488785888
0.06  -0.52  10.5529952783
0.06  -0.5  12.0985405853
0.06  -0.48  13.8704396652
0.06  -0.46  15.9018432966
0.06  -0.44  18.2307573756
0.06  -0.42  20.9007539749
0.06  -0.4  23.9617865412
0.06  -0.38  27.4711244836
0.06  -0.36  31.4944246372
0.06  -0.34  36.1069596484
0.06  -0.32  41.3950262649
0.06  -0.3  47.4575598765
0.06  -0.28  54.4079855154
0.06  -0.26  62.3763399455
0.06  -0.24  71.5117045438
0.06  -0.22  81.9849944903
0.06  -0.2  71.0110714326
0.06  -0.18  71.2567430148
0.06  -0.16  70.4799356928
0.06  -0.14  68.7372924853
0.06  -0.12  66.1616026158
0.06  -0.1  62.9654765819
0.06  -0.08  59.4452369233
0.06  -0.06  55.9797106051
0.06  -0.04  53.0115024928
0.06  -0.02  50.9910162133
0.06  6.17561557e-16  50.2719819763
0.06  0.02  50.9910162133
0.06  0.04  53.0115024928
0.06  0.06  55.9797106051
0.06  0.08  59.4452369233
0.06  0.1  62.9654765819
0.06  0.12  66.1616026158
0.06  0.14  68.7372924853
0.06  0.16  70.4799356928
0.06  0.18  71.2567430148
0.06  0.2  93.9921564512
0.06  0.22  81.9849944903
0.06  0.24  71.5117045438
0.06  0.26  62.3763399455
0.06  0.28  54.4079855154
0.06  0.3  47.4575598765
0.06  0.32  41.3950262649
0.06  0.34  36.1069596485
0.06  0.36  31.4944246372
0.06  0.38  27.4711244836
0.06  0.4  23.9617865412
0.06  0.42  20.9007539749
0.06  0.44  18.2307573756
0.06  0.46  15.9018432966
0.06  0.48  13.8704396652
0.06  0.5  12.0985405853
0.06  0.52  10.5529952783
0.06  0.54  9.20488785888
0.06  0.56  8.02899634274
0.06  0.58  7.00332076394
0.06  0.6  6.1086715735
0.06  0.62  5.32831061873
0.06  0.64  4.64763798611
0.06  0.66  4.05391884887
0.06  0.68  3.53604520885
0.06  0.7  3.08432807492
0.06  0.72  2.69031618995
0.06  0.74  2.34663791467
0.06  0.76  2.04686331039
0.06  0.78  1.78538384011
0.06  0.8  1.55730743735
0.06  0.82  1.35836697967
0.06  0.84  1.18484045423
0.06  0.86  1.03348132205
0.06  0.88  0.901457777899
0.06  0.9  0.78629976952
0.06  0.92  0.685852785017
0.06  0.94  0.598237543682
0.06  0.96  0.5218148362
0.06  0.98  0.455154856384
0.08  -1  0.426001827591
0.08  -0.98  0.48839218294
0.08  -0.96  0.559919955522
0.08  -0.94  0.641923371305
0.08  -0.92  0.73593664695
0.08  -0.9  0.843718693748
0.08  -0.88  0.967286025408
0.08  -0.86  1.10895048537
0.08  -0.84  1.27136249951
0.08  -0.82  1.45756066343
0.08  -0.8  1.67102859207
0.08  -0.78  1.91576009533
0.08  -0.76  2.19633389894
0.08  -0.74  2.51799930868
0.08  -0.72  2.88677442057
0.08  -0.7  3.30955871455
0.08  -0.68  3.79426213805
0.08  -0.66  4.34995309463
0.08  -0.64  4.9870281064
0.08  -0.62  5.71740632439
0.08  -0.6  6.55475252609
0.08  -0.58  7.51473277228
0.08  -0.56  8.61530750612
0.08  -0.54  9.87706757835
0.08  -0.52  11.3236194852
0.08  -0.5  12.9820270266
0.08  -0.48  14.8833176476
0.08  -0.46  17.0630629366
0.08  -0.44  19.5620441405
0.08  -0.42  22.4270151482
0.08  -0.4  25.7115772179
0.08  -0.38  29.4771818123
0.08  -0.36  33.7942803054
0.08  -0.34  38.7436420697
0.08  -0.32  44.4178656052
0.08  -0.3  50.9231109808
0.08  -0.28  58.381086003
0.08  -0.26  66.9313232684
0.08  -0.24  76.7337907045
0.08  -0.22  87.9718844386
0.08  -0.2  76.1965992529
0.08  -0.18  76.4602108098
0.08  -0.16  75.6266777421
0.08  -0.14  73.7567793806
0.08  -0.12  70.9930017777
0.08  -0.1  67.5634811458
0.08  -0.08  63.7861787459
0.08  -0.06  60.0675850852
0.08  -0.04  56.8826259025
0.08  -0.02  54.7145951965
0.08  6.17561557e-16  53.9430540481
0.08  0.02  54.7145951965
0.08  0.04  56.8826259025
0.08  0.06  60.0675850852
0.08  0.08  63.7861787459
0.08  0.1  67.5634811458
0.08  0.12  70.9930017777
0.08  0.14  73.7567793806
0.08  0.16  75.6266777421
0.08  0.18  76.4602108098
0.08  0.2  100.855859988
0.08  0.22  87.9718844386
0.08  0.24  76.7337907045
0.08  0.26  66.9313232684
0.08  0.28  58.381086003
0.08  0.3  50.9231109808
0.08  0.32  44.4178656052
0.08  0.34  38.7436420697
0.08  0.36  33.7942803054
0.08  0.38  29.4771818123
0.08  0.4  25.7115772179
0.08  0.42  22.4270151482
0.08  0.44  19.5620441405
0.08  0.46  17.0630629366
0.08  0.48  14.8833176476
0.08  0.5  12.9820270266
0.08  0.52  11.3236194852
0.08  0.54  9.87706757835
0.08  0.56  8.61530750612
0.08  0.58  7.51473277228
0.08  0.6  6.55475252609
0.08  0.62  5.71740632439
0.08  0.64  4.9870281064
0.08  0.66  4.34995309463
0.08  0.68  3.79426213805
0.08  0.7  3.30955871455
0.08  0.72  2.88677442057
0.08  0.74  2.51799930868
0.08  0.76  2.19633389894
0.08  0.78  1.91576009533
0.08  0.8  1.67102859207
0.08  0.82  1.45756066343
0.08  0.84  1.27136249951
0.08  0.86  1.10895048537
0.08  0.88  0.967286025408
0.08  0.9  0.843718693748
0.08  0.92  0.73593664695
0.08  0.94  0.641923371305
0.08  0.96  0.559919955522
0.08  0.98  0.48839218294
0.1  -1  0.447898823709
0.1  -0.98  0.51349611687
0.1  -0.96  0.588700501281
0.1  -0.94  0.674918989302
0.1  -0.92  0.77376465814
0.1  -0.9  0.8870868292
0.1  -0.88  1.01700566737
0.1  -0.86  1.16595184757
0.1  -0.84  1.3367120307
0.1  -0.82  1.53248099973
0.1  -0.8  1.75692143155
0.1  -0.78  2.01423242257
0.1  -0.76  2.30922805043
0.1  -0.74  2.64742744141
0.1  -0.72  3.03515802878
0.1  -0.7  3.47967393386
0.1  -0.68  3.9892916847
0.1  -0.66  4.57354581151
0.1  -0.64  5.24336722988
0.1  -0.62  6.01128774926
0.1  -0.6  6.89167453281
0.1  -0.58  7.9009988953
0.1  -0.56  9.05814446784
0.1  -0.54  10.3847604952
0.1  -0.52  11.9056668752
0.1  -0.5  13.6493185192
0.1  -0.48  15.6483377194
0.1  -0.46  17.9401244859
0.1  -0.44  20.5675562694
0.1  -0.42  23.5797901642
0.1  -0.4  27.0331825962
0.1  -0.38  30.9923437057
0.1  -0.36  35.5313461505
0.1  -0.34  40.7351109439
0.1  -0.32  46.700996258
0.1  -0.3  53.5406189145
0.1  -0.28  61.3819426444
0.1  -0.26  70.3716721844
0.1  -0.24  80.6779980021
0.1  -0.22  92.4937430018
0.1  -0.2  80.1131942767
0.1  -0.18  80.3903557783
0.1  -0.16  79.5139781283
0.1  -0.14  77.5479647868
0.1  -0.12  74.6421257571
0.1  -0.1  71.0363237219
0.1  -0.08  67.0648635259
0.1  -0.06  63.1551297675
0.1  -0.04  59.8064599283
0.1  -0.02  57.5269898883
0.1  6.17561557e-16  56.7157906153
0.1  0.02  57.5269898883
0.1  0.04  59.8064599283
0.1  0.06  63.1551297675
0.1  0.08  67.0648635259
0.1  0.1  71.0363237219
0.1  0.12  74.6421257571
0.1  0.14  77.5479647868
0.1  0.16  79.5139781283
0.1  0.18  80.3903557783
0.1  0.2  106.039970083
0.1  0.22  92.4937430018
0.1  0.24  80.6779980021
0.1  0.26  70.3716721844
0.1  0.28  61.3819426444
0.1  0.3  53.5406189145
0.1  0.32  46.700996258
0.1  0.34  40.7351109439
0.1  0.36  35.5313461505
0.1  0.38  30.9923437057
0.1  0.4  27.0331825962
0.1  0.42  23.5797901642
0.1  0.44  20.5675562694
0.1  0.46  17.9401244859
0.1  0.48  15.6483377194
0.1  0.5  13.6493185192
0.1  0.52  11.9056668752
0.1  0.54  10.3847604952
0.1  0.56  9.05814446784
0.1  0.58  7.9009988953
0.1  0.6  6.89167453281
0.1  0.62  6.01128774926
0.1  0.64  5.24336722988
0.1  0.66  4.57354581151
0.1  0.68  3.9892916847
0.1  0.7  3.47967393386
0.1  0.72  3.03515802878
0.1  0.74  2.64742744141
0.1  0.76  2.30922805043
0.1  0.78  2.01423242257
0.1  0.8  1.75692143155
0.1  0.82  1.53248099973
0.1  0.84  1.3367120307
0.1  0.86  1.16595184757
0.1  0.88  1.01700566737
0.1  0.9  0.8870868292
0.1  0.92  0.77376465814
0.1  0.94  0.674918989302
0.1  0.96  0.588700501281
0.1  0.98  0.51349611687
0.12  -1  0.462336779496
0.12  -0.98  0.530048592205
0.12  -0.96  0.607677179404
0.12  -0.94  0.696674908298
0.12  -0.92  0.798706853413
0.12  -0.9  0.915681948769
0.12  -0.88  1.04978870247
0.12  -0.86  1.20353614191
0.12  -0.84  1.3798007556
0.12  -0.82  1.5818803099
0.12  -0.8  1.81355554757
0.12  -0.78  2.07916092231
0.12  -0.76  2.38366569288
0.12  -0.74  2.73276689381
0.12  -0.72  3.1329959223
0.12  -0.7  3.59184073526
0.12  -0.68  4.11788594285
0.12  -0.66  4.72097341953
0.12  -0.64  5.41238643741
0.12  -0.62  6.20506076707
0.12  -0.6  7.11382669516
0.12  -0.58  8.15568648696
0.12  -0.56  9.3501324848
0.12  -0.54  10.7195117938
0.12  -0.52  12.2894443778
0.12  -0.5  14.089302388
0.12  -0.48  16.1527596919
0.12  -0.46  18.5184218834
0.12  -0.44  21.2305485622
0.12  -0.42  24.3398813943
0.12  -0.4  27.9045934471
0.12  -0.38  31.9913775599
0.12  -0.36  36.6766941121
0.12  -0.34  42.0482015341
0.12  -0.32  48.2063963248
0.12  -0.3  55.2664932587
0.12  -0.28  63.3605809597
0.12  -0.26  72.6400931711
0.12  -0.24  83.2786419566
0.12  -0.22  95.4752658397
0.12  -0.2  82.6956318622
0.12  -0.18  82.981727626
0.12  -0.16  82.0771000654
0.12  -0.14  80.0477125594
0.12  -0.12  77.048204216
0.12  -0.1  73.3261696577
0.12  -0.08  69.2266899991
0.12  -0.06  65.1909265212
0.12  -0.04  61.7343127792
0.12  -0.02  59.381364342
0.12  6.17561557e-16  58.5440161742
0.12  0.02  59.381364342
0.12  0.04  61.7343127792
0.12  0.06  65.1909265212
0.12  0.08  69.2266899991
0.12  0.1  73.3261696577
0.12  0.12  77.048204216
0.12  0.14  80.0477125594
0.12  0.16  82.0771000654
0.12  0.18  82.981727626
0.12  0.2  109.458153651
0.12  0.22  95.4752658397
0.12  0.24  83.2786419566
0.12  0.26  72.6400931711
0.12  0.28  63.3605809597
0.12  0.3  55.2664932587
0.12  0.32  48.2063963248
0.12  0.34  42.0482015341
0.12  0.36  36.6766941121
0.12  0.38  31.9913775599
0.12  0.4  27.9045934471
0.12  0.42  24.3398813943
0.12  0.44  21.2305485622
0.12  0.46  18.5184218834
0.12  0.48  16.1527596919
0.12  0.5  14.089302388
0.12  0.52  12.2894443778
0.12  0.54  10.7195117938
0.12  0.56  9.3501324848
0.12  0.58  8.15568648696
0.12  0.6  7.11382669516
0.12  0.62  6.20506076707
0.12  0.64  5.41238643741
0.12  0.66  4.72097341953
0.12  0.68  4.11788594285
0.12  0.7  3.59184073526
0.12  0.72  3.1329959223
0.12  0.74  2.73276689381
0.12  0.76  2.38366569288
0.12  0.78  2.07916092231
0.12  0.8  1.81355554757
0.12  0.82  1.5818803099
0.12  0.84  1.3798007556
0.12  0.86  1.20353614191
0.12  0.88  1.04978870247
0.12  0.9  0.915681948769
0.12  0.92  0.798706853413
0.12  0.94  0.696674908298
0.12  0.96  0.607677179404
0.12  0.98  0.530048592205
0.14  -1  0.469075253831
0.14  -0.98  0.537773953875
0.14  -0.96  0.616533963591
0.14  -0.94  0.706828818171
0.14  -0.92  0.810347860298
0.14  -0.9  0.929027846359
0.14  -0.88  1.06508918157
0.14  -0.86  1.22107746193
0.14  -0.84  1.39991110025
0.14  -0.82  1.60493592724
0.14  -0.8  1.8399877893
0.14  -0.78  2.10946431399
0.14  -0.76  2.41840718611
0.14  -0.74  2.77259647345
0.14  -0.72  3.17865876712
0.14  -0.7  3.64419115964
0.14  -0.68  4.1779033803
