0.18  0.08  61.9985153926
0.18  0.1  62.3531951673
0.18  0.12  62.6962079804
0.18  0.14  62.9908348632
0.18  0.16  63.2059946555
0.18  0.18  63.319251367
0.18  0.2  85.7614368733
0.18  0.22  72.0898441528
0.18  0.24  60.5976977467
0.18  0.26  50.9375629169
0.18  0.28  42.8173909635
0.18  0.3  35.9916899031
0.18  0.32  30.2541026655
0.18  0.34  25.4311684325
0.18  0.36  21.3770785071
0.18  0.38  17.9692681723
0.18  0.4  15.1047112701
0.18  0.42  12.6968054773
0.18  0.44  10.6727541127
0.18  0.46  8.97136532121
0.18  0.48  7.54120209994
0.18  0.5  6.33902723566
0.18  0.52  5.32849614185
0.18  0.54  4.47905807598
0.18  0.56  3.76503251835
0.18  0.58  3.16483278934
0.18  0.6  2.66031343307
0.18  0.62  2.23622163736
0.18  0.64  1.87973610525
0.18  0.66  1.58007943682
0.18  0.68  1.328192303
0.18  0.7  1.1164595606
0.18  0.72  0.938480028564
0.18  0.74  0.788872965125
0.18  0.76  0.663115395282
0.18  0.78  0.557405370572
0.18  0.8  0.468547027189
0.18  0.82  0.393853967468
0.18  0.84  0.331068043737
0.18  0.86  0.278291089178
0.18  0.88  0.23392753176
0.18  0.9  0.196636156324
0.18  0.92  0.165289556484
0.18  0.94  0.138940050464
0.18  0.96  0.116791030441
0.18  0.98  0.0981728792084
0.2  -1  0.0793651071346
0.2  -0.98  0.094416428631
0.2  -0.96  0.112322181841
0.2  -0.94  0.133623699991
0.2  -0.92  0.158964978302
0.2  -0.9  0.189112143492
0.2  -0.88  0.224976615592
0.2  -0.86  0.267642662331
0.2  -0.84  0.318400179108
0.2  -0.82  0.378783685579
0.2  -0.8  0.450618717813
0.2  -0.78  0.536077018557
0.2  -0.76  0.637742194154
0.2  -0.74  0.758687823065
0.2  -0.72  0.90257037741
0.2  -0.7  1.07373976675
0.2  -0.68  1.27737084616
0.2  -0.66  1.51961986427
0.2  -0.64  1.80781058126
0.2  -0.62  2.15065568342
0.2  -0.6  2.55852018821
0.2  -0.58  3.04373480327
0.2  -0.56  3.62096871283
0.2  -0.54  4.30767306179
0.2  -0.52  5.12460854509
0.2  -0.5  6.09647305256
0.2  -0.48  7.25264834446
0.2  -0.46  8.62808833155
0.2  -0.44  10.2643758144
0.2  -0.42  12.2109796296
0.2  -0.4  14.5267502097
0.2  -0.38  17.2816987708
0.2  -0.36  20.559113917
0.2  -0.34  24.4580796517
0.2  -0.32  29.096470921
0.2  -0.3  34.6145172521
0.2  -0.28  41.179042223
0.2  -0.26  48.9885069334
0.2  -0.24  58.279009953
0.2  -0.22  69.3314251385
0.2  -0.2  60.8960723167
0.2  -0.18  60.8964270567
0.2  -0.16  60.787503958
0.2  -0.14  60.58057696
0.2  -0.12  60.2972235708
0.2  -0.1  59.9673356725
0.2  -0.08  59.626227233
0.2  -0.06  59.3110082258
0.2  -0.04  59.0565236275
0.2  -0.02  58.89130046
0.2  6.17561557e-16  58.8340527237
0.2  0.02  58.89130046
0.2  0.04  59.0565236275
0.2  0.06  59.3110082258
0.2  0.08  59.626227233
0.2  0.1  59.9673356725
0.2  0.12  60.2972235708
0.2  0.14  60.58057696
0.2  0.16  60.787503958
0.2  0.18  60.8964270567
0.2  0.2  82.4798931144
0.2  0.22  69.3314251385
0.2  0.24  58.279009953
0.2  0.26  48.9885069335
0.2  0.28  41.179042223
0.2  0.3  34.6145172521
0.2  0.32  29.096470921
0.2  0.34  24.4580796517
0.2  0.36  20.559113917
0.2  0.38  17.2816987708
0.2  0.4  14.5267502097
0.2  0.42  12.2109796296
0.2  0.44  10.2643758144
0.2  0.46  8.62808833155
0.2  0.48  7.25264834446
0.2  0.5  6.09647305256
0.2  0.52  5.12460854509
0.2  0.54  4.30767306179
0.2  0.56  3.62096871283
0.2  0.58  3.04373480327
0.2  0.6  2.55852018821
0.2  0.62  2.15065568342
0.2  0.64  1.80781058126
0.2  0.66  1.51961986427
0.2  0.68  1.27737084616
0.2  0.7  1.07373976675
0.2  0.72  0.90257037741
0.2  0.74  0.758687823066
0.2  0.76  0.637742194154
0.2  0.78  0.536077018557
0.2  0.8  0.450618717813
0.2  0.82  0.378783685579
0.2  0.84  0.318400179108
0.2  0.86  0.267642662331
0.2  0.88  0.224976615592
0.2  0.9  0.189112143492
0.2  0.92  0.158964978302
0.2  0.94  0.133623699991
0.2  0.96  0.112322181841
0.2  0.98  0.094416428631
0.22  -1  0.0747928269497
0.22  -0.98  0.0889770311257
0.22  -0.96  0.105851221177
0.22  -0.94  0.125925543739
0.22  -0.92  0.14980689301
0.22  -0.9  0.178217258603
0.22  -0.88  0.212015552996
0.22  -0.86  0.252223578482
0.22  -0.84  0.300056918671
0.22  -0.82  0.356961688452
0.22  -0.8  0.424658253463
0.22  -0.78  0.505193240811
0.22  -0.76  0.601001413442
0.22  -0.74  0.71497927878
0.22  -0.72  0.850572656987
0.22  -0.7  1.01188085625
0.22  -0.68  1.20378060456
0.22  -0.66  1.4320734847
0.22  -0.64  1.70366132982
0.22  -0.62  2.02675488216
0.22  -0.6  2.41112202318
0.22  -0.58  2.86838307968
0.22  -0.56  3.41236213377
0.22  -0.54  4.05950495751
0.22  -0.52  4.82937620746
0.22  -0.5  5.74525091046
0.22  -0.48  6.83481812271
0.22  -0.46  8.13101803534
0.22  -0.44  9.67303783423
0.22  -0.42  11.5074964212
0.22  -0.4  13.6898538136
0.22  -0.38  16.2860878316
0.22  -0.36  19.3746887637
0.22  -0.34  23.0490323135
0.22  -0.32  27.4202025677
0.22  -0.3  32.6203503309
0.22  -0.28  38.8066883563
0.22  -0.26  46.1662442587
0.22  -0.24  54.9215148015
0.22  -0.22  65.3371924991
0.22  -0.2  57.3878063438
0.22  -0.18  57.3881406471
0.22  -0.16  57.2854926854
0.22  -0.14  57.0904868987
0.22  -0.12  56.8234576995
0.22  -0.1  56.5125748773
0.22  -0.08  56.1911179372
0.22  -0.06  55.8940589209
0.22  -0.04  55.654235361
0.22  -0.02  55.4985308176
0.22  6.17561557e-16  55.444581164
0.22  0.02  55.4985308176
0.22  0.04  55.654235361
0.22  0.06  55.8940589209
0.22  0.08  56.1911179372
0.22  0.1  56.5125748773
0.22  0.12  56.8234576995
0.22  0.14  57.0904868987
0.22  0.16  57.2854926854
0.22  0.18  57.3881406471
0.22  0.2  77.7281678972
0.22  0.22  65.3371924991
0.22  0.24  54.9215148015
0.22  0.26  46.1662442588
0.22  0.28  38.8066883563
0.22  0.3  32.6203503309
0.22  0.32  27.4202025677
0.22  0.34  23.0490323135
0.22  0.36  19.3746887637
0.22  0.38  16.2860878316
0.22  0.4  13.6898538136
0.22  0.42  11.5074964212
0.22  0.44  9.67303783423
0.22  0.46  8.13101803534
0.22  0.48  6.83481812271
0.22  0.5  5.74525091046
0.22  0.52  4.82937620746
0.22  0.54  4.05950495751
0.22  0.56  3.41236213377
0.22  0.58  2.86838307968
0.22  0.6  2.41112202318
0.22  0.62  2.02675488216
0.22  0.64  1.70366132982
0.22  0.66  1.4320734847
0.22  0.68  1.20378060456
0.22  0.7  1.01188085625
0.22  0.72  0.850572656987
0.22  0.74  0.71497927878
0.22  0.76  0.601001413442
0.22  0.78  0.505193240811
0.22  0.8  0.424658253463
0.22  0.82  0.356961688452
0.22  0.84  0.300056918671
0.22  0.86  0.252223578482
0.22  0.88  0.212015552996
0.22  0.9  0.178217258603
0.22  0.92  0.14980689301
0.22  0.94  0.125925543739
0.22  0.96  0.105851221177
0.22  0.98  0.0889770311257
0.24  -1  0.0688873851512
0.24  -0.98  0.0819516424601
0.24  -0.96  0.0974934915467
0.24  -0.94  0.115982799229
0.24  -0.92  0.137978540964
0.24  -0.9  0.164145699991
0.24  -0.88  0.195275371355
0.24  -0.86  0.232308678569
0.24  -0.84  0.276365226008
0.24  -0.82  0.328776947195
0.24  -0.8  0.391128372292
0.24  -0.78  0.465304532197
0.24  -0.76  0.553547947479
0.24  -0.74  0.658526425075
0.24  -0.72  0.783413712392
0.24  -0.7  0.931985447195
0.24  -0.68  1.10873330406
0.24  -0.66  1.31900078829
0.24  -0.64  1.56914478274
0.24  -0.62  1.86672773137
0.24  -0.6  2.22074626981
0.24  -0.58  2.64190321492
0.24  -0.56  3.1429311362
0.24  -0.54  3.73897729149
0.24  -0.52  4.44806156434
0.24  -0.5  5.29162124765
0.24  -0.48  6.29515914372
0.24  -0.46  7.4890145742
0.24  -0.44  8.90928060945
0.24  -0.42  10.5988952474
0.24  -0.4  12.6089395305
0.24  -0.38  15.0001818466
0.24  -0.36  17.8449151006
0.24  -0.34  21.2291423001
0.24  -0.32  25.2551766291
0.24  -0.3  30.0447346177
0.24  -0.28  35.7426159201
0.24  -0.26  42.5210809504
0.24  -0.24  50.5850587218
0.24  -0.22  60.178342335
0.24  -0.2  52.8566184729
0.24  -0.18  52.8569263804
0.24  -0.16  52.7623832276
0.24  -0.14  52.5827745768
0.24  -0.12  52.3368292898
0.24  -0.1  52.0504929447
0.24  -0.08  51.7544173858
0.24  -0.06  51.4808133557
0.24  -0.04  51.2599256234
0.24  -0.02  51.1165150948
0.24  6.17561557e-16  51.0668251617
0.24  0.02  51.1165150948
0.24  0.04  51.2599256234
0.24  0.06  51.4808133557
0.24  0.08  51.7544173858
0.24  0.1  52.0504929447
0.24  0.12  52.3368292898
0.24  0.14  52.5827745768
0.24  0.16  52.7623832276
0.24  0.18  52.8569263804
0.24  0.2  71.5909594195
0.24  0.22  60.178342335
0.24  0.24  50.5850587218
0.24  0.26  42.5210809504
0.24  0.28  35.7426159201
0.24  0.3  30.0447346177
0.24  0.32  25.2551766291
0.24  0.34  21.2291423001
0.24  0.36  17.8449151006
0.24  0.38  15.0001818466
0.24  0.4  12.6089395305
0.24  0.42  10.5988952474
0.24  0.44  8.90928060945
0.24  0.46  7.4890145742
0.24  0.48  6.29515914372
0.24  0.5  5.29162124765
0.24  0.52  4.44806156434
0.24  0.54  3.73897729149
0.24  0.56  3.1429311362
0.24  0.58  2.64190321492
0.24  0.6  2.22074626981
0.24  0.62  1.86672773137
0.24  0.64  1.56914478274
0.24  0.66  1.31900078829
0.24  0.68  1.10873330406
0.24  0.7  0.931985447196
0.24  0.72  0.783413712392
0.24  0.74  0.658526425075
0.24  0.76  0.55354794748
0.24  0.78  0.465304532197
0.24  0.8  0.391128372292
0.24  0.82  0.328776947195
0.24  0.84  0.276365226008
0.24  0.86  0.232308678569
0.24  0.88  0.195275371355
0.24  0.9  0.164145699991
0.24  0.92  0.137978540964
0.24  0.94  0.115982799229
0.24  0.96  0.0974934915467
0.24  0.98  0.0819516424601
0.26  -1  0.0617540446184
0.26  -0.98  0.0734654882592
0.26  -0.96  0.087397967186
0.26  -0.94  0.103972693155
0.26  -0.92  0.123690759293
0.26  -0.9  0.147148289327
0.26  -0.88  0.175054459812
0.26  -0.86  0.208252940216
0.26  -0.84  0.24774739904
0.26  -0.82  0.294731847086
0.26  -0.8  0.350626735229
0.26  -0.78  0.417121897999
0.26  -0.76  0.496227641273
0.26  -0.74  0.590335518574
0.26  -0.72  0.702290633379
0.26  -0.7  0.835477653324
0.26  -0.68  0.993923136701
0.26  -0.66  1.18241726483
0.26  -0.64  1.40665866056
0.26  -0.62  1.67342667109
0.26  -0.6  1.99078632366
0.26  -0.58  2.36833215041
0.26  -0.56  2.81747825369
0.26  -0.54  3.3518033814
0.26  -0.52  3.98746144459
0.26  -0.5  4.74366988838
0.26  -0.48  5.64329068069
0.26  -0.46  6.71352148361
0.26  -0.44  7.98671790293
0.26  -0.42  9.50137167457
0.26  -0.4  11.3032743607
0.26  -0.38  13.4469017368
0.26  -0.36  15.9970607233
0.26  -0.34  19.0308486515
0.26  -0.32  22.6399840983
0.26  -0.3  26.9335797557
0.26  -0.28  32.0414411646
0.26  -0.26  38.1179910439
0.26  -0.24  45.3469378533
0.26  -0.22  53.9468297346
0.26  -0.2  47.383275884
0.26  -0.18  47.3835519075
0.26  -0.16  47.2987987693
0.26  -0.14  47.1377887294
0.26  -0.12  46.9173112618
0.26  -0.1  46.6606252604
0.26  -0.08  46.3952085483
0.26  -0.06  46.1499364213
0.26  -0.04  45.9519217798
0.26  -0.02  45.8233615192
0.26  6.17561557e-16  45.7788170161
0.26  0.02  45.8233615192
0.26  0.04  45.9519217798
0.26  0.06  46.1499364213
0.26  0.08  46.3952085483
0.26  0.1  46.6606252604
0.26  0.12  46.9173112618
0.26  0.14  47.1377887294
0.26  0.16  47.2987987693
0.26  0.18  47.3835519075
0.26  0.2  64.1776617382
0.26  0.22  53.9468297346
0.26  0.24  45.3469378533
0.26  0.26  38.1179910439
0.26  0.28  32.0414411646
0.26  0.3  26.9335797557
0.26  0.32  22.6399840983
0.26  0.34  19.0308486515
0.26  0.36  15.9970607233
0.26  0.38  13.4469017368
0.26  0.4  11.3032743607
0.26  0.42  9.50137167457
0.26  0.44  7.98671790293
0.26  0.46  6.71352148362
0.26  0.48  5.64329068069
0.26  0.5  4.74366988838
0.26  0.52  3.98746144459
0.26  0.54  3.3518033814
0.26  0.56  2.81747825369
0.26  0.58  2.36833215041
0.26  0.6  1.99078632366
0.26  0.62  1.67342667109
0.26  0.64  1.40665866056
0.26  0.66  1.18241726483
0.26  0.68  0.993923136702
0.26  0.7  0.835477653324
0.26  0.72  0.702290633379
0.26  0.74  0.590335518574
0.26  0.76  0.496227641273
0.26  0.78  0.417121897999
0.26  0.8  0.350626735229
0.26  0.82  0.294731847086
0.26  0.84  0.24774739904
0.26  0.86  0.208252940216
0.26  0.88  0.175054459812
0.26  0.9  0.147148289327
0.26  0.92  0.123690759293
0.26  0.94  0.103972693155
0.26  0.96  0.087397967186
0.26  0.98  0.0734654882592
0.28  -1  0.0535199551885
0.28  -0.98  0.0636698318925
0.28  -0.96  0.0757445980464
0.28  -0.94  0.0901093023601
0.28  -0.92  0.107198223784
0.28  -0.9  0.127528000789
0.28  -0.88  0.151713250567
0.28  -0.86  0.180485150359
0.28  -0.84  0.214713542678
0.28  -0.82  0.255433232692
0.28  -0.8  0.303875272839
0.28  -0.78  0.361504180446
0.28  -0.76  0.43006221355
0.28  -0.74  0.511622043471
0.28  -0.72  0.608649416569
0.28  -0.7  0.724077699578
0.28  -0.68  0.861396562214
0.28  -0.66  1.02475747814
0.28  -0.64  1.2190992338
0.28  -0.62  1.45029723966
0.28  -0.6  1.72534115766
0.28  -0.58  2.05254621531
0.28  -0.56  2.44180459457
0.28  -0.54  2.90488449594
0.28  -0.52  3.45578591895
0.28  -0.5  4.11116391524
0.28  -0.48  4.89083211007
0.28  -0.46  5.8183617151
0.28  -0.44  6.92179414174
0.28  -0.42  8.23448875932
0.28  -0.4  9.79613142761
0.28  -0.38  11.6539342941
0.28  -0.36  13.864063129
0.28  -0.34  16.4933353487
0.28  -0.32  19.6212400645
0.28  -0.3  23.3423412264
0.28  -0.28  27.7691365141
0.28  -0.26  33.0354584085
0.28  -0.24  39.3005202629
0.28  -0.22  46.7537296998
0.28  -0.2  41.0653394068
0.28  -0.18  41.0655786262
0.28  -0.16  40.9921262039
0.28  -0.14  40.8525847347
0.28  -0.12  40.6615050368
0.28  -0.1  40.4390447369
0.28  -0.08  40.2090178516
0.28  -0.06  39.996449536
0.28  -0.04  39.8248375419
0.28  -0.02  39.7134191007
0.28  6.17561557e-16  39.6748140211
0.28  0.02  39.7134191007
0.28  0.04  39.8248375419
0.28  0.06  39.996449536
0.28  0.08  40.2090178516
0.28  0.1  40.4390447369
0.28  0.12  40.6615050368
0.28  0.14  40.8525847347
0.28  0.16  40.9921262039
0.28  0.18  41.0655786262
0.28  0.2  55.6204148499
0.28  0.22  46.7537296998
0.28  0.24  39.300520263
0.28  0.26  33.0354584085
0.28  0.28  27.7691365141
0.28  0.3  23.3423412264
0.28  0.32  19.6212400645
0.28  0.34  16.4933353487
0.28  0.36  13.864063129
0.28  0.38  11.6539342941
0.28  0.4  9.79613142761
0.28  0.42  8.23448875932
0.28  0.44  6.92179414174
0.28  0.46  5.8183617151
0.28  0.48  4.89083211007
0.28  0.5  4.11116391524
0.28  0.52  3.45578591895
0.28  0.54  2.90488449594
0.28  0.56  2.44180459457
0.28  0.58  2.05254621531
0.28  0.6  1.72534115767
0.28  0.62  1.45029723966
0.28  0.64  1.2190992338
0.28  0.66  1.02475747814
0.28  0.68  0.861396562214
0.28  0.7  0.724077699578
0.28  0.72  0.608649416569
0.28  0.74  0.511622043471
0.28  0.76  0.43006221355
0.28  0.78  0.361504180447
0.28  0.8  0.303875272839
0.28  0.82  0.255433232692
0.28  0.84  0.214713542678
0.28  0.86  0.18048515036
0.28  0.88  0.151713250567
0.28  0.9  0.127528000789
0.28  0.92  0.107198223784
0.28  0.94  0.0901093023601
0.28  0.96  0.0757445980464
0.28  0.98  0.0636698318925
0.3  -1  0.0443318872458
0.3  -0.98  0.0527392782464
0.3  -0.96  0.0627411022347
0.3  -0.94  0.0746397379811
0.3  -0.92  0.088794909357
0.3  -0.9  0.105634560637
0.3  -0.88  0.125667794267
0.3  -0.86  0.149500262231
0.3  -0.84  0.177852476345
0.3  -0.82  0.211581591028
0.3  -0.8  0.251707317109
0.3  -0.78  0.299442750092
0.3  -0.76  0.3562310449
0.3  -0.74  0.423789045857
0.3  -0.72  0.504159190951
0.3  -0.7  0.599771259558
0.3  -0.68  0.713515830414
0.3  -0.66  0.848831670637
0.3  -0.64  1.00980969779
0.3  -0.62  1.20131665796
0.3  -0.6  1.42914225905
0.3  -0.58  1.70017420724
0.3  -0.56  2.02260643869
0.3  -0.54  2.40618684157
0.3  -0.52  2.86251195774
0.3  -0.5  3.40537757361
0.3  -0.48  4.05119579937
0.3  -0.46  4.81949124585
0.3  -0.44  5.73349129964
0.3  -0.42  6.82082834187
0.3  -0.4  8.11437514035
0.3  -0.38  9.65323867105
0.3  -0.36  11.4839424144
0.3  -0.34  13.6618328698
0.3  -0.32  16.2527528115
0.3  -0.3  19.3350318709
0.3  -0.28  23.0018546264
0.3  -0.26  27.3640777934
0.3  -0.24  32.5535816849
0.3  -0.22  38.7272572646
0.3  -0.2  34.015424525
0.3  -0.18  34.0156226763
0.3  -0.16  33.9547802393
0.3  -0.14  33.839194629
0.3  -0.12  33.6809186441
0.3  -0.1  33.4966493393
0.3  -0.08  33.3061124469
0.3  -0.06  33.1300369146
0.3  -0.04  32.9878865046
0.3  -0.02  32.8955958861
0.3  6.17561557e-16  32.8636183549
0.3  0.02  32.8955958861
0.3  0.04  32.9878865046
0.3  0.06  33.1300369146
0.3  0.08  33.3061124469
0.3  0.1  33.4966493393
0.3  0.12  33.6809186441
0.3  0.14  33.839194629
0.3  0.16  33.9547802393
0.3  0.18  34.0156226763
0.3  0.2  46.0717493318
0.3  0.22  38.7272572646
0.3  0.24  32.5535816849
0.3  0.26  27.3640777934
0.3  0.28  23.0018546264
0.3  0.3  19.3350318709
0.3  0.32  16.2527528115
0.3  0.34  13.6618328698
0.3  0.36  11.4839424144
0.3  0.38  9.65323867105
0.3  0.4  8.11437514035
0.3  0.42  6.82082834187
0.3  0.44  5.73349129964
0.3  0.46  4.81949124585
0.3  0.48  4.05119579937
0.3  0.5  3.40537757361
0.3  0.52  2.86251195774
0.3  0.54  2.40618684157
0.3  0.56  2.02260643869
0.3  0.58  1.70017420724
0.3  0.6  1.42914225905
0.3  0.62  1.20131665796
0.3  0.64  1.00980969779
0.3  0.66  0.848831670637
0.3  0.68  0.713515830414
0.3  0.7  0.599771259559
0.3  0.72  0.504159190951
0.3  0.74  0.423789045857
0.3  0.76  0.3562310449
0.3  0.78  0.299442750092
0.3  0.8  0.251707317109
0.3  0.82  0.211581591028
0.3  0.84  0.177852476345
0.3  0.86  0.149500262231
0.3  0.88  0.125667794267
0.3  0.9  0.105634560637
0.3  0.92  0.088794909357
0.3  0.94  0.0746397379811
0.3  0.96  0.0627411022347
0.3  0.98  0.0527392782464
0.32  -1  0.0356907287014
0.32  -0.98  0.0424593534979
0.32  -0.96  0.0505116248688
0.32  -0.94  0.0600909820026
0.32  -0.92  0.0714870314985
0.32  -0.9  0.085044302858
0.32  -0.88  0.101172664426
0.32  -0.86  0.120359714679
0.32  -0.84  0.143185523479
0.32  -0.82  0.170340168956
0.32  -0.8  0.202644600202
0.32  -0.78  0.241075456497
0.32  -0.76  0.286794593428
0.32  -0.74  0.341184208524
0.32  -0.72  0.405888628355
0.32  -0.7  0.482864020409
0.32  -0.68  0.574437532656
0.32  -0.66  0.683377648731
0.32  -0.64  0.812977885735
0.32  -0.62  0.967156365037
0.32  -0.6  1.15057426634
0.32  -0.58  1.36877674616
0.32  -0.56  1.62836058101
0.32  -0.54  1.93717360353
0.32  -0.52  2.30455196102
0.32  -0.5  2.74160236923
0.32  -0.48  3.26153789461
0.32  -0.46  3.88007741653
0.32  -0.44  4.61592084616
0.32  -0.42  5.49131446894
0.32  -0.4  6.53272350238
0.32  -0.38  7.77163220208
0.32  -0.36  9.24549570517
0.32  -0.34  10.9988723876
0.32  -0.32  13.0847709693
0.32  -0.3  15.5662530926
0.32  -0.28  18.518339825
0.32  -0.26  22.0302797234
0.32  -0.24  26.2082470284
0.32  -0.22  31.178551563
0.32  -0.2  27.3851478881
0.32  -0.18  27.3853074158
0.32  -0.16  27.3363243689
0.32  -0.14  27.2432686721
0.32  -0.12  27.115843796
0.32  -0.1  26.9674922105
0.32  -0.08  26.8140947136
0.32  -0.06  26.6723397727
0.32  -0.04  26.5578972793
0.32  -0.02  26.4835959212
0.32  6.17561557e-16  26.457851441
0.32  0.02  26.4835959212
0.32  0.04  26.5578972793
0.32  0.06  26.6723397727
0.32  0.08  26.8140947136
0.32  0.1  26.9674922105
0.32  0.12  27.115843796
0.32  0.14  27.2432686721
0.32  0.16  27.3363243689
0.32  0.18  27.3853074158
0.32  0.2  37.0914573766
0.32  0.22  31.178551563
0.32  0.24  26.2082470284
0.32  0.26  22.0302797234
0.32  0.28  18.518339825
0.32  0.3  15.5662530926
0.32  0.32  13.0847709693
0.32  0.34  10.9988723877
0.32  0.36  9.24549570518
0.32  0.38  7.77163220208
0.32  0.4  6.53272350238
0.32  0.42  5.49131446895
0.32  0.44  4.61592084616
0.32  0.46  3.88007741653
0.32  0.48  3.26153789461
0.32  0.5  2.74160236923
0.32  0.52  2.30455196102
0.32  0.54  1.93717360354
0.32  0.56  1.62836058101
0.32  0.58  1.36877674616
0.32  0.6  1.15057426634
0.32  0.62  0.967156365037
0.32  0.64  0.812977885736
0.32  0.66  0.683377648731
0.32  0.68  0.574437532656
0.32  0.7  0.482864020409
0.32  0.72  0.405888628355
0.32  0.74  0.341184208524
0.32  0.76  0.286794593428
0.32  0.78  0.241075456497
0.32  0.8  0.202644600202
0.32  0.82  0.170340168956
0.32  0.84  0.143185523479
0.32  0.86  0.120359714679
0.32  0.88  0.101172664426
0.32  0.9  0.0850443028581
0.32  0.92  0.0714870314985
0.32  0.94  0.0600909820026
0.32  0.96  0.0505116248688
0.32  0.98  0.0424593534979
0.34  -1  0.0287339022626
0.34  -0.98  0.034183188686
0.34  -0.96  0.0406659136676
0.34  -0.94  0.0483780653001
0.34  -0.92  0.0575528001489
0.34  -0.9  0.0684674921254
0.34  -0.88  0.0814521181561
0.34  -0.86  0.0968992341646
0.34  -0.84  0.115275842964
0.34  -0.82  0.137137512858
0.34  -0.8  0.163145173778
0.34  -0.78  0.194085098762
0.34  -0.76  0.230892674844
0.34  -0.74  0.274680682013
0.34  -0.72  0.326772935185
0.34  -0.7  0.388744306249
0.34  -0.68  0.462468336172
0.34  -0.66  0.550173876565
0.34  -0.64  0.654512473136
0.34  -0.62  0.778638528177
0.34  -0.6  0.926304665604
0.34  -0.58  1.10197518164
0.34  -0.56  1.31096101104
0.34  -0.54  1.55958028919
0.34  -0.52  1.85534936429
0.34  -0.5  2.20721003428
0.34  -0.48  2.62579987855
0.34  -0.46  3.12377385709
0.34  -0.44  3.71618689983
0.34  -0.42  4.42094905273
0.34  -0.4  5.25936694082
0.34  -0.38  6.25678791777
0.34  -0.36  7.4433663763
0.34  -0.34  8.85497538673
0.34  -0.32  10.5342912246
0.34  -0.3  12.5320835755
0.34  -0.28  14.9087504222
0.34  -0.26  17.7361440189
0.34  -0.24  21.0997431543
0.34  -0.22  25.1012373773
0.34  -0.2  22.0472428413
0.34  -0.18  22.0473712739
0.34  -0.16  22.0079359882
0.34  -0.14  21.9330186807
0.34  -0.12  21.8304314244
0.34  -0.1  21.7109964867
0.34  -0.08  21.5874991852
0.34  -0.06  21.4733750761
0.34  -0.04  21.3812396801
0.34  -0.02  21.3214211211
0.34  6.17561557e-16  21.3006947475
0.34  0.02  21.3214211211
0.34  0.04  21.3812396801
0.34  0.06  21.4733750761
0.34  0.08  21.5874991852
0.34  0.1  21.7109964867
0.34  0.12  21.8304314244
0.34  0.14  21.9330186807
0.34  0.16  22.0079359882
0.34  0.18  22.0473712739
0.34  0.2  29.8616013125
0.34  0.22  25.1012373773
0.34  0.24  21.0997431543
0.34  0.26  17.7361440189
0.34  0.28  14.9087504222
0.34  0.3  12.5320835755
0.34  0.32  10.5342912246
0.34  0.34  8.85497538674
0.34  0.36  7.4433663763
0.34  0.38  6.25678791777
0.34  0.4  5.25936694082
0.34  0.42  4.42094905274
0.34  0.44  3.71618689983
0.34  0.46  3.12377385709
0.34  0.48  2.62579987855
0.34  0.5  2.20721003428
0.34  0.52  1.85534936429
0.34  0.54  1.55958028919
0.34  0.56  1.31096101104
0.34  0.58  1.10197518164
0.34  0.6  0.926304665605
0.34  0.62  0.778638528177
0.34  0.64  0.654512473136
0.34  0.66  0.550173876565
0.34  0.68  0.462468336172
0.34  0.7  0.388744306249
0.34  0.72  0.326772935185
0.34  0.74  0.274680682014
0.34  0.76  0.230892674844
0.34  0.78  0.194085098762
0.34  0.8  0.163145173778
0.34  0.82  0.137137512858
0.34  0.84  0.115275842964
0.34  0.86  0.0968992341646
0.34  0.88  0.0814521181562
0.34  0.9  0.0684674921254
0.34  0.92  0.0575528001489
0.34  0.94  0.0483780653001
0.34  0.96  0.0406659136676
0.34  0.98  0.034183188686
0.36  -1  0.0231330984062
0.36  -0.98  0.0275202115078
0.36  -0.96  0.0327393256249
0.36  -0.94  0.0389482269084
0.36  -0.92  0.0463346251138
0.36  -0.9  0.0551218285106
0.36  -0.88  0.0655754950189
0.36  -0.86  0.078011663676
0.36  -0.84  0.0928063092431
0.36  -0.82  0.110406708811
0.36  -0.8  0.131344964043
0.36  -0.78  0.156254087864
0.36  -0.76  0.185887141941
0.36  -0.74  0.221140003513
0.36  -0.72  0.263078449875
0.36  -0.7  0.312970379348
0.36  -0.68  0.372324142841
0.36  -0.66  0.442934144857
0.36  -0.64  0.526935092586
0.36  -0.62  0.626866533147
0.36  -0.6  0.745749630094
0.36  -0.58  0.887178500332
0.36  -0.56  1.05542887276
0.36  -0.54  1.25558735366
0.36  -0.52  1.49370520682
0.36  -0.5  1.77698129754
0.36  -0.48  2.11397973133
0.36  -0.46  2.51488876708
0.36  -0.44  2.99182883215
0.36  -0.42  3.55921895157
0.36  -0.4  4.23421266921
0.36  -0.38  5.03721663996
0.36  -0.36  5.99250757111
0.36  -0.34  7.12896616454
0.36  -0.32  8.48095024865
0.36  -0.3  10.0893334966
0.36  -0.28  12.0027411341
0.36  -0.26  14.2790199948
0.36  -0.24  16.9869873668
0.36  -0.22  20.2085115018
0.36  -0.2  17.7498006909
0.36  -0.18  17.7499040894
0.36  -0.16  17.7181555181
0.36  -0.14  17.6578410704
0.36  -0.12  17.5752500922
0.36  -0.1  17.4790953777
0.36  -0.08  17.3796701343
0.36  -0.06  17.2877910633
0.36  -0.04  17.2136146718
0.36  -0.02  17.1654559289
0.36  6.17561557e-16  17.148769534
0.36  0.02  17.1654559289
0.36  0.04  17.2136146718
0.36  0.06  17.2877910633
0.36  0.08  17.3796701343
0.36  0.1  17.4790953777
0.36  0.12  17.5752500922
0.36  0.14  17.6578410704
0.36  0.16  17.7181555181
0.36  0.18  17.7499040894
0.36  0.2  24.0409866859
0.36  0.22  20.2085115018
0.36  0.24  16.9869873668
0.36  0.26  14.2790199948
0.36  0.28  12.0027411341
0.36  0.3  10.0893334966
0.36  0.32  8.48095024865
0.36  0.34  7.12896616454
0.36  0.36  5.99250757111
0.36  0.38  5.03721663996
0.36  0.4  4.23421266921
0.36  0.42  3.55921895157
0.36  0.44  2.99182883215
0.36  0.46  2.51488876708
0.36  0.48  2.11397973133
0.36  0.5  1.77698129754
0.36  0.52  1.49370520682
0.36  0.54  1.25558735366
0.36  0.56  1.05542887276
0.36  0.58  0.887178500332
0.36  0.6  0.745749630095
0.36  0.62  0.626866533147
0.36  0.64  0.526935092586
0.36  0.66  0.442934144857
0.36  0.68  0.372324142841
0.36  0.7  0.312970379349
0.36  0.72  0.263078449875
0.36  0.74  0.221140003513
0.36  0.76  0.185887141942
0.36  0.78  0.156254087864
0.36  0.8  0.131344964043
0.36  0.82  0.110406708811
0.36  0.84  0.0928063092432
0.36  0.86  0.078011663676
0.36  0.88  0.0655754950189
0.36  0.9  0.0551218285106
0.36  0.92  0.0463346251138
0.36  0.94  0.0389482269084
0.36  0.96  0.0327393256249
0.36  0.98  0.0275202115078
0.38  -1  0.0186240016054
0.38  -0.98  0.0221559798996
0.38  -0.96  0.0263577858138
0.38  -0.94  0.0313564498683
0.38  -0.92  0.0373030934877
0.38  -0.9  0.0443774977589
0.38  -0.88  0.0527935386374
0.38  -0.86  0.0628056529236
0.38  -0.84  0.0747165304877
0.38  -0.82  0.0888862653002
0.38  -0.8  0.105743241923
0.38  -0.78  0.125797086588
0.38  -0.76  0.149654074399
0.38  -0.74  0.178035458465
0.38  -0.72  0.211799275082
0.38  -0.7  0.2519662842
0.38  -0.68  0.299750829407
0.38  -0.66  0.356597550405
0.38  -0.64  0.424225057879
0.38  -0.62  0.504677891164
0.38  -0.6  0.600388329495
0.38  -0.58  0.714249925556
0.38  -0.56  0.849704984416
0.38  -0.54  1.01084863254
0.38  -0.52  1.20255262315
0.38  -0.5  1.43061262081
0.38  -0.48  1.70192341808
0.38  -0.46  2.0246873814
0.38  -0.44  2.40866242795
0.38  -0.42  2.86545703062
0.38  -0.4  3.40888116951
0.38  -0.38  4.05536384026
0.38  -0.36  4.82444974146
0.38  -0.34  5.73939015701
0.38  -0.32  6.82784589739
0.38  -0.3  8.1227235513
0.38  -0.28  9.66317032963
0.38  -0.26  11.4957575781
0.38  -0.24  13.675888739
0.38  -0.22  16.2694743283
0.38  -0.2  14.2900147122
0.38  -0.18  14.2900979564
0.38  -0.16  14.2645378073
0.38  -0.14  14.2159798342
0.38  -0.12  14.1494874653
0.38  -0.1  14.0720751998
0.38  -0.08  13.9920298958
0.38  -0.06  13.9180598666
0.38  -0.04  13.8583419157
0.38  -0.02  13.8195702609
0.38  6.17561557e-16  13.8061363733
0.38  0.02  13.8195702609
0.38  0.04  13.8583419157
0.38  0.06  13.9180598666
0.38  0.08  13.9920298958
0.38  0.1  14.0720751998
0.38  0.12  14.1494874653
0.38  0.14  14.2159798342
0.38  0.16  14.2645378073
0.38  0.18  14.2900979564
0.38  0.2  19.3549245662
0.38  0.22  16.2694743283
0.38  0.24  13.675888739
0.38  0.26  11.4957575781
0.38  0.28  9.66317032963
0.38  0.3  8.12272355131
0.38  0.32  6.82784589739
0.38  0.34  5.73939015701
0.38  0.36  4.82444974146
0.38  0.38  4.05536384026
0.38  0.4  3.40888116951
0.38  0.42  2.86545703062
0.38  0.44  2.40866242795
0.38  0.46  2.0246873814
0.38  0.48  1.70192341808
0.38  0.5  1.43061262081
0.38  0.52  1.20255262315
0.38  0.54  1.01084863254
0.38  0.56  0.849704984416
0.38  0.58  0.714249925556
0.38  0.6  0.600388329495
0.38  0.62  0.504677891165
0.38  0.64  0.424225057879
0.38  0.66  0.356597550405
0.38  0.68  0.299750829407
0.38  0.7  0.2519662842
0.38  0.72  0.211799275082
0.38  0.74  0.178035458465
0.38  0.76  0.149654074399
0.38  0.78  0.125797086588
0.38  0.8  0.105743241923
0.38  0.82  0.0888862653002
0.38  0.84  0.0747165304877
0.38  0.86  0.0628056529236
0.38  0.88  0.0527935386374
0.38  0.9  0.0443774977589
0.38  0.92  0.0373030934878
0.38  0.94  0.0313564498683
0.38  0.96  0.0263577858138
0.38  0.98  0.0221559798996
0.4  -1  0.0149938166392
0.4  -0.98  0.0178373427534
0.4  -0.96  0.0212201338832
0.4  -0.94  0.0252444597967
0.4  -0.92  0.0300319853746
0.4  -0.9  0.0357274488266
0.4  -0.88  0.0425030374694
0.4  -0.86  0.0505635933562
0.4  -0.84  0.0601528061361
0.4  -0.82  0.0715605803678
0.4  -0.8  0.0851318000193
0.4  -0.78  0.101276755125
0.4  -0.76  0.120483545824
0.4  -0.74  0.143332838777
0.4  -0.72  0.170515422098
0.4  -0.7  0.202853089503
0.4  -0.68  0.241323485082
0.4  -0.66  0.287089659786
0.4  -0.64  0.341535233209
0.4  -0.62  0.406306223673
0.4  -0.6  0.483360811253
0.4  -0.58  0.575028538187
0.4  -0.56  0.684080736443
0.4  -0.54  0.81381431163
0.4  -0.52  0.968151416246
0.4  -0.5  1.15175802561
0.4  -0.48  1.37018500134
0.4  -0.46  1.63003590697
0.4  -0.44  1.93916664934
0.4  -0.42  2.30692298116
0.4  -0.4  2.74442304524
0.4  -0.38  3.26489350218
0.4  -0.36  3.88406940362
0.4  -0.34  4.62066989997
0.4  -0.32  5.49696416459
0.4  -0.3  6.53944464351
0.4  -0.28  7.77962798466
0.4  -0.26  9.25500786062
0.4  -0.24  11.0101884909
0.4  -0.22  13.0982331329
0.4  -0.2  11.5046092084
0.4  -0.18  11.5046762266
0.4  -0.16  11.4840982544
0.4  -0.14  11.4450051872
0.4  -0.12  11.3914734915
0.4  -0.1  11.3291504022
0.4  -0.08  11.2647075056
0.4  -0.06  11.2051556929
0.4  -0.04  11.1570779476
0.4  -0.02  11.1258636525
0.4  6.17561557e-16  11.1150482943
0.4  0.02  11.1258636525
0.4  0.04  11.1570779476
0.4  0.06  11.2051556929
0.4  0.08  11.2647075056
0.4  0.1  11.3291504022
0.4  0.12  11.3914734915
0.4  0.14  11.4450051872
0.4  0.16  11.4840982544
0.4  0.18  11.5046762266
0.4  0.2  15.5822683095
0.4  0.22  13.0982331329
0.4  0.24  11.0101884909
0.4  0.26  9.25500786062
0.4  0.28  7.77962798466
0.4  0.3  6.53944464351
0.4  0.32  5.49696416459
0.4  0.34  4.62066989997
0.4  0.36  3.88406940362
0.4  0.38  3.26489350218
0.4  0.4  2.74442304524
0.4  0.42  2.30692298116
0.4  0.44  1.93916664934
0.4  0.46  1.63003590697
0.4  0.48  1.37018500134
0.4  0.5  1.15175802561
0.4  0.52  0.968151416247
0.4  0.54  0.813814311631
0.4  0.56  0.684080736443
0.4  0.58  0.575028538187
0.4  0.6  0.483360811253
0.4  0.62  0.406306223673
0.4  0.64  0.34153523321
0.4  0.66  0.287089659786
0.4  0.68  0.241323485082
0.4  0.7  0.202853089503
0.4  0.72  0.170515422098
0.4  0.74  0.143332838777
0.4  0.76  0.120483545824
0.4  0.78  0.101276755125
0.4  0.8  0.0851318000193
0.4  0.82  0.0715605803678
0.4  0.84  0.0601528061362
0.4  0.86  0.0505635933562
0.4  0.88  0.0425030374694
0.4  0.9  0.0357274488266
0.4  0.92  0.0300319853746
0.4  0.94  0.0252444597967
0.4  0.96  0.0212201338832
0.4  0.98  0.0178373427534
0.42  -1  0.0120712262689
0.42  -0.98  0.0143604931014
0.42  -0.96  0.0170839115698
0.42  -0.94  0.0203238170489
0.42  -0.92  0.0241781595362
0.42  -0.9  0.0287634649117
0.42  -0.88  0.0342183577905
0.42  -0.86  0.0407077524726
0.42  -0.84  0.0484278386916
0.42  -0.82  0.0576120128941
0.42  -0.8  0.0685379343655
0.42  -0.78  0.0815359195264
0.42  -0.76  0.0969989281785
0.42  -0.74  0.115394443607
0.42  -0.72  0.137278605708
0.42  -0.7  0.163313024405
0.42  -0.68  0.194284781687
0.42  -0.66  0.231130226954
0.42  -0.64  0.27496328507
0.42  -0.62  0.327109132946
0.42  -0.6  0.389144262767
0.42  -0.58  0.462944143077
0.42  -0.56  0.550739918625
0.42  -0.54  0.655185863139
0.42  -0.52  0.779439624295
0.42  -0.5  0.927257686864
0.42  -0.48  1.10310894013
0.42  -0.46  1.31230978295
0.42  -0.44  1.56118485109
0.42  -0.42  1.85725822587
0.42  -0.4  2.20948090494
0.42  -0.38  2.62850141207
0.42  -0.36  3.12698772722
0.42  -0.34  3.72001026945
0.42  -0.32  4.42549751135
0.42  -0.3  5.26477799908
0.42  -0.28  6.26322516474
0.42  -0.26  7.45102442518
0.42  -0.24  8.86408575842
0.42  -0.22  10.5451293472
0.42  -0.2  9.26213413373
0.42  -0.18  9.26218808878
0.42  -0.16  9.2456211689
0.42  -0.14  9.21414811098
0.42  -0.12  9.17105079784
0.42  -0.1  9.12087570694
0.42  -0.08  9.06899400094
0.42  -0.06  9.02105001021
0.42  -0.04  8.98234356504
0.42  -0.02  8.95721355122
0.42  6.17561557e-16  8.9485063195
0.42  0.02  8.95721355122
0.42  0.04  8.98234356504
0.42  0.06  9.02105001021
0.42  0.08  9.06899400094
0.42  0.1  9.12087570694
0.42  0.12  9.17105079784
0.42  0.14  9.21414811098
0.42  0.16  9.2456211689
0.42  0.18  9.26218808878
0.42  0.2  12.544977111
0.42  0.22  10.5451293472
0.42  0.24  8.86408575842
0.42  0.26  7.45102442518
0.42  0.28  6.26322516475
0.42  0.3  5.26477799908
0.42  0.32  4.42549751135
0.42  0.34  3.72001026945
0.42  0.36  3.12698772722
0.42  0.38  2.62850141207
0.42  0.4  2.20948090494
0.42  0.42  1.85725822587
0.42  0.44  1.56118485109
0.42  0.46  1.31230978295
0.42  0.48  1.10310894013
0.42  0.5  0.927257686865
0.42  0.52  0.779439624295
0.42  0.54  0.655185863139
0.42  0.56  0.550739918625
0.42  0.58  0.462944143078
0.42  0.6  0.389144262767
0.42  0.62  0.327109132946
0.42  0.64  0.27496328507
0.42  0.66  0.231130226954
0.42  0.68  0.194284781687
0.42  0.7  0.163313024405
0.42  0.72  0.137278605708
0.42  0.74  0.115394443607
0.42  0.76  0.0969989281785
0.42  0.78  0.0815359195264
0.42  0.8  0.0685379343655
0.42  0.82  0.0576120128941
0.42  0.84  0.0484278386916
0.42  0.86  0.0407077524726
0.42  0.88  0.0342183577905
0.42  0.9  0.0287634649117
0.42  0.92  0.0241781595362
0.42  0.94  0.0203238170489
0.42  0.96  0.0170839115698
0.42  0.98  0.0143604931014
0.44  -1  0.00971830636188
0.44  -0.98  0.0115613499705
0.44  -0.96  0.0137539205046
0.44  -0.94  0.0163623045518
0.44  -0.92  0.0194653597245
0.44  -0.9  0.0231568987123
0.44  -0.88  0.0275485254606
0.44  -0.86  0.0327730092222
0.44  -0.84  0.0389882984849
0.44  -0.82  0.0463822961279
0.44  -0.8  0.0551785401698
0.44  -0.78  0.0656429618505
0.44  -0.76  0.0780919253618
0.44  -0.74  0.0929017922835
0.44  -0.72  0.110520299884
0.44  -0.7  0.131480097274
0.44  -0.68  0.156414848652
0.44  -0.66  0.186078390464
0.44  -0.64  0.221367521664
0.44  -0.62  0.263349116066
0.44  -0.6  0.313292376458
0.44  -0.58  0.372707205603
0.44  -0.56  0.443389854163
0.44  -0.54  0.527477225606
0.44  -0.52  0.627511479843
0.44  -0.5  0.746516888728
0.44  -0.48  0.888091266945
0.44  -0.46  1.05651474244
0.44  -0.44  1.25687915482
0.44  -0.42  1.49524199366
0.44  -0.4  1.77880953075
0.44  -0.38  2.11615468273
0.44  -0.36  2.51747619058
0.44  -0.34  2.99490695168
0.44  -0.32  3.56288082595
0.44  -0.3  4.23856900557
0.44  -0.28  5.04239914063
0.44  -0.26  5.99867291533
0.44  -0.24  7.13630074524
0.44  -0.22  8.48967580752
0.44  -0.2  7.45676164722
0.44  -0.18  7.45680508536
0.44  -0.16  7.44346738467
0.44  -0.14  7.41812904603
0.44  -0.12  7.38343224861
0.44  -0.1  7.34303727181
0.44  -0.08  7.30126833283
0.44  -0.06  7.2626695708
0.44  -0.04  7.23150777464
0.44  -0.02  7.2112760958
0.44  6.17561557e-16  7.20426607515
0.44  0.02  7.2112760958
0.44  0.04  7.23150777464
0.44  0.06  7.2626695708
0.44  0.08  7.30126833283
0.44  0.1  7.34303727181
0.44  0.12  7.38343224861
0.44  0.14  7.41812904603
0.44  0.16  7.44346738467
0.44  0.18  7.45680508536
0.44  0.2  10.0997138279
0.44  0.22  8.48967580752
0.44  0.24  7.13630074524
0.44  0.26  5.99867291533
0.44  0.28  5.04239914063
0.44  0.3  4.23856900557
0.44  0.32  3.56288082595
0.44  0.34  2.99490695168
0.44  0.36  2.51747619058
0.44  0.38  2.11615468273
0.44  0.4  1.77880953075
0.44  0.42  1.49524199366
0.44  0.44  1.25687915482
0.44  0.46  1.05651474244
0.44  0.48  0.888091266945
0.44  0.5  0.746516888728
0.44  0.52  0.627511479843
0.44  0.54  0.527477225606
0.44  0.56  0.443389854163
0.44  0.58  0.372707205603
0.44  0.6  0.313292376458
0.44  0.62  0.263349116066
0.44  0.64  0.221367521664
0.44  0.66  0.186078390464
0.44  0.68  0.156414848652
0.44  0.7  0.131480097274
0.44  0.72  0.110520299884
0.44  0.74  0.0929017922835
0.44  0.76  0.0780919253618
0.44  0.78  0.0656429618505
0.44  0.8  0.0551785401698
0.44  0.82  0.0463822961279
0.44  0.84  0.0389882984849
0.44  0.86  0.0327730092222
0.44  0.88  0.0275485254606
0.44  0.9  0.0231568987123
0.44  0.92  0.0194653597245
0.44  0.94  0.0163623045518
0.44  0.96  0.0137539205046
0.44  0.98  0.0115613499705
0.46  -1  0.00782401691758
0.46  -0.98  0.00930781500305
0.46  -0.96  0.0110730103275
0.46  -0.94  0.0131729689162
0.46  -0.92  0.0156711774789
0.46  -0.9  0.0186431627628
0.46  -0.88  0.022178774905
0.46  -0.86  0.0263849038141
0.46  -0.84  0.0313887107048
0.46  -0.82  0.0373414724817
0.46  -0.8  0.044423155198
0.46  -0.78  0.0528478548539
0.46  -0.76  0.0628702700249
0.46  -0.74  0.0747934020016
0.46  -0.72  0.0889777152342
0.46  -0.7  0.105852035025
0.46  -0.68  0.125926511929
0.46  -0.66  0.149808044814
0.46  -0.64  0.178218628844
0.46  -0.62  0.212017183098
0.46  -0.6  0.252225517727
0.46  -0.58  0.300059225687
0.46  -0.56  0.356964432986
0.46  -0.54  0.424661518489
0.46  -0.52  0.505197125038
0.46  -0.5  0.6010060343
0.46  -0.48  0.714984775967
0.46  -0.46  0.850579196697
0.46  -0.44  1.0118886362
0.46  -0.42  1.20378985994
0.46  -0.4  1.43208449533
0.46  -0.38  1.70367442859
0.46  -0.36  2.02677046506
0.46  -0.34  2.41114056132
0.46  -0.32  2.86840513352
0.46  -0.3  3.41238837005
0.46  -0.28  4.05953616941
0.46  -0.26  4.82941333858
0.46  -0.24  5.74529508337
0.46  -0.22  6.83487067287
0.46  -0.2  6.00329183972
0.46  -0.18  6.00332681091
0.46  -0.16  5.99258889095
0.46  -0.14  5.9721894939
0.46  -0.12  5.94425578612
0.46  -0.1  5.91173458643
0.46  -0.08  5.87810723686
0.46  -0.06  5.84703213428
0.46  -0.04  5.82194438635
0.46  -0.02  5.80565626045
0.46  6.17561557e-16  5.80001263098
0.46  0.02  5.80565626045
0.46  0.04  5.82194438635
0.46  0.06  5.84703213428
0.46  0.08  5.87810723686
0.46  0.1  5.91173458643
0.46  0.12  5.94425578612
0.46  0.14  5.9721894939
0.46  0.16  5.99258889095
0.46  0.18  6.00332681091
0.46  0.2  8.13108055146
0.46  0.22  6.83487067287
0.46  0.24  5.74529508337
0.46  0.26  4.82941333858
0.46  0.28  4.05953616941
0.46  0.3  3.41238837005
0.46  0.32  2.86840513352
0.46  0.34  2.41114056132
0.46  0.36  2.02677046506
0.46  0.38  1.70367442859
0.46  0.4  1.43208449533
0.46  0.42  1.20378985994
0.46  0.44  1.0118886362
0.46  0.46  0.850579196697
0.46  0.48  0.714984775967
0.46  0.5  0.6010060343
0.46  0.52  0.505197125038
0.46  0.54  0.424661518489
0.46  0.56  0.356964432986
0.46  0.58  0.300059225687
0.46  0.6  0.252225517727
0.46  0.62  0.212017183098
0.46  0.64  0.178218628844
0.46  0.66  0.149808044814
0.46  0.68  0.125926511929
0.46  0.7  0.105852035025
0.46  0.72  0.0889777152342
0.46  0.74  0.0747934020016
0.46  0.76  0.062870270025
0.46  0.78  0.0528478548539
0.46  0.8  0.044423155198
0.46  0.82  0.0373414724817
0.46  0.84  0.0313887107048
0.46  0.86  0.0263849038141
0.46  0.88  0.022178774905
0.46  0.9  0.0186431627628
0.46  0.92  0.0156711774789
0.46  0.94  0.0131729689162
0.46  0.96  0.0110730103275
0.46  0.98  0.00930781500305
0.48  -1  0.00629896181979
0.48  -0.98  0.00749353841479
0.48  -0.96  0.00891466238096
0.48  -0.94  0.0106052976535
0.48  -0.92  0.012616556131
0.48  -0.9  0.0150092429094
0.48  -0.88  0.0178556945631
0.48  -0.86  0.0212419660508
0.48  -0.84  0.0252704323603
0.48  -0.82  0.0300628835462
0.48  -0.8  0.0357642067309
0.48  -0.78  0.0425467663847
0.48  -0.76  0.050615615311
0.48  -0.74  0.060214693877
0.48  -0.72  0.0716342049074
0.48  -0.7  0.0852193872012
0.48  -0.68  0.101380952917
0.48  -0.66  0.120607504371
0.48  -0.64  0.143480305639
0.48  -0.62  0.170690855547
0.48  -0.6  0.203061793306
0.48  -0.58  0.241571768849
0.48  -0.56  0.287385029722
0.48  -0.54  0.341886619044
0.48  -0.52  0.406724248632
0.48  -0.5  0.483858113217
0.48  -0.48  0.57562015177
0.48  -0.46  0.684784547521
0.48  -0.44  0.814651598076
0.48  -0.42  0.969147491206
0.48  -0.4  1.15294300279
0.48  -0.38  1.37159470539
0.48  -0.36  1.63171295658
0.48  -0.34  1.94116174568
0.48  -0.32  2.3092964407
0.48  -0.3  2.74724662327
0.48  -0.28  3.26825256215
0.48  -0.26  3.88806549784
0.48  -0.24  4.6254238398
0.48  -0.22  5.50261967288
0.48  -0.2  4.83313194358
0.48  -0.18  4.83316009819
0.48  -0.16  4.82451521047
0.48  -0.14  4.80809205794
0.48  -0.12  4.78560318035
0.48  -0.1  4.75942100342
0.48  -0.08  4.73234828703
0.48  -0.06  4.70733033439
0.48  -0.04  4.68713268298
0.48  -0.02  4.67401943383
0.48  6.17561557e-16  4.66947585898
0.48  0.02  4.67401943383
0.48  0.04  4.68713268298
0.48  0.06  4.70733033439
0.48  0.08  4.73234828703
0.48  0.1  4.75942100342
0.48  0.12  4.78560318035
0.48  0.14  4.80809205794
0.48  0.16  4.82451521047
0.48  0.18  4.83316009819
0.48  0.2  6.54617269963
0.48  0.22  5.50261967288
0.48  0.24  4.6254238398
0.48  0.26  3.88806549784
0.48  0.28  3.26825256215
0.48  0.3  2.74724662327
0.48  0.32  2.3092964407
0.48  0.34  1.94116174568
0.48  0.36  1.63171295658
0.48  0.38  1.37159470539
0.48  0.4  1.15294300279
0.48  0.42  0.969147491207
0.48  0.44  0.814651598076
0.48  0.46  0.684784547522
0.48  0.48  0.57562015177
0.48  0.5  0.483858113217
0.48  0.52  0.406724248632
0.48  0.54  0.341886619044
0.48  0.56  0.287385029722
0.48  0.58  0.241571768849
0.48  0.6  0.203061793306
0.48  0.62  0.170690855547
0.48  0.64  0.14348030564
0.48  0.66  0.120607504371
0.48  0.68  0.101380952917
0.48  0.7  0.0852193872013
0.48  0.72  0.0716342049074
0.48  0.74  0.060214693877
0.48  0.76  0.050615615311
0.48  0.78  0.0425467663847
0.48  0.8  0.0357642067309
0.48  0.82  0.0300628835462
0.48  0.84  0.0252704323603
0.48  0.86  0.0212419660508
0.48  0.88  0.0178556945631
0.48  0.9  0.0150092429094
0.48  0.92  0.012616556131
0.48  0.94  0.0106052976535
0.48  0.96  0.00891466238096
0.48  0.98  0.00749353841479
0.5  -1  0.00507117001729
0.5  -0.98  0.00603290009047
0.5  -0.96  0.00717701898725
0.5  -0.94  0.00853811612505
0.5  -0.92  0.0101573406862
0.5  -0.9  0.0120836456549
0.5  -0.88  0.0143752677817
0.5  -0.86  0.0171014882177
0.5  -0.84  0.020344727048
0.5  -0.82  0.0242030350452
0.5  -0.8  0.028793057976
0.5  -0.78  0.0342535630784
0.5  -0.76  0.0407496343231
0.5  -0.74  0.048477663292
0.5  -0.72  0.0576712865598
0.5  -0.7  0.0686084490795
0.5  -0.68  0.0816198071151
0.5  -0.66  0.0970987247618
0.5  -0.64  0.115513166272
0.5  -0.62  0.13741984372
0.5  -0.6  0.163481047724
0.5  -0.58  0.194484670055
0.5  -0.56  0.231368023468
0.5  -0.54  0.27524617888
0.5  -0.52  0.327445676601
0.5  -0.5  0.389544630777
0.5  -0.48  0.463420439513
0.5  -0.46  0.551306543053
0.5  -0.44  0.655859945954
0.5  -0.42  0.780241544614
0.5  -0.4  0.928211688633
0.5  -0.38  1.10424386507
0.5  -0.36  1.31365994254
0.5  -0.34  1.56279106383
0.5  -0.32  1.85916905137
0.5  -0.3  2.21175411197
0.5  -0.28  2.63120572505
0.5  -0.26  3.13020490391
0.5  -0.24  3.72383757272
0.5  -0.22  4.43005064961
0.5  -0.2  3.89105927343
0.5  -0.18  3.89108194015
0.5  -0.16  3.88412211143
0.5  -0.14  3.87090015501
0.5  -0.12  3.85279480288
0.5  -0.1  3.83171604825
0.5  -0.08  3.80992033785
0.5  -0.06  3.78977887725
0.5  -0.04  3.77351814616
0.5  -0.02  3.76296092772
0.5  6.17561557e-16  3.75930298515
0.5  0.02  3.76296092772
0.5  0.04  3.77351814616
0.5  0.06  3.78977887725
0.5  0.08  3.80992033785
0.5  0.1  3.83171604825
0.5  0.12  3.85279480288
0.5  0.14  3.87090015501
0.5  0.16  3.88412211143
0.5  0.18  3.89108194015
0.5  0.2  5.27019462446
0.5  0.22  4.43005064961
0.5  0.24  3.72383757272
0.5  0.26  3.13020490392
0.5  0.28  2.63120572505
0.5  0.3  2.21175411197
0.5  0.32  1.85916905137
0.5  0.34  1.56279106383
0.5  0.36  1.31365994254
0.5  0.38  1.10424386507
0.5  0.4  0.928211688633
0.5  0.42  0.780241544614
0.5  0.44  0.655859945955
0.5  0.46  0.551306543053
0.5  0.48  0.463420439513
0.5  0.5  0.389544630777
0.5  0.52  0.327445676601
0.5  0.54  0.27524617888
0.5  0.56  0.231368023468
0.5  0.58  0.194484670055
0.5  0.6  0.163481047724
0.5  0.62  0.13741984372
0.5  0.64  0.115513166272
0.5  0.66  0.0970987247618
0.5  0.68  0.0816198071151
0.5  0.7  0.0686084490795
0.5  0.72  0.0576712865598
0.5  0.74  0.0484776632921
0.5  0.76  0.0407496343231
0.5  0.78  0.0342535630784
0.5  0.8  0.028793057976
0.5  0.82  0.0242030350452
0.5  0.84  0.020344727048
0.5  0.86  0.0171014882177
0.5  0.88  0.0143752677817
0.5  0.9  0.0120836456549
0.5  0.92  0.0101573406862
0.5  0.94  0.00853811612506
0.5  0.96  0.00717701898725
0.5  0.98  0.00603290009047
0.52  -1  0.00408269903517
0.52  -0.98  0.00485696896272
0.52  -0.96  0.00577807653752
0.52  -0.94  0.00687386901782
0.52  -0.92  0.00817747479934
0.52  -0.9  0.00972830496485
0.52  -0.88  0.0115732447744
0.52  -0.86  0.0137680711174
0.52  -0.84  0.0163791387799
0.52  -0.82  0.0194853865066
0.52  -0.8  0.0231807235052
0.52  -0.78  0.0275768685441
0.52  -0.76  0.0328067274746
0.52  -0.74  0.0390284112887
0.52  -0.72  0.046430016188
0.52  -0.7  0.0552353101762
0.52  -0.68  0.0657104980948
0.52  -0.66  0.0781722696242
0.52  -0.64  0.0929973735608
0.52  -0.62  0.110634007824
0.52  -0.6  0.131615369537
0.52  -0.58  0.156575774837
0.52  -0.56  0.18626983575
0.52  -0.54  0.221595273895
0.52  -0.52  0.26362006073
0.52  -0.5  0.313614704853
0.52  -0.48  0.373090662476
0.52  -0.46  0.443846032323
0.52  -0.44  0.528019916396
0.52  -0.42  0.628157090087
0.52  -0.4  0.74728493675
0.52  -0.38  0.889004972651
0.52  -0.36  1.05760172932
0.52  -0.34  1.25817228504
0.52  -0.32  1.49678036161
0.52  -0.3  1.78063964493
0.52  -0.28  2.11833187181
0.52  -0.26  2.52006627613
0.52  -0.24  2.99798823811
0.52  -0.22  3.56654646783
0.52  -0.2  3.13261513364
0.52  -0.18  3.13263338218
0.52  -0.16  3.12703016124
0.52  -0.14  3.11638542471
0.52  -0.12  3.10180916254
0.52  -0.1  3.08483907262
0.52  -0.08  3.06729177574
0.52  -0.06  3.05107628277
0.52  -0.04  3.03798508865
0.52  -0.02  3.02948568015
0.52  6.17561557e-16  3.02654074268
0.52  0.02  3.02948568015
0.52  0.04  3.03798508865
0.52  0.06  3.05107628277
0.52  0.08  3.06729177574
0.52  0.1  3.08483907262
0.52  0.12  3.10180916254
0.52  0.14  3.11638542471
0.52  0.16  3.12703016124
0.52  0.18  3.13263338218
0.52  0.2  4.24292982391
0.52  0.22  3.56654646783
0.52  0.24  2.99798823811
0.52  0.26  2.52006627613
0.52  0.28  2.11833187181
0.52  0.3  1.78063964493
0.52  0.32  1.49678036161
0.52  0.34  1.25817228504
0.52  0.36  1.05760172932
0.52  0.38  0.889004972651
0.52  0.4  0.74728493675
0.52  0.42  0.628157090087
0.52  0.44  0.528019916396
0.52  0.46  0.443846032323
0.52  0.48  0.373090662476
0.52  0.5  0.313614704853
0.52  0.52  0.26362006073
0.52  0.54  0.221595273895
0.52  0.56  0.18626983575
0.52  0.58  0.156575774837
0.52  0.6  0.131615369537
0.52  0.62  0.110634007824
0.52  0.64  0.0929973735609
0.52  0.66  0.0781722696242
0.52  0.68  0.0657104980949
0.52  0.7  0.0552353101763
0.52  0.72  0.046430016188
0.52  0.74  0.0390284112887
0.52  0.76  0.0328067274746
0.52  0.78  0.0275768685441
0.52  0.8  0.0231807235052
0.52  0.82  0.0194853865066
0.52  0.84  0.0163791387799
0.52  0.86  0.0137680711174
0.52  0.88  0.0115732447744
0.52  0.9  0.00972830496485
0.52  0.92  0.00817747479934
0.52  0.94  0.00687386901782
0.52  0.96  0.00577807653752
0.52  0.98  0.00485696896272
0.54  -1  0.00328690052887
0.54  -0.98  0.00391024998775
0.54  -0.96  0.00465181554246
0.54  -0.94  0.0055340164718
0.54  -0.92  0.00658352379423
0.54  -0.9  0.00783206659576
0.54  -0.88  0.00931739127521
0.54  -0.86  0.011084402707
0.54  -0.84  0.0131865218216
0.54  -0.82  0.0156873006464
0.54  -0.8  0.018662343634
0.54  -0.78  0.0222015933629
0.54  -0.76  0.0264120497146
0.54  -0.74  0.0314210047326
0.54  -0.72  0.0373798909616
0.54  -0.7  0.0444688596113
0.54  -0.68  0.0529022269531
0.54  -0.66  0.0629349536071
0.54  -0.64  0.0748703526042
0.54  -0.62  0.0890692592558
0.54  -0.6  0.105960940057
0.54  -0.58  0.126056070429
0.54  -0.56  0.149962173642
0.54  -0.54  0.178401987677
0.54  -0.52  0.212235315307
0.54  -0.5  0.252485017965
0.54  -0.48  0.300367939259
0.54  -0.46  0.357331693032
0.54  -0.44  0.425098428148
0.54  -0.42  0.505716893121
0.54  -0.4  0.601624374625
0.54  -0.38  0.715720382423
0.54  -0.36  0.851454308405
0.54  -0.34  1.01292970985
0.54  -0.32  1.20502836966
0.54  -0.3  1.43355788419
0.54  -0.28  1.7054272406
0.54  -0.26  2.02885569189
0.54  -0.24  2.4136212443
0.54  -0.22  2.87135626955
0.54  -0.2  2.52200670458
0.54  -0.18  2.52202139612
0.54  -0.16  2.51751035337
0.54  -0.14  2.50894048579
0.54  -0.12  2.49720542439
0.54  -0.1  2.48354313946
0.54  -0.08  2.46941615657
0.54  -0.06  2.45636138277
0.54  -0.04  2.44582192039
0.54  -0.02  2.43897921412
