-0.28  -0.76  0.0012782469946
-0.28  -0.74  0.00162267002948
-0.28  -0.72  0.00205989768463
-0.28  -0.7  0.00261493612013
-0.28  -0.68  0.0033195293938
-0.28  -0.66  0.00421397498452
-0.28  -0.64  0.00534942850734
-0.28  -0.62  0.00679082943307
-0.28  -0.6  0.00862061514156
-0.28  -0.58  0.0109434357248
-0.28  -0.56  0.0138921391915
-0.28  -0.54  0.0176353693821
-0.28  -0.52  0.0223872111383
-0.28  -0.5  0.028419434359
-0.28  -0.48  0.0360770372109
-0.28  -0.46  0.0457979774501
-0.28  -0.44  0.0581382203382
-0.28  -0.42  0.0738035357081
-0.28  -0.4  0.0936898627328
-0.28  -0.38  0.118934550963
-0.28  -0.36  0.150981408234
-0.28  -0.34  0.191663275708
-0.28  -0.32  0.24330685271
-0.28  -0.3  0.308865766574
-0.28  -0.28  0.392089498092
-0.28  -0.26  0.497737823842
-0.28  -0.24  0.631853039902
-0.28  -0.22  0.802105536107
-0.28  -0.2  0.736926151367
-0.28  -0.18  0.741556155201
-0.28  -0.16  0.764224723733
-0.28  -0.14  0.801213735608
-0.28  -0.12  0.847141704828
-0.28  -0.1  0.896299521426
-0.28  -0.08  0.943515087833
-0.28  -0.06  0.984529694691
-0.28  -0.04  1.01608846368
-0.28  -0.02  1.03591695171
-0.28  6.17561557e-16  1.04267407723
-0.28  0.02  1.03591695171
-0.28  0.04  1.01608846368
-0.28  0.06  0.984529694691
-0.28  0.08  0.943515087833
-0.28  0.1  0.896299521426
-0.28  0.12  0.847141704828
-0.28  0.14  0.801213735608
-0.28  0.16  0.764224723733
-0.28  0.18  0.741556155201
-0.28  0.2  1.01823248512
-0.28  0.22  0.802105536107
-0.28  0.24  0.631853039902
-0.28  0.26  0.497737823842
-0.28  0.28  0.392089498092
-0.28  0.3  0.308865766574
-0.28  0.32  0.24330685271
-0.28  0.34  0.191663275708
-0.28  0.36  0.150981408234
-0.28  0.38  0.118934550963
-0.28  0.4  0.0936898627328
-0.28  0.42  0.0738035357081
-0.28  0.44  0.0581382203383
-0.28  0.46  0.0457979774501
-0.28  0.48  0.0360770372109
-0.28  0.5  0.028419434359
-0.28  0.52  0.0223872111383
-0.28  0.54  0.0176353693821
-0.28  0.56  0.0138921391915
-0.28  0.58  0.0109434357248
-0.28  0.6  0.00862061514156
-0.28  0.62  0.00679082943307
-0.28  0.64  0.00534942850734
-0.28  0.66  0.00421397498452
-0.28  0.68  0.0033195293938
-0.28  0.7  0.00261493612013
-0.28  0.72  0.00205989768463
-0.28  0.74  0.00162267002948
-0.28  0.76  0.0012782469946
-0.28  0.78  0.00100693015187
-0.28  0.8  0.000793202201938
-0.28  0.82  0.000624839500528
-0.28  0.84  0.000492212957132
-0.28  0.86  0.000387737322887
-0.28  0.88  0.000305437370921
-0.28  0.9  0.000240606157954
-0.28  0.92  0.000189535822256
-0.28  0.94  0.00014930552162
-0.28  0.96  0.000117614382975
-0.28  0.98  0.0000926499096112
-0.26  -1  0.0000934841325436
-0.26  -0.98  0.000118673386873
-0.26  -0.96  0.000150649873607
-0.26  -0.94  0.000191242409236
-0.26  -0.92  0.000242772583971
-0.26  -0.9  0.000308187539381
-0.26  -0.88  0.00039122852291
-0.26  -0.86  0.000496644859313
-0.26  -0.84  0.000630465576609
-0.26  -0.82  0.0008003442215
-0.26  -0.8  0.00101599658515
-0.26  -0.78  0.00128975637395
-0.26  -0.76  0.00163728060553
-0.26  -0.74  0.00207844507333
-0.26  -0.72  0.00263848109375
-0.26  -0.7  0.00334941854919
-0.26  -0.68  0.00425191775838
-0.26  -0.66  0.00539759494328
-0.26  -0.64  0.0068519742919
-0.26  -0.62  0.00869823545305
-0.26  -0.6  0.0110419707917
-0.26  -0.58  0.0140172244846
-0.26  -0.56  0.0177941588469
-0.26  -0.54  0.0225887863477
-0.26  -0.52  0.0286753239111
-0.26  -0.5  0.0364018760791
-0.26  -0.48  0.0462103439943
-0.26  -0.46  0.0586616988485
-0.26  -0.44  0.07446806525
-0.26  -0.42  0.0945334494385
-0.26  -0.4  0.120005441698
-0.26  -0.38  0.152340849961
-0.26  -0.36  0.193389018351
-0.26  -0.34  0.245497595875
-0.26  -0.32  0.311646804425
-0.26  -0.3  0.395619885248
-0.26  -0.28  0.502219472111
-0.26  -0.26  0.637542266131
-0.26  -0.24  0.809327721593
-0.26  -0.22  1.027400685
-0.26  -0.2  0.943913735321
-0.26  -0.18  0.949844213165
-0.26  -0.16  0.978879922045
-0.26  -0.14  1.02625839586
-0.26  -0.12  1.08508659852
-0.26  -0.1  1.14805184708
-0.26  -0.08  1.20852930682
-0.26  -0.06  1.26106408346
-0.26  -0.04  1.30148706948
-0.26  -0.02  1.32688497694
-0.26  6.17561557e-16  1.33554004175
-0.26  0.02  1.32688497694
-0.26  0.04  1.30148706948
-0.26  0.06  1.26106408346
-0.26  0.08  1.20852930682
-0.26  0.1  1.14805184708
-0.26  0.12  1.08508659852
-0.26  0.14  1.02625839586
-0.26  0.16  0.978879922045
-0.26  0.18  0.949844213165
-0.26  0.2  1.30423330299
-0.26  0.22  1.027400685
-0.26  0.24  0.809327721593
-0.26  0.26  0.637542266131
-0.26  0.28  0.502219472111
-0.26  0.3  0.395619885248
-0.26  0.32  0.311646804425
-0.26  0.34  0.245497595875
-0.26  0.36  0.193389018351
-0.26  0.38  0.152340849961
-0.26  0.4  0.120005441698
-0.26  0.42  0.0945334494385
-0.26  0.44  0.07446806525
-0.26  0.46  0.0586616988485
-0.26  0.48  0.0462103439943
-0.26  0.5  0.0364018760791
-0.26  0.52  0.0286753239111
-0.26  0.54  0.0225887863477
-0.26  0.56  0.0177941588469
-0.26  0.58  0.0140172244846
-0.26  0.6  0.0110419707917
-0.26  0.62  0.00869823545305
-0.26  0.64  0.0068519742919
-0.26  0.66  0.00539759494328
-0.26  0.68  0.00425191775838
-0.26  0.7  0.00334941854919
-0.26  0.72  0.00263848109375
-0.26  0.74  0.00207844507333
-0.26  0.76  0.00163728060553
-0.26  0.78  0.00128975637395
-0.26  0.8  0.00101599658515
-0.26  0.82  0.0008003442215
-0.26  0.84  0.000630465576609
-0.26  0.86  0.000496644859313
-0.26  0.88  0.00039122852291
-0.26  0.9  0.000308187539381
-0.26  0.92  0.000242772583971
-0.26  0.94  0.000191242409236
-0.26  0.96  0.000150649873607
-0.26  0.98  0.000118673386873
-0.24  -1  0.000119741926079
-0.24  -0.98  0.000152006330185
-0.24  -0.96  0.000192964362384
-0.24  -0.94  0.000244958516561
-0.24  -0.92  0.000310962470452
-0.24  -0.9  0.000394751157816
-0.24  -0.88  0.000501116666492
-0.24  -0.86  0.000636142310071
-0.24  -0.84  0.00080755054805
-0.24  -0.82  0.0010251446529
-0.24  -0.8  0.00130136938414
-0.24  -0.78  0.0016520227357
-0.24  -0.76  0.00209715946335
-0.24  -0.74  0.00266223806712
-0.24  -0.72  0.00337957682755
-0.24  -0.7  0.00429020217027
-0.24  -0.68  0.00544619507144
-0.24  -0.66  0.00691366970111
-0.24  -0.64  0.00877655466045
-0.24  -0.62  0.0111413930717
-0.24  -0.6  0.0141434360498
-0.24  -0.58  0.0179543780574
-0.24  -0.56  0.022792176547
-0.24  -0.54  0.0289335175014
-0.24  -0.52  0.0367296398075
-0.24  -0.5  0.0466264235009
-0.24  -0.48  0.059189890777
-0.24  -0.46  0.0751385782383
-0.24  -0.44  0.0953846318275
-0.24  -0.42  0.121085974771
-0.24  -0.4  0.153712532148
-0.24  -0.38  0.19513029964
-0.24  -0.36  0.247708064565
-0.24  -0.34  0.314452882836
-0.24  -0.32  0.399182060129
-0.24  -0.3  0.506741473293
-0.24  -0.28  0.643282718345
-0.24  -0.26  0.816614935882
-0.24  -0.24  1.03665143566
-0.24  -0.22  1.31597666394
-0.24  -0.2  1.20903992629
-0.24  -0.18  1.21663615487
-0.24  -0.16  1.25382740446
-0.24  -0.14  1.31451352899
-0.24  -0.12  1.38986537859
-0.24  -0.1  1.47051628621
-0.24  -0.08  1.54798063568
-0.24  -0.06  1.61527136374
-0.24  -0.04  1.66704834528
-0.24  -0.02  1.69958000894
-0.24  6.17561557e-16  1.71066610561
-0.24  0.02  1.69958000894
-0.24  0.04  1.66704834528
-0.24  0.06  1.61527136374
-0.24  0.08  1.54798063568
-0.24  0.1  1.47051628621
-0.24  0.12  1.38986537859
-0.24  0.14  1.31451352899
-0.24  0.16  1.25382740446
-0.24  0.18  1.21663615487
-0.24  0.2  1.67056593999
-0.24  0.22  1.31597666394
-0.24  0.24  1.03665143566
-0.24  0.26  0.816614935882
-0.24  0.28  0.643282718345
-0.24  0.3  0.506741473293
-0.24  0.32  0.399182060129
-0.24  0.34  0.314452882836
-0.24  0.36  0.247708064565
-0.24  0.38  0.19513029964
-0.24  0.4  0.153712532148
-0.24  0.42  0.121085974771
-0.24  0.44  0.0953846318275
-0.24  0.46  0.0751385782383
-0.24  0.48  0.059189890777
-0.24  0.5  0.0466264235009
-0.24  0.52  0.0367296398075
-0.24  0.54  0.0289335175014
-0.24  0.56  0.022792176547
-0.24  0.58  0.0179543780574
-0.24  0.6  0.0141434360498
-0.24  0.62  0.0111413930717
-0.24  0.64  0.00877655466045
-0.24  0.66  0.00691366970111
-0.24  0.68  0.00544619507144
-0.24  0.7  0.00429020217027
-0.24  0.72  0.00337957682756
-0.24  0.74  0.00266223806712
-0.24  0.76  0.00209715946335
-0.24  0.78  0.0016520227357
-0.24  0.8  0.00130136938414
-0.24  0.82  0.0010251446529
-0.24  0.84  0.00080755054805
-0.24  0.86  0.000636142310071
-0.24  0.88  0.000501116666492
-0.24  0.9  0.000394751157816
-0.24  0.92  0.000310962470452
-0.24  0.94  0.000244958516561
-0.24  0.96  0.000192964362384
-0.24  0.98  0.000152006330185
-0.22  -1  0.000153375000344
-0.22  -0.98  0.000194701820055
-0.22  -0.96  0.000247164131363
-0.22  -0.94  0.000313762387096
-0.22  -0.92  0.000398305510646
-0.22  -0.9  0.000505628737975
-0.22  -0.88  0.000641870157034
-0.22  -0.86  0.000814821760608
-0.22  -0.84  0.00103437509017
-0.22  -0.82  0.00131308695827
-0.22  -0.8  0.00166689760451
-0.22  -0.78  0.00211604235838
-0.22  -0.76  0.00268620894909
-0.22  -0.74  0.00341000665208
-0.22  -0.72  0.0043288312963
-0.22  -0.7  0.00549523279682
-0.22  -0.68  0.00697592061788
-0.22  -0.66  0.00885557905666
-0.22  -0.64  0.0112417105533
-0.22  -0.62  0.0142707840283
-0.22  -0.6  0.0181160398872
-0.22  -0.58  0.0229973980787
-0.22  -0.56  0.0291940358755
-0.22  -0.54  0.0370603547316
-0.22  -0.52  0.0470462494015
-0.22  -0.5  0.0597228385636
-0.22  -0.48  0.0758151285484
-0.22  -0.46  0.0962434782917
-0.22  -0.44  0.122176237
-0.22  -0.42  0.155096565007
-0.22  -0.4  0.196887259484
-0.22  -0.38  0.24993843639
-0.22  -0.36  0.317284227271
-0.22  -0.34  0.402776308955
-0.22  -0.32  0.511304190727
-0.22  -0.3  0.649074857786
-0.22  -0.28  0.823967764496
-0.22  -0.26  1.04598548039
-0.22  -0.24  1.32782576252
-0.22  -0.22  1.68560777244
-0.22  -0.2  1.54863467779
-0.22  -0.18  1.55836453265
-0.22  -0.16  1.60600204864
-0.22  -0.14  1.68373367261
-0.22  -0.12  1.78025032584
-0.22  -0.1  1.88355443485
-0.22  -0.08  1.98277694627
-0.22  -0.06  2.06896827271
-0.22  -0.04  2.13528835641
-0.22  -0.02  2.17695750346
-0.22  6.17561557e-16  2.19115745945
-0.22  0.02  2.17695750346
-0.22  0.04  2.13528835641
-0.22  0.06  2.06896827271
-0.22  0.08  1.98277694627
-0.22  0.1  1.88355443485
-0.22  0.12  1.78025032584
-0.22  0.14  1.68373367261
-0.22  0.16  1.60600204864
-0.22  0.18  1.55836453265
-0.22  0.2  2.13979397201
-0.22  0.22  1.68560777244
-0.22  0.24  1.32782576252
-0.22  0.26  1.04598548039
-0.22  0.28  0.823967764496
-0.22  0.3  0.649074857787
-0.22  0.32  0.511304190727
-0.22  0.34  0.402776308955
-0.22  0.36  0.317284227271
-0.22  0.38  0.24993843639
-0.22  0.4  0.196887259484
-0.22  0.42  0.155096565007
-0.22  0.44  0.122176237
-0.22  0.46  0.0962434782917
-0.22  0.48  0.0758151285484
-0.22  0.5  0.0597228385636
-0.22  0.52  0.0470462494015
-0.22  0.54  0.0370603547316
-0.22  0.56  0.0291940358755
-0.22  0.58  0.0229973980787
-0.22  0.6  0.0181160398872
-0.22  0.62  0.0142707840283
-0.22  0.64  0.0112417105533
-0.22  0.66  0.00885557905666
-0.22  0.68  0.00697592061788
-0.22  0.7  0.00549523279682
-0.22  0.72  0.0043288312963
-0.22  0.74  0.00341000665208
-0.22  0.76  0.00268620894909
-0.22  0.78  0.00211604235838
-0.22  0.8  0.00166689760451
-0.22  0.82  0.00131308695827
-0.22  0.84  0.00103437509017
-0.22  0.86  0.000814821760608
-0.22  0.88  0.000641870157034
-0.22  0.9  0.000505628737975
-0.22  0.92  0.000398305510646
-0.22  0.94  0.000313762387096
-0.22  0.96  0.000247164131363
-0.22  0.98  0.000194701820055
-0.2  -1  0.000196454921855
-0.2  -0.98  0.000249389605595
-0.2  -0.96  0.000316587514284
-0.2  -0.94  0.00040189186699
-0.2  -0.92  0.000510181436302
-0.2  -0.9  0.000647649577725
-0.2  -0.88  0.000822158443411
-0.2  -0.86  0.00104368863861
-0.2  -0.84  0.00132491003783
-0.2  -0.82  0.00168190640715
-0.2  -0.8  0.00213509527563
-0.2  -0.78  0.00271039566568
-0.2  -0.76  0.00344071046777
-0.2  -0.74  0.0043678082403
-0.2  -0.72  0.00554471205953
-0.2  -0.7  0.00703873204402
-0.2  -0.68  0.00893531499121
-0.2  -0.66  0.0113429312968
-0.2  -0.64  0.0143992786523
-0.2  -0.62  0.0182791573255
-0.2  -0.6  0.0232044674319
-0.2  -0.58  0.0294568999659
-0.2  -0.56  0.0373940474242
-0.2  -0.54  0.0474698554288
-0.2  -0.52  0.0602605850302
-0.2  -0.5  0.0764977705405
-0.2  -0.48  0.0971100578386
-0.2  -0.46  0.123276315986
-0.2  -0.44  0.156493059745
-0.2  -0.42  0.198660039055
-0.2  -0.4  0.252188890559
-0.2  -0.38  0.320141065228
-0.2  -0.36  0.406402920518
-0.2  -0.34  0.515907991023
-0.2  -0.32  0.654919149848
-0.2  -0.3  0.831386798229
-0.2  -0.28  1.05540356917
-0.2  -0.26  1.33978155077
-0.2  -0.24  1.70078504207
-0.2  -0.22  2.1590607496
-0.2  -0.2  1.98361469551
-0.2  -0.18  1.99607746892
-0.2  -0.16  2.05709539532
-0.2  -0.14  2.1566602532
-0.2  -0.12  2.28028647342
-0.2  -0.1  2.41260660784
-0.2  -0.08  2.53969870684
-0.2  -0.06  2.65009942575
-0.2  -0.04  2.73504747355
-0.2  -0.02  2.78842063742
-0.2  6.17561557e-16  2.80660907255
-0.2  0.02  2.78842063742
-0.2  0.04  2.73504747355
-0.2  0.06  2.65009942575
-0.2  0.08  2.53969870684
-0.2  0.1  2.41260660784
-0.2  0.12  2.28028647342
-0.2  0.14  2.1566602532
-0.2  0.16  2.05709539532
-0.2  0.18  1.99607746892
-0.2  0.2  2.74081862503
-0.2  0.22  2.1590607496
-0.2  0.24  1.70078504207
-0.2  0.26  1.33978155077
-0.2  0.28  1.05540356917
-0.2  0.3  0.831386798229
-0.2  0.32  0.654919149848
-0.2  0.34  0.515907991023
-0.2  0.36  0.406402920519
-0.2  0.38  0.320141065228
-0.2  0.4  0.252188890559
-0.2  0.42  0.198660039055
-0.2  0.44  0.156493059745
-0.2  0.46  0.123276315986
-0.2  0.48  0.0971100578386
-0.2  0.5  0.0764977705405
-0.2  0.52  0.0602605850302
-0.2  0.54  0.0474698554288
-0.2  0.56  0.0373940474242
-0.2  0.58  0.0294568999659
-0.2  0.6  0.0232044674319
-0.2  0.62  0.0182791573255
-0.2  0.64  0.0143992786523
-0.2  0.66  0.0113429312968
-0.2  0.68  0.00893531499121
-0.2  0.7  0.00703873204402
-0.2  0.72  0.00554471205953
-0.2  0.74  0.0043678082403
-0.2  0.76  0.00344071046777
-0.2  0.78  0.00271039566569
-0.2  0.8  0.00213509527563
-0.2  0.82  0.00168190640715
-0.2  0.84  0.00132491003783
-0.2  0.86  0.00104368863861
-0.2  0.88  0.000822158443411
-0.2  0.9  0.000647649577725
-0.2  0.92  0.000510181436302
-0.2  0.94  0.00040189186699
-0.2  0.96  0.000316587514284
-0.2  0.98  0.000249389605595
-0.18  -1  0.000251635118073
-0.18  -0.98  0.000319438079014
-0.18  -0.96  0.000405510515009
-0.18  -0.94  0.00051477512728
-0.18  -0.92  0.000653481036517
-0.18  -0.9  0.000829561185956
-0.18  -0.88  0.00105308604656
-0.18  -0.86  0.00133683957281
-0.18  -0.84  0.00169705034956
-0.18  -0.82  0.002154319746
-0.18  -0.8  0.0027348001603
-0.18  -0.78  0.00347169074167
-0.18  -0.76  0.00440713613402
-0.18  -0.74  0.00559463683521
-0.18  -0.72  0.00710210902637
-0.18  -0.7  0.00901576887083
-0.18  -0.68  0.0114450634354
-0.18  -0.66  0.0145289302463
-0.18  -0.64  0.0184437434788
-0.18  -0.62  0.0234134012447
-0.18  -0.6  0.0297221308935
-0.18  -0.58  0.0377307446971
-0.18  -0.56  0.0478972756191
-0.18  -0.54  0.0608031733842
-0.18  -0.52  0.0771865590642
-0.18  -0.5  0.0979844400971
-0.18  -0.48  0.124386300122
-0.18  -0.46  0.15790212857
-0.18  -0.44  0.200448780793
-0.18  -0.42  0.254459607894
-0.18  -0.4  0.323023626251
-0.18  -0.38  0.410062186216
-0.18  -0.36  0.520553244094
-0.18  -0.34  0.660816064114
-0.18  -0.32  0.838872633193
-0.18  -0.3  1.06490645875
-0.18  -0.28  1.35184498935
-0.18  -0.26  1.71609896834
-0.18  -0.24  2.17850100591
-0.18  -0.22  2.76549704901
-0.18  -0.2  2.54077176282
-0.18  -0.18  2.55673507608
-0.18  -0.16  2.63489169831
-0.18  -0.14  2.76242230193
-0.18  -0.12  2.92077261574
-0.18  -0.1  3.09025878759
-0.18  -0.08  3.25304847509
-0.18  -0.06  3.39445851296
-0.18  -0.04  3.50326674152
-0.18  -0.02  3.57163134275
-0.18  6.17561557e-16  3.59492853977
-0.18  0.02  3.57163134275
-0.18  0.04  3.50326674152
-0.18  0.06  3.39445851296
-0.18  0.08  3.25304847509
-0.18  0.1  3.09025878759
-0.18  0.12  2.92077261574
-0.18  0.14  2.76242230193
-0.18  0.16  2.63489169831
-0.18  0.18  2.55673507608
-0.18  0.2  3.5106588922
-0.18  0.22  2.76549704901
-0.18  0.24  2.17850100591
-0.18  0.26  1.71609896834
-0.18  0.28  1.35184498935
-0.18  0.3  1.06490645875
-0.18  0.32  0.838872633194
-0.18  0.34  0.660816064114
-0.18  0.36  0.520553244094
-0.18  0.38  0.410062186216
-0.18  0.4  0.323023626251
-0.18  0.42  0.254459607894
-0.18  0.44  0.200448780793
-0.18  0.46  0.15790212857
-0.18  0.48  0.124386300122
-0.18  0.5  0.0979844400971
-0.18  0.52  0.0771865590643
-0.18  0.54  0.0608031733842
-0.18  0.56  0.0478972756191
-0.18  0.58  0.0377307446971
-0.18  0.6  0.0297221308935
-0.18  0.62  0.0234134012447
-0.18  0.64  0.0184437434788
-0.18  0.66  0.0145289302463
-0.18  0.68  0.0114450634354
-0.18  0.7  0.00901576887083
-0.18  0.72  0.00710210902637
-0.18  0.74  0.00559463683521
-0.18  0.76  0.00440713613402
-0.18  0.78  0.00347169074167
-0.18  0.8  0.0027348001603
-0.18  0.82  0.002154319746
-0.18  0.84  0.00169705034956
-0.18  0.86  0.00133683957281
-0.18  0.88  0.00105308604656
-0.18  0.9  0.000829561185956
-0.18  0.92  0.000653481036517
-0.18  0.94  0.00051477512728
-0.18  0.96  0.000405510515009
-0.18  0.98  0.000319438079014
-0.16  -1  0.000322314310325
-0.16  -0.98  0.000409161745456
-0.16  -0.96  0.000519410180007
-0.16  -0.94  0.000659365001961
-0.16  -0.92  0.000837030583045
-0.16  -0.9  0.00106256806908
-0.16  -0.88  0.00134887652172
-0.16  -0.86  0.00171233064853
-0.16  -0.84  0.00217371731415
-0.16  -0.82  0.00275942439382
-0.16  -0.8  0.003502949963
-0.16  -0.78  0.00444681813743
-0.16  -0.76  0.00564501113526
-0.16  -0.74  0.00716605665723
-0.16  -0.72  0.00909694715991
-0.16  -0.7  0.0115481151753
-0.16  -0.68  0.0146597492276
-0.16  -0.66  0.0186098115714
-0.16  -0.64  0.0236242163046
-0.16  -0.62  0.0299897499694
-0.16  -0.6  0.0380704736036
-0.16  -0.58  0.0483285443153
-0.16  -0.56  0.0613506472222
-0.16  -0.54  0.0778815494633
-0.16  -0.52  0.0988666953232
-0.16  -0.5  0.125506278592
-0.16  -0.48  0.159323884697
-0.16  -0.46  0.202253628422
-0.16  -0.44  0.256750770844
-0.16  -0.42  0.325932141952
-0.16  -0.4  0.413754400066
-0.16  -0.38  0.525240323182
-0.16  -0.36  0.666766074396
-0.16  -0.34  0.84642587087
-0.16  -0.32  1.07449491267
-0.16  -0.3  1.36401704755
-0.16  -0.28  1.73155078173
-0.16  -0.26  2.19811630295
-0.16  -0.24  2.79039767835
-0.16  -0.22  3.54226898408
-0.16  -0.2  3.2544229307
-0.16  -0.18  3.27487001433
-0.16  -0.16  3.37497924386
-0.16  -0.14  3.53833060303
-0.16  -0.12  3.74115830281
-0.16  -0.1  3.95824969692
-0.16  -0.08  4.16676370028
-0.16  -0.06  4.34789294479
-0.16  -0.04  4.48726319412
-0.16  -0.02  4.57483002289
-0.16  6.17561557e-16  4.60467092923
-0.16  0.02  4.57483002289
-0.16  0.04  4.48726319412
-0.16  0.06  4.34789294479
-0.16  0.08  4.16676370028
-0.16  0.1  3.95824969692
-0.16  0.12  3.74115830281
-0.16  0.14  3.53833060303
-0.16  0.16  3.37497924386
-0.16  0.18  3.27487001433
-0.16  0.2  4.49673164974
-0.16  0.22  3.54226898408
-0.16  0.24  2.79039767835
-0.16  0.26  2.19811630295
-0.16  0.28  1.73155078173
-0.16  0.3  1.36401704755
-0.16  0.32  1.07449491267
-0.16  0.34  0.84642587087
-0.16  0.36  0.666766074396
-0.16  0.38  0.525240323182
-0.16  0.4  0.413754400066
-0.16  0.42  0.325932141952
-0.16  0.44  0.256750770844
-0.16  0.46  0.202253628422
-0.16  0.48  0.159323884697
-0.16  0.5  0.125506278592
-0.16  0.52  0.0988666953232
-0.16  0.54  0.0778815494633
-0.16  0.56  0.0613506472222
-0.16  0.58  0.0483285443153
-0.16  0.6  0.0380704736036
-0.16  0.62  0.0299897499695
-0.16  0.64  0.0236242163046
-0.16  0.66  0.0186098115714
-0.16  0.68  0.0146597492276
-0.16  0.7  0.0115481151753
-0.16  0.72  0.00909694715991
-0.16  0.74  0.00716605665723
-0.16  0.76  0.00564501113526
-0.16  0.78  0.00444681813744
-0.16  0.8  0.003502949963
-0.16  0.82  0.00275942439382
-0.16  0.84  0.00217371731415
-0.16  0.86  0.00171233064853
-0.16  0.88  0.00134887652172
-0.16  0.9  0.00106256806908
-0.16  0.92  0.000837030583045
-0.16  0.94  0.000659365001961
-0.16  0.96  0.000519410180007
-0.16  0.98  0.000409161745456
-0.14  -1  0.000412845851707
-0.14  -0.98  0.000524086966907
-0.14  -0.96  0.00066530194683
-0.14  -0.94  0.00084456723484
-0.14  -0.92  0.00107213546806
-0.14  -0.9  0.00136102185173
-0.14  -0.88  0.00172774853184
-0.14  -0.86  0.00219328953867
-0.14  -0.84  0.00278427034477
-0.14  -0.82  0.00353449064343
-0.14  -0.8  0.00448685743895
-0.14  -0.78  0.00569583900722
-0.14  -0.76  0.00723058007472
-0.14  -0.74  0.00917885638106
-0.14  -0.72  0.0116520947965
-0.14  -0.7  0.0147917461075
-0.14  -0.68  0.0187773749468
-0.14  -0.66  0.0238369295505
-0.14  -0.64  0.0302597786966
-0.14  -0.62  0.0384132614408
-0.14  -0.6  0.0487636961695
-0.14  -0.58  0.0619030505332
-0.14  -0.56  0.0785827975794
-0.14  -0.54  0.0997568944053
-0.14  -0.52  0.126636341387
-0.14  -0.5  0.160758442366
-0.14  -0.48  0.204074726961
-0.14  -0.46  0.259062563504
-0.14  -0.44  0.328866846026
-0.14  -0.42  0.417479858735
-0.14  -0.4  0.529969604888
-0.14  -0.38  0.672769658772
-0.14  -0.36  0.854047118155
-0.14  -0.34  1.08416970135
-0.14  -0.32  1.37629870336
-0.14  -0.3  1.74714172377
-0.14  -0.28  2.21790821678
-0.14  -0.26  2.8155225138
-0.14  -0.24  3.57416369431
-0.14  -0.22  4.53722037422
-0.14  -0.2  4.16852421255
-0.14  -0.18  4.19471446655
-0.14  -0.16  4.32294234476
-0.14  -0.14  4.53217578194
-0.14  -0.12  4.79197366178
-0.14  -0.1  5.07004161791
-0.14  -0.08  5.33712296848
-0.14  -0.06  5.5691277378
-0.14  -0.04  5.74764425862
-0.14  -0.02  5.85980683052
-0.14  6.17561557e-16  5.89802944117
-0.14  0.02  5.85980683052
-0.14  0.04  5.74764425862
-0.14  0.06  5.5691277378
-0.14  0.08  5.33712296848
-0.14  0.1  5.07004161791
-0.14  0.12  4.79197366178
-0.14  0.14  4.53217578194
-0.14  0.16  4.32294234476
-0.14  0.18  4.19471446655
-0.14  0.2  5.75977221105
-0.14  0.22  4.53722037422
-0.14  0.24  3.57416369431
-0.14  0.26  2.8155225138
-0.14  0.28  2.21790821679
-0.14  0.3  1.74714172377
-0.14  0.32  1.37629870336
-0.14  0.34  1.08416970135
-0.14  0.36  0.854047118155
-0.14  0.38  0.672769658772
-0.14  0.4  0.529969604888
-0.14  0.42  0.417479858735
-0.14  0.44  0.328866846026
-0.14  0.46  0.259062563504
-0.14  0.48  0.204074726961
-0.14  0.5  0.160758442366
-0.14  0.52  0.126636341387
-0.14  0.54  0.0997568944054
-0.14  0.56  0.0785827975794
-0.14  0.58  0.0619030505332
-0.14  0.6  0.0487636961695
-0.14  0.62  0.0384132614408
-0.14  0.64  0.0302597786966
-0.14  0.66  0.0238369295505
-0.14  0.68  0.0187773749468
-0.14  0.7  0.0147917461075
-0.14  0.72  0.0116520947965
-0.14  0.74  0.00917885638106
-0.14  0.76  0.00723058007472
-0.14  0.78  0.00569583900722
-0.14  0.8  0.00448685743895
-0.14  0.82  0.00353449064343
-0.14  0.84  0.00278427034477
-0.14  0.86  0.00219328953867
-0.14  0.88  0.00172774853184
-0.14  0.9  0.00136102185173
-0.14  0.92  0.00107213546806
-0.14  0.94  0.00084456723484
-0.14  0.96  0.00066530194683
-0.14  0.98  0.000524086966907
-0.12  -1  0.000528805863754
-0.12  -0.98  0.000671292348153
-0.12  -0.96  0.000852171746903
-0.12  -0.94  0.00108178901222
-0.12  -0.92  0.0013732765387
-0.12  -0.9  0.0017433052383
-0.12  -0.88  0.00221303799215
-0.12  -0.86  0.0028093400095
-0.12  -0.84  0.00356631531721
-0.12  -0.82  0.0045272572557
-0.12  -0.8  0.00574712453507
-0.12  -0.78  0.00729568446326
-0.12  -0.76  0.00926150311562
-0.12  -0.74  0.0117570106537
-0.12  -0.72  0.0149249314918
-0.12  -0.7  0.0189464470685
-0.12  -0.68  0.0240515580736
-0.12  -0.66  0.0305322387716
-0.12  -0.64  0.0387591357513
-0.12  -0.62  0.0492027661458
-0.12  -0.6  0.0624604277024
-0.12  -0.58  0.0792903597574
-0.12  -0.56  0.10065510887
-0.12  -0.54  0.127776579305
-0.12  -0.52  0.16220591684
-0.12  -0.5  0.205912222733
-0.12  -0.48  0.261395171623
-0.12  -0.46  0.331827974276
-0.12  -0.44  0.42123886156
-0.12  -0.42  0.534741469208
-0.12  -0.4  0.678827299627
-0.12  -0.38  0.86173698741
-0.12  -0.36  1.09393160216
-0.12  -0.34  1.38869094363
-0.12  -0.32  1.76287304718
-0.12  -0.3  2.23787833769
-0.12  -0.28  2.84087357413
-0.12  -0.26  3.60634558559
-0.12  -0.24  4.57807366055
-0.12  -0.22  5.81163339564
-0.12  -0.2  5.33937797287
-0.12  -0.18  5.37292453712
-0.12  -0.16  5.53716902114
-0.12  -0.14  5.80517187988
-0.12  -0.12  6.13794170592
-0.12  -0.1  6.49411330147
-0.12  -0.08  6.83621237718
-0.12  -0.06  7.13338257262
-0.12  -0.04  7.36204075725
-0.12  -0.02  7.50570751682
-0.12  6.17561557e-16  7.55466608225
-0.12  0.02  7.50570751682
-0.12  0.04  7.36204075725
-0.12  0.06  7.13338257262
-0.12  0.08  6.83621237718
-0.12  0.1  6.49411330147
-0.12  0.12  6.13794170592
-0.12  0.14  5.80517187988
-0.12  0.16  5.53716902114
-0.12  0.18  5.37292453712
-0.12  0.2  7.37757520513
-0.12  0.22  5.81163339564
-0.12  0.24  4.57807366055
-0.12  0.26  3.60634558559
-0.12  0.28  2.84087357413
-0.12  0.3  2.23787833769
-0.12  0.32  1.76287304718
-0.12  0.34  1.38869094363
-0.12  0.36  1.09393160216
-0.12  0.38  0.86173698741
-0.12  0.4  0.678827299627
-0.12  0.42  0.534741469208
-0.12  0.44  0.42123886156
-0.12  0.46  0.331827974276
-0.12  0.48  0.261395171623
-0.12  0.5  0.205912222733
-0.12  0.52  0.16220591684
-0.12  0.54  0.127776579305
-0.12  0.56  0.10065510887
-0.12  0.58  0.0792903597574
-0.12  0.6  0.0624604277024
-0.12  0.62  0.0492027661458
-0.12  0.64  0.0387591357513
-0.12  0.66  0.0305322387716
-0.12  0.68  0.0240515580736
-0.12  0.7  0.0189464470685
-0.12  0.72  0.0149249314918
-0.12  0.74  0.0117570106537
-0.12  0.76  0.00926150311562
-0.12  0.78  0.00729568446326
-0.12  0.8  0.00574712453507
-0.12  0.82  0.00452725725571
-0.12  0.84  0.00356631531721
-0.12  0.86  0.0028093400095
-0.12  0.88  0.00221303799216
-0.12  0.9  0.0017433052383
-0.12  0.92  0.0013732765387
-0.12  0.94  0.00108178901222
-0.12  0.96  0.000852171746903
-0.12  0.98  0.000671292348153
-0.1  -1  0.000677336687252
-0.1  -0.98  0.000859844730251
-0.1  -0.96  0.00109152947722
-0.1  -0.94  0.00138564156729
-0.1  -0.92  0.00175900201786
-0.1  -0.9  0.00223296426139
-0.1  -0.88  0.00283463540235
-0.1  -0.86  0.00359842654143
-0.1  -0.84  0.00456802083378
-0.1  -0.82  0.00579887183955
-0.1  -0.8  0.00736137505392
-0.1  -0.78  0.00934489400419
-0.1  -0.76  0.0118628711769
-0.1  -0.74  0.0150593160818
-0.1  -0.72  0.0191170415213
-0.1  -0.7  0.0242681191193
-0.1  -0.68  0.0308071520863
-0.1  -0.66  0.0391081243258
-0.1  -0.64  0.0496457895231
-0.1  -0.62  0.0630228235145
-0.1  -0.6  0.0800042928493
-0.1  -0.58  0.101561410889
-0.1  -0.56  0.128927083964
-0.1  -0.54  0.163666424424
-0.1  -0.52  0.207766263379
-0.1  -0.5  0.263748782625
-0.1  -0.48  0.334815764625
-0.1  -0.46  0.425031710575
-0.1  -0.44  0.539556299556
-0.1  -0.42  0.684939483685
-0.1  -0.4  0.869496096508
-0.1  -0.38  1.10378139945
-0.1  -0.36  1.40119476404
-0.1  -0.34  1.77874601596
-0.1  -0.32  2.25802827024
-0.1  -0.3  2.86645289627
-0.1  -0.28  3.63881724371
-0.1  -0.26  4.61929479126
-0.1  -0.24  5.86396154009
-0.1  -0.22  7.44400314281
-0.1  -0.2  6.83910076649
-0.1  -0.18  6.88206987908
-0.1  -0.16  7.09244730175
-0.1  -0.14  7.43572671855
-0.1  -0.12  7.86196482791
-0.1  -0.1  8.3181777884
-0.1  -0.08  8.75636554413
-0.1  -0.06  9.13700480992
-0.1  -0.04  9.42988843301
-0.1  -0.02  9.6139082665
-0.1  6.17561557e-16  9.67661829828
-0.1  0.02  9.6139082665
-0.1  0.04  9.42988843301
-0.1  0.06  9.13700480992
-0.1  0.08  8.75636554413
-0.1  0.1  8.3181777884
-0.1  0.12  7.86196482791
-0.1  0.14  7.43572671855
-0.1  0.16  7.09244730175
-0.1  0.18  6.88206987908
-0.1  0.2  9.44978619169
-0.1  0.22  7.44400314281
-0.1  0.24  5.86396154009
-0.1  0.26  4.61929479126
-0.1  0.28  3.63881724371
-0.1  0.3  2.86645289627
-0.1  0.32  2.25802827024
-0.1  0.34  1.77874601597
-0.1  0.36  1.40119476404
-0.1  0.38  1.10378139945
-0.1  0.4  0.869496096509
-0.1  0.42  0.684939483685
-0.1  0.44  0.539556299556
-0.1  0.46  0.425031710575
-0.1  0.48  0.334815764625
-0.1  0.5  0.263748782625
-0.1  0.52  0.207766263379
-0.1  0.54  0.163666424424
-0.1  0.56  0.128927083964
-0.1  0.58  0.101561410889
-0.1  0.6  0.0800042928493
-0.1  0.62  0.0630228235145
-0.1  0.64  0.0496457895231
-0.1  0.66  0.0391081243258
-0.1  0.68  0.0308071520863
-0.1  0.7  0.0242681191193
-0.1  0.72  0.0191170415213
-0.1  0.74  0.0150593160818
-0.1  0.76  0.0118628711769
-0.1  0.78  0.00934489400419
-0.1  0.8  0.00736137505392
-0.1  0.82  0.00579887183955
-0.1  0.84  0.00456802083378
-0.1  0.86  0.00359842654143
-0.1  0.88  0.00283463540235
-0.1  0.9  0.00223296426139
-0.1  0.92  0.00175900201786
-0.1  0.94  0.00138564156729
-0.1  0.96  0.00109152947722
-0.1  0.98  0.000859844730251
-0.08  -1  0.000867586801402
-0.08  -0.98  0.0011013576457
-0.08  -0.96  0.00139811793101
-0.08  -0.94  0.00177484013177
-0.08  -0.92  0.00225306994743
-0.08  -0.9  0.00286015855577
-0.08  -0.88  0.00363082689621
-0.08  -0.86  0.00460915144849
-0.08  -0.84  0.00585108507852
-0.08  -0.82  0.00742765712489
-0.08  -0.8  0.00942903574715
-0.08  -0.78  0.0119696848718
-0.08  -0.76  0.0151949106752
-0.08  -0.74  0.0192891720124
-0.08  -0.72  0.024486630088
-0.08  -0.7  0.0310845407299
-0.08  -0.68  0.0394602552053
-0.08  -0.66  0.0500928018979
-0.08  -0.64  0.0635902831576
-0.08  -0.62  0.080724654219
-0.08  -0.6  0.102475873281
-0.08  -0.58  0.130087947807
-0.08  -0.56  0.165140082467
-0.08  -0.54  0.20963699787
-0.08  -0.52  0.266123585621
-0.08  -0.5  0.337830457139
-0.08  -0.48  0.42885871053
-0.08  -0.46  0.5444144828
-0.08  -0.44  0.691106702056
-0.08  -0.42  0.877325068889
-0.08  -0.4  1.11371988466
-0.08  -0.38  1.41381116928
-0.08  -0.36  1.7947619055
-0.08  -0.34  2.27835963346
-0.08  -0.32  2.89226253549
-0.08  -0.3  3.67158127774
-0.08  -0.28  4.66088707842
-0.08  -0.26  5.91676084893
-0.08  -0.24  7.5110291999
-0.08  -0.22  9.53487238747
-0.08  -0.2  8.76006522331
-0.08  -0.18  8.81510348663
-0.08  -0.16  9.08457165313
-0.08  -0.14  9.52427128378
-0.08  -0.12  10.0702310183
-0.08  -0.1  10.6545849306
-0.08  -0.08  11.2158507243
-0.08  -0.06  11.7034038265
-0.08  -0.04  12.0785525089
-0.08  -0.02  12.3142597749
-0.08  6.17561557e-16  12.3945837806
-0.08  0.02  12.3142597749
-0.08  0.04  12.0785525089
-0.08  0.06  11.7034038265
-0.08  0.08  11.2158507243
-0.08  0.1  10.6545849306
-0.08  0.12  10.0702310183
-0.08  0.14  9.52427128378
-0.08  0.16  9.08457165313
-0.08  0.18  8.81510348663
-0.08  0.2  12.1040391437
-0.08  0.22  9.53487238747
-0.08  0.24  7.5110291999
-0.08  0.26  5.91676084893
-0.08  0.28  4.66088707842
-0.08  0.3  3.67158127774
-0.08  0.32  2.89226253549
-0.08  0.34  2.27835963346
-0.08  0.36  1.7947619055
-0.08  0.38  1.41381116928
-0.08  0.4  1.11371988466
-0.08  0.42  0.877325068889
-0.08  0.44  0.691106702056
-0.08  0.46  0.5444144828
-0.08  0.48  0.42885871053
-0.08  0.5  0.33783045714
-0.08  0.52  0.266123585621
-0.08  0.54  0.20963699787
-0.08  0.56  0.165140082467
-0.08  0.58  0.130087947807
-0.08  0.6  0.102475873281
-0.08  0.62  0.080724654219
-0.08  0.64  0.0635902831576
-0.08  0.66  0.0500928018979
-0.08  0.68  0.0394602552053
-0.08  0.7  0.0310845407299
-0.08  0.72  0.024486630088
-0.08  0.74  0.0192891720124
-0.08  0.76  0.0151949106752
-0.08  0.78  0.0119696848718
-0.08  0.8  0.00942903574715
-0.08  0.82  0.00742765712489
-0.08  0.84  0.00585108507852
-0.08  0.86  0.00460915144849
-0.08  0.88  0.00363082689621
-0.08  0.9  0.00286015855577
-0.08  0.92  0.00225306994743
-0.08  0.94  0.00177484013177
-0.08  0.96  0.00139811793101
-0.08  0.98  0.0011013576457
-0.06  -1  0.00111127430735
-0.06  -0.98  0.00141070663234
-0.06  -0.96  0.00179082085259
-0.06  -0.94  0.00227335666575
-0.06  -0.92  0.00288591152054
-0.06  -0.9  0.00366351898489
-0.06  -0.88  0.00465065240466
-0.06  -0.86  0.00590376844727
-0.06  -0.84  0.00749453600188
-0.06  -0.82  0.00951393510521
-0.06  -0.8  0.0120774603209
-0.06  -0.78  0.0153317261669
-0.06  -0.76  0.0194628523722
-0.06  -0.74  0.0247071085368
-0.06  -0.72  0.0313644269902
-0.06  -0.7  0.0398155566832
-0.06  -0.68  0.0505438391873
-0.06  -0.66  0.0641628522266
-0.06  -0.64  0.0814515017469
-0.06  -0.62  0.103398569524
-0.06  -0.6  0.131259264106
-0.06  -0.58  0.166627009378
-0.06  -0.56  0.211524576518
-0.06  -0.54  0.268519771423
-0.06  -0.52  0.340872294048
-0.06  -0.5  0.432720168924
-0.06  -0.48  0.549316409291
-0.06  -0.46  0.697329450271
-0.06  -0.44  0.885224533602
-0.06  -0.42  1.12374785632
-0.06  -0.4  1.42654117306
-0.06  -0.38  1.81092200264
-0.06  -0.36  2.29887406097
-0.06  -0.34  2.91830456558
-0.06  -0.32  3.70464032025
-0.06  -0.3  4.70285386396
-0.06  -0.28  5.97003556455
-0.06  -0.26  7.57865876188
-0.06  -0.24  9.62072470224
-0.06  -0.22  12.2130243232
-0.06  -0.2  11.2205895682
-0.06  -0.18  11.2910869615
-0.06  -0.16  11.6362432613
-0.06  -0.14  12.1994455849
-0.06  -0.12  12.8987543167
-0.06  -0.1  13.6472413708
-0.06  -0.08  14.3661553229
-0.06  -0.06  14.9906521859
-0.06  -0.04  15.4711725114
-0.06  -0.02  15.7730851596
-0.06  6.17561557e-16  15.8759705465
-0.06  0.02  15.7730851596
-0.06  0.04  15.4711725114
-0.06  0.06  14.9906521859
-0.06  0.08  14.3661553229
-0.06  0.1  13.6472413708
-0.06  0.12  12.8987543167
-0.06  0.14  12.1994455849
-0.06  0.16  11.6362432613
-0.06  0.18  11.2910869615
-0.06  0.2  15.5038178241
-0.06  0.22  12.2130243232
-0.06  0.24  9.62072470224
-0.06  0.26  7.57865876188
-0.06  0.28  5.97003556455
-0.06  0.3  4.70285386396
-0.06  0.32  3.70464032025
-0.06  0.34  2.91830456558
-0.06  0.36  2.29887406097
-0.06  0.38  1.81092200264
-0.06  0.4  1.42654117306
-0.06  0.42  1.12374785632
-0.06  0.44  0.885224533602
-0.06  0.46  0.697329450271
-0.06  0.48  0.549316409291
-0.06  0.5  0.432720168924
-0.06  0.52  0.340872294048
-0.06  0.54  0.268519771423
-0.06  0.56  0.211524576518
-0.06  0.58  0.166627009378
-0.06  0.6  0.131259264106
-0.06  0.62  0.103398569524
-0.06  0.64  0.0814515017469
-0.06  0.66  0.0641628522266
-0.06  0.68  0.0505438391873
-0.06  0.7  0.0398155566832
-0.06  0.72  0.0313644269902
-0.06  0.74  0.0247071085368
-0.06  0.76  0.0194628523722
-0.06  0.78  0.0153317261669
-0.06  0.8  0.0120774603209
-0.06  0.82  0.00951393510522
-0.06  0.84  0.00749453600188
-0.06  0.86  0.00590376844727
-0.06  0.88  0.00465065240466
-0.06  0.9  0.00366351898489
-0.06  0.92  0.00288591152054
-0.06  0.94  0.00227335666575
-0.06  0.96  0.00179082085259
-0.06  0.98  0.00141070663234
-0.04  -1  0.00142340868277
-0.04  -0.98  0.00180694546436
-0.04  -0.96  0.00229382604637
-0.04  -0.94  0.00291189636587
-0.04  -0.92  0.00369650543424
-0.04  -0.9  0.00469252703684
-0.04  -0.88  0.00595692617885
-0.04  -0.86  0.00756201705855
-0.04  -0.84  0.00959959889999
-0.04  -0.82  0.0121862061838
-0.04  -0.8  0.01546977355
-0.04  -0.78  0.0196380965559
-0.04  -0.76  0.0249295721811
-0.04  -0.74  0.031646833356
-0.04  -0.72  0.0401740573077
-0.04  -0.7  0.0509989376317
-0.04  -0.68  0.064740576727
-0.04  -0.66  0.0821848938347
-0.04  -0.64  0.104329573756
-0.04  -0.62  0.132441126978
-0.04  -0.6  0.168127324629
-0.04  -0.58  0.213429150988
-0.04  -0.56  0.270937532564
-0.04  -0.54  0.343941519759
-0.04  -0.52  0.436616396019
-0.04  -0.5  0.554262472895
-0.04  -0.48  0.703608228322
-0.04  -0.46  0.893195125364
-0.04  -0.44  1.13386612018
-0.04  -0.42  1.43938579823
-0.04  -0.4  1.82722760585
-0.04  -0.38  2.31957320109
-0.04  -0.36  2.94458107899
-0.04  -0.34  3.7379970275
-0.04  -0.32  4.74519851985
-0.04  -0.3  6.02378996751
-0.04  -0.28  7.64689726274
-0.04  -0.26  9.70735003417
-0.04  -0.24  12.322990809
-0.04  -0.22  15.6434147263
-0.04  -0.2  14.3722252117
-0.04  -0.18  14.4625238905
-0.04  -0.16  14.9046275824
-0.04  -0.14  15.6260219963
-0.04  -0.12  16.5217523431
-0.04  -0.1  17.4804742038
-0.04  -0.08  18.4013164791
-0.04  -0.06  19.2012218232
-0.04  -0.04  19.8167105455
-0.04  -0.02  20.2034243227
-0.04  6.17561557e-16  20.3352081245
-0.04  0.02  20.2034243227
-0.04  0.04  19.8167105455
-0.04  0.06  19.2012218232
-0.04  0.08  18.4013164791
-0.04  0.1  17.4804742038
-0.04  0.12  16.5217523431
-0.04  0.14  15.6260219963
-0.04  0.16  14.9046275824
-0.04  0.18  14.4625238905
-0.04  0.2  19.8585252633
-0.04  0.22  15.6434147263
-0.04  0.24  12.322990809
-0.04  0.26  9.70735003417
-0.04  0.28  7.64689726274
-0.04  0.3  6.02378996751
-0.04  0.32  4.74519851985
-0.04  0.34  3.7379970275
-0.04  0.36  2.94458107899
-0.04  0.38  2.31957320109
-0.04  0.4  1.82722760585
-0.04  0.42  1.43938579823
-0.04  0.44  1.13386612018
-0.04  0.46  0.893195125364
-0.04  0.48  0.703608228322
-0.04  0.5  0.554262472895
-0.04  0.52  0.436616396019
-0.04  0.54  0.343941519759
-0.04  0.56  0.270937532564
-0.04  0.58  0.213429150988
-0.04  0.6  0.168127324629
-0.04  0.62  0.132441126978
-0.04  0.64  0.104329573756
-0.04  0.66  0.0821848938347
-0.04  0.68  0.064740576727
-0.04  0.7  0.0509989376317
-0.04  0.72  0.0401740573077
-0.04  0.74  0.031646833356
-0.04  0.76  0.0249295721811
-0.04  0.78  0.0196380965559
-0.04  0.8  0.01546977355
-0.04  0.82  0.0121862061838
-0.04  0.84  0.00959959889999
-0.04  0.86  0.00756201705855
-0.04  0.88  0.00595692617885
-0.04  0.9  0.00469252703684
-0.04  0.92  0.00369650543424
-0.04  0.94  0.00291189636587
-0.04  0.96  0.00229382604637
-0.04  0.98  0.00180694546436
-0.02  -1  0.00182321526268
-0.02  -0.98  0.00231447973398
-0.02  -0.96  0.00293811517964
-0.02  -0.94  0.0037297888947
-0.02  -0.92  0.00473477870963
-0.02  -0.9  0.00601056254446
-0.02  -0.88  0.00763010571695
-0.02  -0.86  0.00968603401448
-0.02  -0.84  0.0122959311981
-0.02  -0.82  0.0156090639163
-0.02  -0.8  0.0198149186442
-0.02  -0.78  0.0251540388956
-0.02  -0.76  0.0319317825182
-0.02  -0.74  0.040535785884
-0.02  -0.72  0.051458133798
-0.02  -0.7  0.0653235030784
-0.02  -0.68  0.0829248894097
-0.02  -0.66  0.105268960781
-0.02  -0.64  0.133633631383
-0.02  -0.62  0.169641148769
-0.02  -0.6  0.215350874311
-0.02  -0.58  0.273377063308
-0.02  -0.56  0.347038380883
-0.02  -0.54  0.440547704876
-0.02  -0.52  0.559253071023
-0.02  -0.5  0.709943540703
-0.02  -0.48  0.901237484605
-0.02  -0.46  1.14407548923
-0.02  -0.44  1.45234607683
-0.02  -0.42  1.84368002527
-0.02  -0.4  2.34045871696
-0.02  -0.38  2.97109418702
-0.02  -0.36  3.77165407967
-0.02  -0.34  4.78792444847
-0.02  -0.32  6.07802837694
-0.02  -0.3  7.71575018538
-0.02  -0.28  9.79475534353
-0.02  -0.26  12.4339474367
-0.02  -0.24  15.7842685637
-0.02  -0.22  20.0373320992
-0.02  -0.2  18.4090912764
-0.02  -0.18  18.5247530195
-0.02  -0.16  19.0910346563
-0.02  -0.14  20.0150541046
-0.02  -0.12  21.1623769075
-0.02  -0.1  22.3903842608
-0.02  -0.08  23.5698724226
-0.02  -0.06  24.5944549264
-0.02  -0.04  25.382821926
-0.02  -0.02  25.8781557464
-0.02  6.17561557e-16  26.0469549407
-0.02  0.02  25.8781557464
-0.02  0.04  25.382821926
-0.02  0.06  24.5944549264
-0.02  0.08  23.5698724226
-0.02  0.1  22.3903842608
-0.02  0.12  21.1623769075
-0.02  0.14  20.0150541046
-0.02  0.16  19.0910346563
-0.02  0.18  18.5247530195
-0.02  0.2  25.4363815485
-0.02  0.22  20.0373320992
-0.02  0.24  15.7842685637
-0.02  0.26  12.4339474367
-0.02  0.28  9.79475534353
-0.02  0.3  7.71575018538
-0.02  0.32  6.07802837694
-0.02  0.34  4.78792444847
-0.02  0.36  3.77165407967
-0.02  0.38  2.97109418702
-0.02  0.4  2.34045871696
-0.02  0.42  1.84368002527
-0.02  0.44  1.45234607683
-0.02  0.46  1.14407548923
-0.02  0.48  0.901237484605
-0.02  0.5  0.709943540703
-0.02  0.52  0.559253071023
-0.02  0.54  0.440547704876
-0.02  0.56  0.347038380883
-0.02  0.58  0.273377063308
-0.02  0.6  0.215350874311
-0.02  0.62  0.169641148769
-0.02  0.64  0.133633631383
-0.02  0.66  0.105268960781
-0.02  0.68  0.0829248894097
-0.02  0.7  0.0653235030784
-0.02  0.72  0.051458133798
-0.02  0.74  0.040535785884
-0.02  0.76  0.0319317825182
-0.02  0.78  0.0251540388956
-0.02  0.8  0.0198149186442
-0.02  0.82  0.0156090639163
-0.02  0.84  0.0122959311981
-0.02  0.86  0.00968603401448
-0.02  0.88  0.00763010571695
-0.02  0.9  0.00601056254446
-0.02  0.92  0.00473477870963
-0.02  0.94  0.0037297888947
-0.02  0.96  0.00293811517964
-0.02  0.98  0.00231447973398
2.8449465e-16  -1  0.00233531938811
2.8449465e-16  -0.98  0.00296457006849
2.8449465e-16  -0.96  0.00376337204056
2.8449465e-16  -0.94  0.00477741081792
2.8449465e-16  -0.92  0.00606468185372
2.8449465e-16  -0.9  0.00769880744793
2.8449465e-16  -0.88  0.00977324739367
2.8449465e-16  -0.86  0.0124066441801
2.8449465e-16  -0.84  0.0157496084579
2.8449465e-16  -0.82  0.0199933328446
2.8449465e-16  -0.8  0.025380526716
2.8449465e-16  -0.78  0.0322192973724
2.8449465e-16  -0.76  0.0409007714766
2.8449465e-16  -0.74  0.0519214645822
2.8449465e-16  -0.72  0.0659116781184
2.8449465e-16  -0.7  0.08367154793
2.8449465e-16  -0.68  0.106216806078
2.8449465e-16  -0.66  0.134836873138
2.8449465e-16  -0.64  0.171168603433
2.8449465e-16  -0.62  0.217289900897
2.8449465e-16  -0.6  0.275838559669
2.8449465e-16  -0.58  0.35016312625
2.8449465e-16  -0.56  0.444514411372
2.8449465e-16  -0.54  0.564288604666
2.8449465e-16  -0.52  0.716335896453
2.8449465e-16  -0.5  0.909352257522
2.8449465e-16  -0.48  1.15437678379
2.8449465e-16  -0.46  1.46542305023
2.8449465e-16  -0.44  1.86028058282
2.8449465e-16  -0.42  2.36153228673
2.8449465e-16  -0.4  2.99784601997
2.8449465e-16  -0.38  3.80561418109
2.8449465e-16  -0.36  4.8310350828
2.8449465e-16  -0.34  6.13275515085
2.8449465e-16  -0.32  7.78522306207
2.8449465e-16  -0.3  9.88294765327
2.8449465e-16  -0.28  12.5459031217
2.8449465e-16  -0.26  15.9263906539
2.8449465e-16  -0.24  20.2177489178
2.8449465e-16  -0.22  25.6654115918
2.8449465e-16  -0.2  23.5798310025
2.8449465e-16  -0.18  23.7279797793
2.8449465e-16  -0.16  24.4533184229
2.8449465e-16  -0.14  25.6368761612
2.8449465e-16  -0.12  27.1064586295
2.8449465e-16  -0.1  28.6793882992
2.8449465e-16  -0.08  30.1901707222
2.8449465e-16  -0.06  31.5025376352
2.8449465e-16  -0.04  32.5123409078
2.8449465e-16  -0.02  33.1468039349
2.8449465e-16  6.17561557e-16  33.3630153934
2.8449465e-16  0.02  33.1468039349
2.8449465e-16  0.04  32.5123409078
2.8449465e-16  0.06  31.5025376352
2.8449465e-16  0.08  30.1901707222
2.8449465e-16  0.1  28.6793882992
2.8449465e-16  0.12  27.1064586295
2.8449465e-16  0.14  25.6368761612
2.8449465e-16  0.16  24.4533184229
2.8449465e-16  0.18  23.7279797793
2.8449465e-16  0.2  32.5809443402
2.8449465e-16  0.22  25.6654115918
2.8449465e-16  0.24  20.2177489178
2.8449465e-16  0.26  15.9263906539
2.8449465e-16  0.28  12.5459031217
2.8449465e-16  0.3  9.88294765327
2.8449465e-16  0.32  7.78522306207
2.8449465e-16  0.34  6.13275515085
2.8449465e-16  0.36  4.8310350828
2.8449465e-16  0.38  3.80561418109
2.8449465e-16  0.4  2.99784601997
2.8449465e-16  0.42  2.36153228673
2.8449465e-16  0.44  1.86028058282
2.8449465e-16  0.46  1.46542305023
2.8449465e-16  0.48  1.15437678379
2.8449465e-16  0.5  0.909352257522
2.8449465e-16  0.52  0.716335896453
2.8449465e-16  0.54  0.564288604666
2.8449465e-16  0.56  0.444514411372
2.8449465e-16  0.58  0.35016312625
2.8449465e-16  0.6  0.275838559669
2.8449465e-16  0.62  0.217289900897
2.8449465e-16  0.64  0.171168603433
2.8449465e-16  0.66  0.134836873138
2.8449465e-16  0.68  0.106216806078
2.8449465e-16  0.7  0.08367154793
2.8449465e-16  0.72  0.0659116781184
2.8449465e-16  0.74  0.0519214645822
2.8449465e-16  0.76  0.0409007714766
2.8449465e-16  0.78  0.0322192973724
2.8449465e-16  0.8  0.025380526716
2.8449465e-16  0.82  0.0199933328446
2.8449465e-16  0.84  0.0157496084579
2.8449465e-16  0.86  0.0124066441801
2.8449465e-16  0.88  0.00977324739367
2.8449465e-16  0.9  0.00769880744793
2.8449465e-16  0.92  0.00606468185372
2.8449465e-16  0.94  0.00477741081792
2.8449465e-16  0.96  0.00376337204056
2.8449465e-16  0.98  0.00296457006849
0.02  -1  0.0028880024937
0.02  -0.98  0.00366617336975
0.02  -0.96  0.00465402201224
0.02  -0.94  0.00590804599399
0.02  -0.92  0.0074999661315
0.02  -0.9  0.00952082838064
0.02  -0.88  0.0120862109861
0.02  -0.86  0.0153428346945
0.02  -0.84  0.0194769540873
0.02  -0.82  0.0247250099522
0.02  -0.8  0.0313871519333
0.02  -0.78  0.0398444048512
0.02  -0.76  0.0505804604802
0.02  -0.74  0.0642093411093
0.02  -0.72  0.0815105170365
0.02  -0.7  0.103473486455
0.02  -0.68  0.131354367368
0.02  -0.66  0.166747738167
0.02  -0.64  0.211677835621
0.02  -0.62  0.268714326118
0.02  -0.6  0.341119271411
0.02  -0.58  0.433033694218
0.02  -0.56  0.549714413825
0.02  -0.54  0.697834696934
0.02  -0.52  0.885865918734
0.02  -0.5  1.12456206237
0.02  -0.48  1.42757476653
0.02  -0.46  1.81223409738
0.02  -0.44  2.300539699
0.02  -0.42  2.92041900896
0.02  -0.4  3.70732449938
0.02  -0.38  4.70626129386
0.02  -0.36  5.97436112479
0.02  -0.34  7.58414984224
0.02  -0.32  9.62769535155
0.02  -0.3  12.2218732106
0.02  -0.28  15.51505104
0.02  -0.26  19.6955740437
0.02  -0.24  25.0025369502
0.02  -0.22  31.7394584468
0.02  -0.2  29.1602986226
0.02  -0.18  29.3435086962
0.02  -0.16  30.2405079769
0.02  -0.14  31.7041697428
0.02  -0.12  33.5215476376
0.02  -0.1  35.4667311665
0.02  -0.08  37.3350595105
0.02  -0.06  38.9580147844
0.02  -0.04  40.2068008753
0.02  -0.02  40.9914176663
0.02  6.17561557e-16  41.2587983229
0.02  0.02  40.9914176663
0.02  0.04  40.2068008753
0.02  0.06  38.9580147844
0.02  0.08  37.3350595105
0.02  0.1  35.4667311665
0.02  0.12  33.5215476376
0.02  0.14  31.7041697428
0.02  0.16  30.2405079769
0.02  0.18  29.3435086962
0.02  0.2  40.2916401845
0.02  0.22  31.7394584468
0.02  0.24  25.0025369502
0.02  0.26  19.6955740437
0.02  0.28  15.51505104
0.02  0.3  12.2218732106
0.02  0.32  9.62769535155
0.02  0.34  7.58414984224
0.02  0.36  5.97436112479
0.02  0.38  4.70626129386
0.02  0.4  3.70732449938
0.02  0.42  2.92041900896
0.02  0.44  2.300539699
0.02  0.46  1.81223409738
0.02  0.48  1.42757476653
0.02  0.5  1.12456206237
0.02  0.52  0.885865918734
0.02  0.54  0.697834696934
0.02  0.56  0.549714413825
0.02  0.58  0.433033694218
0.02  0.6  0.341119271411
0.02  0.62  0.268714326118
0.02  0.64  0.211677835621
0.02  0.66  0.166747738167
0.02  0.68  0.131354367368
0.02  0.7  0.103473486455
0.02  0.72  0.0815105170365
0.02  0.74  0.0642093411093
0.02  0.76  0.0505804604802
0.02  0.78  0.0398444048512
0.02  0.8  0.0313871519333
0.02  0.82  0.0247250099522
0.02  0.84  0.0194769540873
0.02  0.86  0.0153428346946
0.02  0.88  0.0120862109861
0.02  0.9  0.00952082838064
0.02  0.92  0.0074999661315
0.02  0.94  0.00590804599399
0.02  0.96  0.00465402201224
0.02  0.98  0.00366617336975
0.04  -1  0.00338261270923
0.04  -0.98  0.00429405606879
0.04  -0.96  0.00545108740106
0.04  -0.94  0.00691988026657
0.04  -0.92  0.00878443865977
0.04  -0.9  0.0111514014108
0.04  -0.88  0.0141561411311
0.04  -0.86  0.0179705065167
0.04  -0.84  0.0228126508119
0.04  -0.82  0.028959508547
0.04  -0.8  0.0367626341278
0.04  -0.78  0.0466683081248
0.04  -0.76  0.0592430611926
0.04  -0.74  0.0752060753967
0.04  -0.72  0.0954703160626
0.04  -0.7  0.121194746582
0.04  -0.68  0.15385061247
0.04  -0.66  0.195305585639
0.04  -0.64  0.247930581291
0.04  -0.62  0.314735356587
0.04  -0.6  0.399540646296
0.04  -0.58  0.507196680328
0.04  -0.56  0.643860580697
0.04  -0.54  0.817348502965
0.04  -0.52  1.03758266204
0.04  -0.5  1.31715880882
0.04  -0.48  1.67206661323
0.04  -0.46  2.12260415399
0.04  -0.44  2.69453881736
0.04  -0.42  3.42058099933
0.04  -0.4  4.34225489631
0.04  -0.38  5.51227337936
0.04  -0.36  6.99755277715
0.04  -0.34  8.88303999079
0.04  -0.32  11.2765708228
0.04  -0.3  14.3150373807
0.04  -0.28  18.1722172839
0.04  -0.26  23.0687124478
0.04  -0.24  29.2845658669
0.04  -0.22  37.1752779855
0.04  -0.2  34.1544015079
0.04  -0.18  34.3689888306
0.04  -0.16  35.4196115963
0.04  -0.14  37.1339456047
0.04  -0.12  39.2625745023
0.04  -0.1  41.5408975096
0.04  -0.08  43.7292028228
0.04  -0.06  45.6301115472
0.04  -0.04  47.0927694608
0.04  -0.02  48.0117626871
0.04  6.17561557e-16  48.3249359648
0.04  0.02  48.0117626871
0.04  0.04  47.0927694608
0.04  0.06  45.6301115472
0.04  0.08  43.7292028228
0.04  0.1  41.5408975096
0.04  0.12  39.2625745023
0.04  0.14  37.1339456047
0.04  0.16  35.4196115963
0.04  0.18  34.3689888306
0.04  0.2  47.1921386706
0.04  0.22  37.1752779855
0.04  0.24  29.2845658669
0.04  0.26  23.0687124478
0.04  0.28  18.1722172839
0.04  0.3  14.3150373807
0.04  0.32  11.2765708228
0.04  0.34  8.88303999079
0.04  0.36  6.99755277715
0.04  0.38  5.51227337936
