0.46  -0.78  0.0345607326005
0.46  -0.76  0.041542076777
0.46  -0.74  0.0499336678678
0.46  -0.72  0.0600203788588
0.46  -0.7  0.0721446277068
0.46  -0.68  0.0867180015506
0.46  -0.66  0.104235229039
0.46  -0.64  0.125290975097
0.46  -0.62  0.150600028278
0.46  -0.6  0.181021565997
0.46  -0.58  0.217588321401
0.46  -0.56  0.26154164201
0.46  -0.54  0.31437363028
0.46  -0.52  0.377877796651
0.46  -0.5  0.454209944628
0.46  -0.48  0.545961354776
0.46  -0.46  0.656246752044
0.46  -0.44  0.788810042691
0.46  -0.42  0.948151410293
0.46  -0.4  1.13968008543
0.46  -0.38  1.36989797517
0.46  -0.36  1.64662038618
0.46  -0.34  1.97924133426
0.46  -0.32  2.37905244713
0.46  -0.3  2.85962628621
0.46  -0.28  3.43727710024
0.46  -0.26  4.13161465217
0.46  -0.24  4.96620992029
0.46  -0.22  5.96939527249
0.46  -0.2  5.27479784194
0.46  -0.18  5.27532023276
0.46  -0.16  5.28659383728
0.46  -0.14  5.30734666549
0.46  -0.12  5.33525783075
0.46  -0.1  5.36724733971
0.46  -0.08  5.39984227369
0.46  -0.06  5.42956508533
0.46  -0.04  5.4532969743
0.46  -0.02  5.46858272486
0.46  6.17561557e-16  5.47385704435
0.46  0.02  5.46858272486
0.46  0.04  5.4532969743
0.46  0.06  5.42956508533
0.46  0.08  5.39984227369
0.46  0.1  5.36724733971
0.46  0.12  5.33525783075
0.46  0.14  5.30734666549
0.46  0.16  5.28659383728
0.46  0.18  5.27532023276
0.46  0.2  7.17522627742
0.46  0.22  5.96939527249
0.46  0.24  4.96620992029
0.46  0.26  4.13161465217
0.46  0.28  3.43727710024
0.46  0.3  2.85962628621
0.46  0.32  2.37905244713
0.46  0.34  1.97924133426
0.46  0.36  1.64662038618
0.46  0.38  1.36989797517
0.46  0.4  1.13968008543
0.46  0.42  0.948151410293
0.46  0.44  0.788810042691
0.46  0.46  0.656246752044
0.46  0.48  0.545961354776
0.46  0.5  0.454209944628
0.46  0.52  0.377877796651
0.46  0.54  0.31437363028
0.46  0.56  0.26154164201
0.46  0.58  0.217588321401
0.46  0.6  0.181021565997
0.46  0.62  0.150600028278
0.46  0.64  0.125290975097
0.46  0.66  0.104235229039
0.46  0.68  0.0867180015505
0.46  0.7  0.0721446277067
0.46  0.72  0.0600203788588
0.46  0.74  0.0499336678678
0.46  0.76  0.041542076777
0.46  0.78  0.0345607326005
0.46  0.8  0.028752636617
0.46  0.82  0.0239206188707
0.46  0.84  0.0199006447576
0.46  0.86  0.0165562464712
0.46  0.88  0.0137738902711
0.46  0.9  0.0114591223035
0.46  0.92  0.00953336213528
0.46  0.94  0.00793123515009
0.46  0.96  0.00659835324762
0.46  0.98  0.00548946850729
0.48  -1  0.00365138458881
0.48  -0.98  0.00438897232544
0.48  -0.96  0.00527555441093
0.48  -0.94  0.00634122803221
0.48  -0.92  0.00762217007432
0.48  -0.9  0.00916186523285
0.48  -0.88  0.0110125822078
0.48  -0.86  0.0132371480916
0.48  -0.84  0.0159110811882
0.48  -0.82  0.0191251546651
0.48  -0.8  0.02298847807
0.48  -0.78  0.0276322013195
0.48  -0.76  0.0332139669029
0.48  -0.74  0.0399232614394
0.48  -0.72  0.0479878482633
0.48  -0.7  0.0576814994045
0.48  -0.68  0.0693332894465
0.48  -0.66  0.0833387667639
0.48  -0.64  0.100173381375
0.48  -0.62  0.120408625251
0.48  -0.6  0.144731433
0.48  -0.58  0.173967501535
0.48  -0.56  0.209109320366
0.48  -0.54  0.251349864074
0.48  -0.52  0.302123090733
0.48  -0.5  0.363152621109
0.48  -0.48  0.436510251164
0.48  -0.46  0.524686284211
0.48  -0.44  0.630674070323
0.48  -0.42  0.758071622887
0.48  -0.4  0.911203761923
0.48  -0.38  1.09526893063
0.48  -0.36  1.31651566921
0.48  -0.34  1.58245473672
0.48  -0.32  1.90211408215
0.48  -0.3  2.28634532007
0.48  -0.28  2.7481921151
0.48  -0.26  3.30333298091
0.48  -0.24  3.97061352544
0.48  -0.22  4.77268621103
0.48  -0.2  4.21733756553
0.48  -0.18  4.21775523053
0.48  -0.16  4.22676876948
0.48  -0.14  4.24336119343
0.48  -0.12  4.26567689334
0.48  -0.1  4.29125333473
0.48  -0.08  4.31731382911
0.48  -0.06  4.34107798725
0.48  -0.04  4.36005224747
0.48  -0.02  4.37227360116
0.48  6.17561557e-16  4.37649055627
0.48  0.02  4.37227360116
0.48  0.04  4.36005224747
0.48  0.06  4.34107798725
0.48  0.08  4.31731382911
0.48  0.1  4.29125333473
0.48  0.12  4.26567689334
0.48  0.14  4.24336119343
0.48  0.16  4.22676876948
0.48  0.18  4.21775523053
0.48  0.2  5.73677934732
0.48  0.22  4.77268621103
0.48  0.24  3.97061352544
0.48  0.26  3.3033329809
0.48  0.28  2.7481921151
0.48  0.3  2.28634532007
0.48  0.32  1.90211408215
0.48  0.34  1.58245473672
0.48  0.36  1.31651566921
0.48  0.38  1.09526893063
0.48  0.4  0.911203761923
0.48  0.42  0.758071622886
0.48  0.44  0.630674070323
0.48  0.46  0.524686284211
0.48  0.48  0.436510251164
0.48  0.5  0.363152621109
0.48  0.52  0.302123090733
0.48  0.54  0.251349864074
0.48  0.56  0.209109320366
0.48  0.58  0.173967501535
0.48  0.6  0.144731433
0.48  0.62  0.120408625251
0.48  0.64  0.100173381375
0.48  0.66  0.0833387667639
0.48  0.68  0.0693332894465
0.48  0.7  0.0576814994045
0.48  0.72  0.0479878482633
0.48  0.74  0.0399232614394
0.48  0.76  0.0332139669029
0.48  0.78  0.0276322013195
0.48  0.8  0.02298847807
0.48  0.82  0.0191251546651
0.48  0.84  0.0159110811882
0.48  0.86  0.0132371480916
0.48  0.88  0.0110125822078
0.48  0.9  0.00916186523285
0.48  0.92  0.00762217007432
0.48  0.94  0.0063412280322
0.48  0.96  0.00527555441093
0.48  0.98  0.00438897232544
0.5  -1  0.00291937660059
0.5  -0.98  0.00350909710984
0.5  -0.96  0.00421794246204
0.5  -0.94  0.00506997613808
0.5  -0.92  0.00609412249503
0.5  -0.9  0.00732514867387
0.5  -0.88  0.00880484485471
0.5  -0.86  0.0105834429262
0.5  -0.84  0.0127213217291
0.5  -0.82  0.0152910567632
0.5  -0.8  0.0183798839394
0.5  -0.78  0.0220926610147
0.5  -0.76  0.0265554272443
0.5  -0.74  0.0319196820906
0.5  -0.72  0.0383675282417
0.5  -0.7  0.04611785353
0.5  -0.68  0.0554337616125
0.5  -0.66  0.0666315036652
0.5  -0.64  0.0800912142986
0.5  -0.62  0.0962698161527
0.5  -0.6  0.115716531248
0.5  -0.58  0.139091525664
0.5  -0.56  0.167188320483
0.5  -0.54  0.200960729798
0.5  -0.52  0.241555240246
0.5  -0.5  0.290349931299
0.5  -0.48  0.349001257514
0.5  -0.46  0.419500280926
0.5  -0.44  0.504240262486
0.5  -0.42  0.606097907135
0.5  -0.4  0.728531020555
0.5  -0.38  0.875695892796
0.5  -0.36  1.05258839366
0.5  -0.34  1.26521356968
0.5  -0.32  1.52078949999
0.5  -0.3  1.82799233166
0.5  -0.28  2.19725081257
0.5  -0.26  2.64110032067
0.5  -0.24  3.17460840791
0.5  -0.22  3.81588630491
0.5  -0.2  3.37187067156
0.5  -0.18  3.37220460555
0.5  -0.16  3.37941116352
0.5  -0.14  3.39267723644
0.5  -0.12  3.4105192168
0.5  -0.1  3.43096824448
0.5  -0.08  3.45180428507
0.5  -0.06  3.47080434533
0.5  -0.04  3.48597475807
0.5  -0.02  3.49574604705
0.5  6.17561557e-16  3.49911761194
0.5  0.02  3.49574604705
0.5  0.04  3.48597475807
0.5  0.06  3.47080434533
0.5  0.08  3.45180428507
0.5  0.1  3.43096824448
0.5  0.12  3.4105192168
0.5  0.14  3.39267723644
0.5  0.16  3.37941116352
0.5  0.18  3.37220460555
0.5  0.2  4.58670375085
0.5  0.22  3.81588630491
0.5  0.24  3.17460840791
0.5  0.26  2.64110032067
0.5  0.28  2.19725081256
0.5  0.3  1.82799233165
0.5  0.32  1.52078949999
0.5  0.34  1.26521356968
0.5  0.36  1.05258839366
0.5  0.38  0.875695892796
0.5  0.4  0.728531020555
0.5  0.42  0.606097907135
0.5  0.44  0.504240262486
0.5  0.46  0.419500280926
0.5  0.48  0.349001257514
0.5  0.5  0.290349931299
0.5  0.52  0.241555240246
0.5  0.54  0.200960729797
0.5  0.56  0.167188320483
0.5  0.58  0.139091525664
0.5  0.6  0.115716531248
0.5  0.62  0.0962698161527
0.5  0.64  0.0800912142986
0.5  0.66  0.0666315036652
0.5  0.68  0.0554337616125
0.5  0.7  0.0461178535299
0.5  0.72  0.0383675282417
0.5  0.74  0.0319196820906
0.5  0.76  0.0265554272442
0.5  0.78  0.0220926610147
0.5  0.8  0.0183798839394
0.5  0.82  0.0152910567632
0.5  0.84  0.0127213217291
0.5  0.86  0.0105834429262
0.5  0.88  0.00880484485471
0.5  0.9  0.00732514867387
0.5  0.92  0.00609412249502
0.5  0.94  0.00506997613807
0.5  0.96  0.00421794246204
0.5  0.98  0.00350909710984
0.52  -1  0.00233411724478
0.52  -0.98  0.00280561407392
0.52  -0.96  0.00337235430199
0.52  -0.94  0.00405357730555
0.52  -0.92  0.00487240885762
0.52  -0.9  0.00585664618837
0.52  -0.88  0.00703970162973
0.52  -0.86  0.00846173687837
0.52  -0.84  0.0101710263822
0.52  -0.82  0.012225596134
0.52  -0.8  0.0146951935051
0.52  -0.78  0.0176636549896
0.52  -0.76  0.021231752238
0.52  -0.74  0.0255206129968
0.52  -0.72  0.0306758330838
0.52  -0.7  0.0368724189934
0.52  -0.68  0.0443207289175
0.52  -0.66  0.0532736138664
0.52  -0.64  0.0640350013122
0.52  -0.62  0.0769702127462
0.52  -0.6  0.0925183654063
0.52  -0.58  0.111207279181
0.52  -0.56  0.133671394738
0.52  -0.54  0.160673311161
0.52  -0.52  0.19312967423
0.52  -0.5  0.23214229419
0.52  -0.48  0.279035549387
0.52  -0.46  0.335401345514
0.52  -0.44  0.403153156719
0.52  -0.42  0.484590983151
0.52  -0.4  0.582479430057
0.52  -0.38  0.700141559038
0.52  -0.36  0.841571697467
0.52  -0.34  1.01157103565
0.52  -0.32  1.21591061492
0.52  -0.3  1.46152723968
0.52  -0.28  1.75675896411
0.52  -0.26  2.11162814774
0.52  -0.24  2.5381816888
0.52  -0.22  3.0508999855
0.52  -0.2  2.69589798043
0.52  -0.18  2.69616496931
0.52  -0.16  2.70192679916
0.52  -0.14  2.71253336823
0.52  -0.12  2.72679849389
0.52  -0.1  2.74314802144
0.52  -0.08  2.75980697583
0.52  -0.06  2.77499801637
0.52  -0.04  2.78712715448
0.52  -0.02  2.79493955324
0.52  6.17561557e-16  2.79763520674
0.52  0.02  2.79493955324
0.52  0.04  2.78712715448
0.52  0.06  2.77499801637
0.52  0.08  2.75980697583
0.52  0.1  2.74314802144
0.52  0.12  2.72679849389
0.52  0.14  2.71253336823
0.52  0.16  2.70192679916
0.52  0.18  2.69616496931
0.52  0.2  3.66718850846
0.52  0.22  3.0508999855
0.52  0.24  2.5381816888
0.52  0.26  2.11162814774
0.52  0.28  1.75675896411
0.52  0.3  1.46152723968
0.52  0.32  1.21591061492
0.52  0.34  1.01157103565
0.52  0.36  0.841571697467
0.52  0.38  0.700141559038
0.52  0.4  0.582479430057
0.52  0.42  0.484590983151
0.52  0.44  0.403153156719
0.52  0.46  0.335401345514
0.52  0.48  0.279035549387
0.52  0.5  0.23214229419
0.52  0.52  0.19312967423
0.52  0.54  0.160673311161
0.52  0.56  0.133671394738
0.52  0.58  0.11120727918
0.52  0.6  0.0925183654063
0.52  0.62  0.0769702127462
0.52  0.64  0.0640350013122
0.52  0.66  0.0532736138664
0.52  0.68  0.0443207289175
0.52  0.7  0.0368724189934
0.52  0.72  0.0306758330838
0.52  0.74  0.0255206129968
0.52  0.76  0.021231752238
0.52  0.78  0.0176636549896
0.52  0.8  0.0146951935051
0.52  0.82  0.012225596134
0.52  0.84  0.0101710263822
0.52  0.86  0.00846173687837
0.52  0.88  0.00703970162973
0.52  0.9  0.00585664618836
0.52  0.92  0.00487240885762
0.52  0.94  0.00405357730555
0.52  0.96  0.00337235430199
0.52  0.98  0.00280561407392
0.54  -1  0.00186618722342
0.54  -0.98  0.00224316115667
0.54  -0.96  0.0026962846555
0.54  -0.94  0.00324094010002
0.54  -0.92  0.00389561714507
0.54  -0.9  0.00468254039649
0.54  -0.88  0.00562842387952
0.54  -0.86  0.00676537791137
0.54  -0.84  0.00813199916414
0.54  -0.82  0.00977468092276
0.54  -0.8  0.011749188018
0.54  -0.78  0.0141225498994
0.54  -0.76  0.0169753361131
0.54  -0.74  0.0204043914311
0.54  -0.72  0.0245261234828
0.54  -0.7  0.0294804544956
0.54  -0.68  0.0354355712951
0.54  -0.66  0.0425936348165
0.54  -0.64  0.0511976429496
0.54  -0.62  0.0615396796936
0.54  -0.6  0.0739708306595
0.54  -0.58  0.0889131015258
0.54  -0.56  0.106873744048
0.54  -0.54  0.128462475955
0.54  -0.52  0.154412179301
0.54  -0.5  0.185603779931
0.54  -0.48  0.223096152651
0.54  -0.46  0.268162067315
0.54  -0.44  0.322331396092
0.54  -0.42  0.387443048701
0.54  -0.4  0.465707398679
0.54  -0.38  0.559781319891
0.54  -0.36  0.67285838058
0.54  -0.34  0.808777256813
0.54  -0.32  0.972152045686
0.54  -0.3  1.16852890208
0.54  -0.28  1.40457431639
0.54  -0.26  1.68830142477
0.54  -0.24  2.02934203453
0.54  -0.22  2.43927359931
0.54  -0.2  2.15544029674
0.54  -0.18  2.15565376127
0.54  -0.16  2.16026049355
0.54  -0.14  2.16874072038
0.54  -0.12  2.18014605801
0.54  -0.1  2.19321792897
0.54  -0.08  2.2065371947
0.54  -0.06  2.21868282528
0.54  -0.04  2.22838038551
0.54  -0.02  2.23462660076
0.54  6.17561557e-16  2.23678184559
0.54  0.02  2.23462660076
0.54  0.04  2.22838038551
0.54  0.06  2.21868282528
0.54  0.08  2.2065371947
0.54  0.1  2.19321792897
0.54  0.12  2.18014605801
0.54  0.14  2.16874072038
0.54  0.16  2.16026049355
0.54  0.18  2.15565376127
0.54  0.2  2.93201224389
0.54  0.22  2.43927359931
0.54  0.24  2.02934203453
0.54  0.26  1.68830142477
0.54  0.28  1.40457431639
0.54  0.3  1.16852890208
0.54  0.32  0.972152045686
0.54  0.34  0.808777256813
0.54  0.36  0.67285838058
0.54  0.38  0.559781319891
0.54  0.4  0.465707398679
0.54  0.42  0.387443048701
0.54  0.44  0.322331396092
0.54  0.46  0.268162067315
0.54  0.48  0.223096152651
0.54  0.5  0.185603779931
0.54  0.52  0.154412179301
0.54  0.54  0.128462475955
0.54  0.56  0.106873744048
0.54  0.58  0.0889131015257
0.54  0.6  0.0739708306595
0.54  0.62  0.0615396796936
0.54  0.64  0.0511976429496
0.54  0.66  0.0425936348165
0.54  0.68  0.0354355712951
0.54  0.7  0.0294804544956
0.54  0.72  0.0245261234828
0.54  0.74  0.020404391431
0.54  0.76  0.0169753361131
0.54  0.78  0.0141225498994
0.54  0.8  0.011749188018
0.54  0.82  0.00977468092276
0.54  0.84  0.00813199916413
0.54  0.86  0.00676537791137
0.54  0.88  0.00562842387952
0.54  0.9  0.00468254039649
0.54  0.92  0.00389561714507
0.54  0.94  0.00324094010002
0.54  0.96  0.0026962846555
0.54  0.98  0.00224316115667
0.56  -1  0.00149206504542
0.56  -0.98  0.00179346547395
0.56  -0.96  0.00215574945348
0.56  -0.94  0.00259121559556
0.56  -0.92  0.00311464685835
0.56  -0.9  0.00374381239016
0.56  -0.88  0.00450007074642
0.56  -0.86  0.00540909495787
0.56  -0.84  0.00650174406402
0.56  -0.82  0.00781511069843
0.56  -0.8  0.00939378028838
0.56  -0.78  0.0112913446158
0.56  -0.76  0.0135722211206
0.56  -0.74  0.0163138397077
0.56  -0.72  0.0196092712935
0.56  -0.7  0.0235703873245
0.56  -0.68  0.0283316575264
0.56  -0.66  0.0340547148055
0.56  -0.64  0.0409338422718
0.56  -0.62  0.0492025686518
0.56  -0.6  0.0591415959894
0.56  -0.58  0.0710883287604
0.56  -0.56  0.0854483278883
0.56  -0.54  0.102709078498
0.56  -0.52  0.123456538782
0.56  -0.5  0.148395031783
0.56  -0.48  0.178371155349
0.56  -0.46  0.214402521959
0.56  -0.44  0.257712304058
0.56  -0.42  0.30977075762
0.56  -0.4  0.372345133567
0.56  -0.38  0.447559671404
0.56  -0.36  0.537967711699
0.56  -0.34  0.646638375443
0.56  -0.32  0.777260752835
0.56  -0.3  0.934269138424
0.56  -0.28  1.12299356404
0.56  -0.26  1.34984073968
0.56  -0.24  1.62251154489
0.56  -0.22  1.95026245388
0.56  -0.2  1.72333037324
0.56  -0.18  1.72350104366
0.56  -0.16  1.72718424549
0.56  -0.14  1.7339644066
0.56  -0.12  1.7430832696
0.56  -0.1  1.75353456917
0.56  -0.08  1.76418366728
0.56  -0.06  1.77389441367
0.56  -0.04  1.78164786438
0.56  -0.02  1.78664187533
0.56  6.17561557e-16  1.78836504942
0.56  0.02  1.78664187533
0.56  0.04  1.78164786438
0.56  0.06  1.77389441367
0.56  0.08  1.76418366728
0.56  0.1  1.75353456917
0.56  0.12  1.7430832696
0.56  0.14  1.7339644066
0.56  0.16  1.72718424549
0.56  0.18  1.72350104366
0.56  0.2  2.34421976904
0.56  0.22  1.95026245388
0.56  0.24  1.62251154489
0.56  0.26  1.34984073968
0.56  0.28  1.12299356404
0.56  0.3  0.934269138424
0.56  0.32  0.777260752834
0.56  0.34  0.646638375443
0.56  0.36  0.537967711699
0.56  0.38  0.447559671404
0.56  0.4  0.372345133567
0.56  0.42  0.30977075762
0.56  0.44  0.257712304058
0.56  0.46  0.214402521959
0.56  0.48  0.178371155349
0.56  0.5  0.148395031783
0.56  0.52  0.123456538782
0.56  0.54  0.102709078498
0.56  0.56  0.0854483278883
0.56  0.58  0.0710883287603
0.56  0.6  0.0591415959894
0.56  0.62  0.0492025686518
0.56  0.64  0.0409338422718
0.56  0.66  0.0340547148055
0.56  0.68  0.0283316575264
0.56  0.7  0.0235703873245
0.56  0.72  0.0196092712935
0.56  0.74  0.0163138397077
0.56  0.76  0.0135722211206
0.56  0.78  0.0112913446158
0.56  0.8  0.00939378028838
0.56  0.82  0.00781511069843
0.56  0.84  0.00650174406402
0.56  0.86  0.00540909495787
0.56  0.88  0.00450007074642
0.56  0.9  0.00374381239016
0.56  0.92  0.00311464685835
0.56  0.94  0.00259121559556
0.56  0.96  0.00215574945348
0.56  0.98  0.00179346547394
0.58  -1  0.00119294466913
0.58  -0.98  0.00143392212221
0.58  -0.96  0.00172357755206
0.58  -0.94  0.00207174401731
0.58  -0.92  0.00249024087608
0.58  -0.9  0.00299327502293
0.58  -0.88  0.00359792317642
0.58  -0.86  0.00432471158988
0.58  -0.84  0.00519831286512
0.58  -0.82  0.00624838352386
0.58  -0.8  0.00751057077061
0.58  -0.78  0.00902772262376
0.58  -0.76  0.0108513424959
0.58  -0.74  0.0130433376025
0.58  -0.72  0.015678120553
0.58  -0.7  0.018845135468
0.58  -0.68  0.0226518943778
0.58  -0.66  0.0272276269795
0.58  -0.64  0.0327276676543
0.58  -0.62  0.0393387286705
0.58  -0.6  0.0472852385865
0.58  -0.58  0.056836961024
0.58  -0.56  0.0683181524512
0.58  -0.54  0.0821185698578
0.58  -0.52  0.0987067020042
0.58  -0.5  0.118645673414
0.58  -0.48  0.142612361005
0.58  -0.46  0.171420372325
0.58  -0.44  0.206047665441
0.58  -0.42  0.247669748104
0.58  -0.4  0.297699583223
0.58  -0.38  0.35783555533
0.58  -0.36  0.430119126377
0.58  -0.34  0.517004138127
0.58  -0.32  0.621440113795
0.58  -0.3  0.746972386783
0.58  -0.28  0.897862455657
0.58  -0.26  1.07923265109
0.58  -0.24  1.29724002584
0.58  -0.22  1.5592853709
0.58  -0.2  1.37784729172
0.58  -0.18  1.37798374714
0.58  -0.16  1.38092856246
0.58  -0.14  1.38634947696
0.58  -0.12  1.39364024423
0.58  -0.1  1.40199632907
0.58  -0.08  1.41051055898
0.58  -0.06  1.41827455235
0.58  -0.04  1.42447363712
0.58  -0.02  1.42846647829
0.58  6.17561557e-16  1.42984420063
0.58  0.02  1.42846647829
0.58  0.04  1.42447363712
0.58  0.06  1.41827455235
0.58  0.08  1.41051055898
0.58  0.1  1.40199632907
0.58  0.12  1.39364024423
0.58  0.14  1.38634947696
0.58  0.16  1.38092856246
0.58  0.18  1.37798374714
0.58  0.2  1.87426445336
0.58  0.22  1.5592853709
0.58  0.24  1.29724002584
0.58  0.26  1.07923265109
0.58  0.28  0.897862455657
0.58  0.3  0.746972386783
0.58  0.32  0.621440113795
0.58  0.34  0.517004138127
0.58  0.36  0.430119126377
0.58  0.38  0.35783555533
0.58  0.4  0.297699583223
0.58  0.42  0.247669748104
0.58  0.44  0.206047665441
0.58  0.46  0.171420372325
0.58  0.48  0.142612361005
0.58  0.5  0.118645673414
0.58  0.52  0.0987067020042
0.58  0.54  0.0821185698577
0.58  0.56  0.0683181524512
0.58  0.58  0.056836961024
0.58  0.6  0.0472852385864
0.58  0.62  0.0393387286705
0.58  0.64  0.0327276676543
0.58  0.66  0.0272276269795
0.58  0.68  0.0226518943778
0.58  0.7  0.018845135468
0.58  0.72  0.015678120553
0.58  0.74  0.0130433376025
0.58  0.76  0.0108513424959
0.58  0.78  0.00902772262376
0.58  0.8  0.0075105707706
0.58  0.82  0.00624838352386
0.58  0.84  0.00519831286512
0.58  0.86  0.00432471158988
0.58  0.88  0.00359792317642
0.58  0.9  0.00299327502293
0.58  0.92  0.00249024087608
0.58  0.94  0.00207174401731
0.58  0.96  0.00172357755206
0.58  0.98  0.00143392212221
0.6  -1  0.00095379017689
0.6  -0.98  0.00114645789531
0.6  -0.96  0.00137804491759
0.6  -0.94  0.00165641302893
0.6  -0.92  0.00199101211243
0.6  -0.9  0.00239320094844
0.6  -0.88  0.00287663281598
0.6  -0.86  0.00345771898651
0.6  -0.84  0.00415618584453
0.6  -0.82  0.00499574454768
0.6  -0.8  0.00600489595973
0.6  -0.78  0.00721789818174
0.6  -0.76  0.00867592952672
0.6  -0.74  0.0104284864177
0.6  -0.72  0.0125350636643
0.6  -0.7  0.0150671741588
0.6  -0.68  0.0181107765553
0.6  -0.66  0.0217691933457
0.6  -0.64  0.026166618393
0.6  -0.62  0.0314523329943
0.6  -0.6  0.0378057735976
0.6  -0.58  0.0454426232094
0.6  -0.56  0.0546221332786
0.6  -0.54  0.0656559246186
0.6  -0.52  0.0789185661339
0.6  -0.5  0.0948602904735
0.6  -0.48  0.114022278274
0.6  -0.46  0.137055029854
0.6  -0.44  0.164740448031
0.6  -0.42  0.198018381713
0.6  -0.4  0.238018531362
0.6  -0.38  0.286098799423
0.6  -0.36  0.343891387628
0.6  -0.34  0.413358206057
0.6  -0.32  0.496857474953
0.6  -0.3  0.597223780245
0.6  -0.28  0.717864300469
0.6  -0.26  0.862874471738
0.6  -0.24  1.03717701729
0.6  -0.22  1.2466890613
0.6  -0.2  1.10162461521
0.6  -0.18  1.10173371486
0.6  -0.16  1.10408817101
0.6  -0.14  1.10842233264
0.6  -0.12  1.11425149
0.6  -0.1  1.12093239637
0.6  -0.08  1.12773974381
0.6  -0.06  1.13394725772
0.6  -0.04  1.13890358663
0.6  -0.02  1.14209596662
0.6  6.17561557e-16  1.14319749133
0.6  0.02  1.14209596662
0.6  0.04  1.13890358663
0.6  0.06  1.13394725772
0.6  0.08  1.12773974381
0.6  0.1  1.12093239637
0.6  0.12  1.11425149
0.6  0.14  1.10842233264
0.6  0.16  1.10408817101
0.6  0.18  1.10173371486
0.6  0.2  1.49852300008
0.6  0.22  1.24668906129
0.6  0.24  1.03717701729
0.6  0.26  0.862874471738
0.6  0.28  0.717864300469
0.6  0.3  0.597223780245
0.6  0.32  0.496857474953
0.6  0.34  0.413358206057
0.6  0.36  0.343891387628
0.6  0.38  0.286098799423
0.6  0.4  0.238018531362
0.6  0.42  0.198018381713
0.6  0.44  0.164740448031
0.6  0.46  0.137055029854
0.6  0.48  0.114022278274
0.6  0.5  0.0948602904735
0.6  0.52  0.0789185661338
0.6  0.54  0.0656559246186
0.6  0.56  0.0546221332786
0.6  0.58  0.0454426232094
0.6  0.6  0.0378057735976
0.6  0.62  0.0314523329943
0.6  0.64  0.026166618393
0.6  0.66  0.0217691933457
0.6  0.68  0.0181107765553
0.6  0.7  0.0150671741588
0.6  0.72  0.0125350636643
0.6  0.74  0.0104284864177
0.6  0.76  0.00867592952672
0.6  0.78  0.00721789818173
0.6  0.8  0.00600489595973
0.6  0.82  0.00499574454768
0.6  0.84  0.00415618584453
0.6  0.86  0.00345771898651
0.6  0.88  0.00287663281598
0.6  0.9  0.00239320094844
0.6  0.92  0.00199101211243
0.6  0.94  0.00165641302893
0.6  0.96  0.00137804491759
0.6  0.98  0.00114645789531
0.62  -1  0.000762579962904
0.62  -0.98  0.000916622796562
0.62  -0.96  0.00110178262222
0.62  -0.94  0.00132434514085
0.62  -0.92  0.0015918657789
0.62  -0.9  0.00191342617559
0.62  -0.88  0.00229994248132
0.62  -0.86  0.00276453593291
0.62  -0.84  0.00332297828594
0.62  -0.82  0.0039942272254
0.62  -0.8  0.00480106993043
0.62  -0.78  0.00577089664062
0.62  -0.76  0.0069366304843
0.62  -0.74  0.00833784513434
0.62  -0.72  0.0100221082327
0.62  -0.7  0.0120465961901
0.62  -0.68  0.0144800351779
0.62  -0.66  0.0174050342059
0.62  -0.64  0.0209208894859
0.62  -0.62  0.0251469552834
0.62  -0.6  0.0302266956886
0.62  -0.58  0.0363325548542
0.62  -0.56  0.043671811032
0.62  -0.54  0.0524936131375
0.62  -0.52  0.0630974387166
0.62  -0.5  0.0758432604393
0.62  -0.48  0.0911637662489
0.62  -0.46  0.109579048007
0.62  -0.44  0.131714257278
0.62  -0.42  0.15832082762
0.62  -0.4  0.190301983827
0.62  -0.38  0.228743404091
0.62  -0.36  0.274950075996
0.62  -0.34  0.330490597491
0.62  -0.32  0.39725042677
0.62  -0.3  0.477495888739
0.62  -0.28  0.573951110932
0.62  -0.26  0.689890500649
0.62  -0.24  0.829249902684
0.62  -0.22  0.996760211156
0.62  -0.2  0.880777427315
0.62  -0.18  0.880864655311
0.62  -0.16  0.882747104019
0.62  -0.14  0.886212378555
0.62  -0.12  0.890872940925
0.62  -0.1  0.896214498696
0.62  -0.08  0.901657149382
0.62  -0.06  0.906620217608
0.62  -0.04  0.910582931011
0.62  -0.02  0.913135321541
0.62  6.17561557e-16  0.914016019094
0.62  0.02  0.913135321541
0.62  0.04  0.910582931011
0.62  0.06  0.906620217608
0.62  0.08  0.901657149382
0.62  0.1  0.896214498696
0.62  0.12  0.890872940925
0.62  0.14  0.886212378555
0.62  0.16  0.882747104019
0.62  0.18  0.880864655311
0.62  0.2  1.19810797122
0.62  0.22  0.996760211155
0.62  0.24  0.829249902683
0.62  0.26  0.689890500648
0.62  0.28  0.573951110932
0.62  0.3  0.477495888739
0.62  0.32  0.397250426769
0.62  0.34  0.330490597491
0.62  0.36  0.274950075996
0.62  0.38  0.228743404091
0.62  0.4  0.190301983826
0.62  0.42  0.15832082762
0.62  0.44  0.131714257278
0.62  0.46  0.109579048007
0.62  0.48  0.0911637662489
0.62  0.5  0.0758432604393
0.62  0.52  0.0630974387165
0.62  0.54  0.0524936131375
0.62  0.56  0.043671811032
0.62  0.58  0.0363325548542
0.62  0.6  0.0302266956886
0.62  0.62  0.0251469552834
0.62  0.64  0.0209208894859
0.62  0.66  0.0174050342059
0.62  0.68  0.0144800351779
0.62  0.7  0.0120465961901
0.62  0.72  0.0100221082327
0.62  0.74  0.00833784513434
0.62  0.76  0.0069366304843
0.62  0.78  0.00577089664062
0.62  0.8  0.00480106993043
0.62  0.82  0.00399422722539
0.62  0.84  0.00332297828594
0.62  0.86  0.00276453593291
0.62  0.88  0.00229994248132
0.62  0.9  0.00191342617559
0.62  0.92  0.0015918657789
0.62  0.94  0.00132434514085
0.62  0.96  0.00110178262222
0.62  0.98  0.000916622796562
0.64  -1  0.000609702441808
0.64  -0.98  0.000732863679178
0.64  -0.96  0.000880903758012
0.64  -0.94  0.00105884825913
0.64  -0.92  0.00127273794177
0.64  -0.9  0.00152983381184
0.64  -0.88  0.00183886361443
0.64  -0.86  0.00221031811843
0.64  -0.84  0.00265680725113
0.64  -0.82  0.00319348817295
0.64  -0.8  0.00383857982411
0.64  -0.78  0.00461398141096
0.64  -0.76  0.00554601582776
0.64  -0.74  0.00666632325149
0.64  -0.72  0.00801293524459
0.64  -0.7  0.00963156582898
0.64  -0.68  0.0115771633598
0.64  -0.66  0.013915775881
0.64  -0.64  0.0167267932871
0.64  -0.62  0.0201056424063
0.64  -0.6  0.0241670264964
0.64  -0.58  0.0290488191263
0.64  -0.56  0.0349167446296
0.64  -0.54  0.0419700040208
0.64  -0.52  0.0504480373584
0.64  -0.5  0.0606386521204
0.64  -0.48  0.0728877935302
0.64  -0.46  0.0876112885087
0.64  -0.44  0.105308961932
0.64  -0.42  0.126581604402
0.64  -0.4  0.152151367547
0.64  -0.38  0.182886279218
0.64  -0.36  0.219829710804
0.64  -0.34  0.264235797014
0.64  -0.32  0.317612010534
0.64  -0.3  0.381770336856
0.64  -0.28  0.458888786536
0.64  -0.26  0.551585333063
0.64  -0.24  0.663006786344
0.64  -0.22  0.796935618823
0.64  -0.2  0.704204377569
0.64  -0.18  0.704274118612
0.64  -0.16  0.705779185136
0.64  -0.14  0.708549761926
0.64  -0.12  0.712276002315
0.64  -0.1  0.716546716174
0.64  -0.08  0.720898256438
0.64  -0.06  0.724866358097
0.64  -0.04  0.728034650153
0.64  -0.02  0.730075352524
0.64  6.17561557e-16  0.73077949304
0.64  0.02  0.730075352524
0.64  0.04  0.728034650153
0.64  0.06  0.724866358097
0.64  0.08  0.720898256438
0.64  0.1  0.716546716174
0.64  0.12  0.712276002315
0.64  0.14  0.708549761926
0.64  0.16  0.705779185136
0.64  0.18  0.704274118612
0.64  0.2  0.957918370716
0.64  0.22  0.796935618823
0.64  0.24  0.663006786344
0.64  0.26  0.551585333063
0.64  0.28  0.458888786536
0.64  0.3  0.381770336856
0.64  0.32  0.317612010534
0.64  0.34  0.264235797014
0.64  0.36  0.219829710804
0.64  0.38  0.182886279218
0.64  0.4  0.152151367547
0.64  0.42  0.126581604402
0.64  0.44  0.105308961932
0.64  0.46  0.0876112885086
0.64  0.48  0.0728877935302
0.64  0.5  0.0606386521204
0.64  0.52  0.0504480373583
0.64  0.54  0.0419700040208
0.64  0.56  0.0349167446296
0.64  0.58  0.0290488191263
0.64  0.6  0.0241670264964
0.64  0.62  0.0201056424063
0.64  0.64  0.0167267932871
0.64  0.66  0.013915775881
0.64  0.68  0.0115771633598
0.64  0.7  0.00963156582898
0.64  0.72  0.00801293524459
0.64  0.74  0.00666632325149
0.64  0.76  0.00554601582776
0.64  0.78  0.00461398141096
0.64  0.8  0.00383857982411
0.64  0.82  0.00319348817295
0.64  0.84  0.00265680725113
0.64  0.86  0.00221031811843
0.64  0.88  0.00183886361443
0.64  0.9  0.00152983381184
0.64  0.92  0.00127273794177
0.64  0.94  0.00105884825913
0.64  0.96  0.000880903758012
0.64  0.98  0.000732863679177
0.66  -1  0.00048747290203
0.66  -0.98  0.000585943502902
0.66  -0.96  0.000704305382235
0.66  -0.94  0.000846576622129
0.66  -0.92  0.00101758696613
0.66  -0.9  0.00122314177661
0.66  -0.88  0.00147021911198
0.66  -0.86  0.00176720661378
0.66  -0.84  0.00212418624568
0.66  -0.82  0.00255327655019
0.66  -0.8  0.00306904404218
0.66  -0.78  0.00368899770459
0.66  -0.76  0.00443418337353
0.66  -0.74  0.0053298981904
0.66  -0.72  0.00640654937493
0.66  -0.7  0.00770068647228
0.66  -0.68  0.00925624211629
0.66  -0.66  0.0111260234297
0.66  -0.64  0.0133735046905
0.66  -0.62  0.0160749821206
0.66  -0.6  0.0193221639472
0.66  -0.58  0.0232252836614
0.66  -0.56  0.0279168421625
0.66  -0.54  0.0335561058236
0.66  -0.52  0.0403345131764
0.66  -0.5  0.0484821737578
0.66  -0.48  0.0582756797387
0.66  -0.46  0.0700474955181
0.66  -0.44  0.0841972440365
0.66  -0.42  0.10120527295
0.66  -0.4  0.121648961198
0.66  -0.38  0.146222319543
0.66  -0.36  0.175759550446
0.66  -0.34  0.211263367108
0.66  -0.32  0.253939033007
0.66  -0.3  0.305235277497
0.66  -0.28  0.366893476461
0.66  -0.26  0.441006767544
0.66  -0.24  0.530091106813
0.66  -0.22  0.637170679006
0.66  -0.2  0.56302964859
0.66  -0.18  0.563085408362
0.66  -0.16  0.564288748049
0.66  -0.14  0.56650389599
0.66  -0.12  0.569483121742
0.66  -0.1  0.572897668143
0.66  -0.08  0.57637683735
0.66  -0.06  0.579549437456
0.66  -0.04  0.582082569058
0.66  -0.02  0.583714163486
0.66  6.17561557e-16  0.584277142075
0.66  0.02  0.583714163486
0.66  0.04  0.582082569058
0.66  0.06  0.579549437456
0.66  0.08  0.57637683735
0.66  0.1  0.572897668143
0.66  0.12  0.569483121742
0.66  0.14  0.56650389599
0.66  0.16  0.564288748049
0.66  0.18  0.563085408362
0.66  0.2  0.765880560845
0.66  0.22  0.637170679006
0.66  0.24  0.530091106813
0.66  0.26  0.441006767544
0.66  0.28  0.366893476461
0.66  0.3  0.305235277497
0.66  0.32  0.253939033007
0.66  0.34  0.211263367108
0.66  0.36  0.175759550446
0.66  0.38  0.146222319543
0.66  0.4  0.121648961198
0.66  0.42  0.10120527295
0.66  0.44  0.0841972440365
0.66  0.46  0.0700474955181
0.66  0.48  0.0582756797387
0.66  0.5  0.0484821737578
0.66  0.52  0.0403345131764
0.66  0.54  0.0335561058236
0.66  0.56  0.0279168421625
0.66  0.58  0.0232252836614
0.66  0.6  0.0193221639472
0.66  0.62  0.0160749821206
0.66  0.64  0.0133735046905
0.66  0.66  0.0111260234297
0.66  0.68  0.00925624211629
0.66  0.7  0.00770068647227
0.66  0.72  0.00640654937493
0.66  0.74  0.00532989819039
0.66  0.76  0.00443418337353
0.66  0.78  0.00368899770459
0.66  0.8  0.00306904404218
0.66  0.82  0.00255327655019
0.66  0.84  0.00212418624568
0.66  0.86  0.00176720661378
0.66  0.88  0.00147021911198
0.66  0.9  0.00122314177661
0.66  0.92  0.00101758696613
0.66  0.94  0.000846576622129
0.66  0.96  0.000704305382235
0.66  0.98  0.000585943502902
0.68  -1  0.000389747217526
0.68  -0.98  0.000468477014687
0.68  -0.96  0.000563110404438
0.68  -0.94  0.000676859947545
0.68  -0.92  0.000813587149126
0.68  -0.9  0.00097793354685
0.68  -0.88  0.00117547827923
0.68  -0.86  0.00141292748304
0.68  -0.84  0.00169834194949
0.68  -0.82  0.00204141076739
0.68  -0.8  0.00245378024281
0.68  -0.78  0.00294944926136
0.68  -0.76  0.00354524451438
0.68  -0.74  0.00426139172199
0.68  -0.72  0.00512220224432
0.68  -0.7  0.00615689838986
0.68  -0.68  0.00740060543786
0.68  -0.66  0.00889554405137
0.68  -0.64  0.0106924635605
0.68  -0.62  0.0128523647719
0.68  -0.6  0.0154485707896
0.68  -0.58  0.0185692161464
0.68  -0.56  0.0223202387448
0.68  -0.54  0.0268289761776
0.68  -0.52  0.0322484885115
0.68  -0.5  0.0387627542845
0.68  -0.48  0.0465929161047
0.68  -0.46  0.0560047878747
0.68  -0.44  0.0673178784912
0.68  -0.42  0.0809162383526
0.68  -0.4  0.0972614968844
0.68  -0.38  0.116908533674
0.68  -0.36  0.140524315207
0.68  -0.34  0.168910536673
0.68  -0.32  0.203030837455
0.68  -0.3  0.244043514214
0.68  -0.28  0.293340842093
0.68  -0.26  0.352596338883
0.68  -0.24  0.423821576657
0.68  -0.22  0.509434469481
0.68  -0.2  0.450156794376
0.68  -0.18  0.450201375758
0.68  -0.16  0.451163477021
0.68  -0.14  0.452934545203
0.68  -0.12  0.455316513395
0.68  -0.1  0.458046531728
0.68  -0.08  0.460828217668
0.68  -0.06  0.463364793667
0.68  -0.04  0.465390098026
0.68  -0.02  0.466694600052
0.68  6.17561557e-16  0.467144716024
0.68  0.02  0.466694600052
0.68  0.04  0.465390098026
0.68  0.06  0.463364793667
0.68  0.08  0.460828217668
0.68  0.1  0.458046531728
0.68  0.12  0.455316513395
0.68  0.14  0.452934545203
0.68  0.16  0.451163477021
0.68  0.18  0.450201375758
0.68  0.2  0.612341355394
0.68  0.22  0.509434469481
0.68  0.24  0.423821576657
0.68  0.26  0.352596338883
0.68  0.28  0.293340842093
0.68  0.3  0.244043514214
0.68  0.32  0.203030837455
0.68  0.34  0.168910536673
0.68  0.36  0.140524315207
0.68  0.38  0.116908533674
0.68  0.4  0.0972614968844
0.68  0.42  0.0809162383526
0.68  0.44  0.0673178784912
0.68  0.46  0.0560047878747
0.68  0.48  0.0465929161047
0.68  0.5  0.0387627542845
0.68  0.52  0.0322484885115
0.68  0.54  0.0268289761776
0.68  0.56  0.0223202387448
0.68  0.58  0.0185692161464
0.68  0.6  0.0154485707896
0.68  0.62  0.0128523647719
0.68  0.64  0.0106924635605
0.68  0.66  0.00889554405137
0.68  0.68  0.00740060543786
0.68  0.7  0.00615689838986
0.68  0.72  0.00512220224432
0.68  0.74  0.00426139172199
0.68  0.76  0.00354524451438
0.68  0.78  0.00294944926136
0.68  0.8  0.00245378024281
0.68  0.82  0.00204141076739
0.68  0.84  0.00169834194949
0.68  0.86  0.00141292748304
0.68  0.88  0.00117547827922
0.68  0.9  0.00097793354685
0.68  0.92  0.000813587149126
0.68  0.94  0.000676859947544
0.68  0.96  0.000563110404438
0.68  0.98  0.000468477014687
0.7  -1  0.000311613000306
0.7  -0.98  0.000374559513336
0.7  -0.96  0.000450221360769
0.7  -0.94  0.000541167068183
0.7  -0.92  0.000650484008991
0.7  -0.9  0.000781883212837
0.7  -0.88  0.000939825345537
0.7  -0.86  0.00112967213724
0.7  -0.84  0.00135786839939
0.7  -0.82  0.00163216080956
0.7  -0.8  0.00196186089129
0.7  -0.78  0.00235816111636
0.7  -0.76  0.00283451486057
0.7  -0.74  0.00340709311126
0.7  -0.72  0.00409533343087
0.7  -0.7  0.00492259981231
0.7  -0.68  0.00591697582656
0.7  -0.66  0.00711221798784
0.7  -0.64  0.00854890170069
0.7  -0.62  0.0102757986908
0.7  -0.6  0.0123515326799
0.7  -0.58  0.0148465695109
0.7  -0.56  0.0178456092823
0.7  -0.54  0.021450461699
0.7  -0.52  0.025783502251
0.7  -0.5  0.0309918265469
0.7  -0.48  0.0372522438327
0.7  -0.46  0.0447772792116
0.7  -0.44  0.0538223883265
0.7  -0.42  0.064694629423
0.7  -0.4  0.0777630871896
0.7  -0.38  0.0934714022351
0.7  -0.36  0.11235283155
0.7  -0.34  0.135048351211
0.7  -0.32  0.162328415878
0.7  -0.3  0.195119113748
0.7  -0.28  0.234533604876
0.7  -0.26  0.281909910104
0.7  -0.24  0.338856333432
0.7  -0.22  0.407306059814
0.7  -0.2  0.359912022448
0.7  -0.18  0.359947666419
0.7  -0.16  0.360716891311
0.7  -0.14  0.362132906217
0.7  -0.12  0.364037351513
0.7  -0.1  0.366220071916
0.7  -0.08  0.368444101909
0.7  -0.06  0.370472160153
0.7  -0.04  0.372091443472
0.7  -0.02  0.373134426647
0.7  6.17561557e-16  0.37349430603
0.7  0.02  0.373134426647
0.7  0.04  0.372091443472
0.7  0.06  0.370472160153
0.7  0.08  0.368444101909
0.7  0.1  0.366220071916
0.7  0.12  0.364037351513
0.7  0.14  0.362132906217
0.7  0.16  0.360716891311
0.7  0.18  0.359947666419
0.7  0.2  0.489582781826
0.7  0.22  0.407306059814
0.7  0.24  0.338856333432
0.7  0.26  0.281909910104
0.7  0.28  0.234533604876
0.7  0.3  0.195119113748
0.7  0.32  0.162328415878
0.7  0.34  0.135048351211
0.7  0.36  0.11235283155
0.7  0.38  0.0934714022351
0.7  0.4  0.0777630871896
0.7  0.42  0.064694629423
0.7  0.44  0.0538223883265
0.7  0.46  0.0447772792116
0.7  0.48  0.0372522438327
0.7  0.5  0.0309918265469
0.7  0.52  0.025783502251
0.7  0.54  0.021450461699
0.7  0.56  0.0178456092823
0.7  0.58  0.0148465695109
0.7  0.6  0.0123515326799
0.7  0.62  0.0102757986908
0.7  0.64  0.00854890170068
0.7  0.66  0.00711221798784
0.7  0.68  0.00591697582656
0.7  0.7  0.00492259981231
0.7  0.72  0.00409533343087
0.7  0.74  0.00340709311126
0.7  0.76  0.00283451486057
0.7  0.78  0.00235816111636
0.7  0.8  0.00196186089129
0.7  0.82  0.00163216080956
0.7  0.84  0.00135786839939
0.7  0.86  0.00112967213724
0.7  0.88  0.000939825345537
0.7  0.9  0.000781883212837
0.7  0.92  0.000650484008991
0.7  0.94  0.000541167068183
0.7  0.96  0.000450221360769
0.7  0.98  0.000374559513336
0.72  -1  0.000249142668871
0.72  -0.98  0.000299470037233
0.72  -0.96  0.000359963644953
0.72  -0.94  0.000432677094794
0.72  -0.92  0.000520078821804
0.72  -0.9  0.000625135890353
0.72  -0.88  0.000751414718353
0.72  -0.86  0.000903202147998
0.72  -0.84  0.00108565097306
0.72  -0.82  0.00130495486299
0.72  -0.8  0.00156855862217
0.72  -0.78  0.00188541092182
0.72  -0.76  0.00226626808453
0.72  -0.74  0.00272405923373
0.72  -0.72  0.00327432520429
0.72  -0.7  0.003935746114
0.72  -0.68  0.00473077550561
0.72  -0.66  0.00568640258701
0.72  -0.64  0.00683506844559
0.72  -0.62  0.00821576733991
0.72  -0.6  0.00987537045471
0.72  -0.58  0.0118702170574
0.72  -0.56  0.0142680270716
0.72  -0.54  0.0171501999947
0.72  -0.52  0.0206145782023
0.72  -0.5  0.0247787684452
0.72  -0.48  0.0297841342974
0.72  -0.46  0.0358005950863
0.72  -0.44  0.0430323942182
0.72  -0.42  0.0517250327177
0.72  -0.4  0.0621736033576
0.72  -0.38  0.0747328083011
0.72  -0.36  0.0898290003308
0.72  -0.34  0.107974656431
0.72  -0.32  0.129785775066
0.72  -0.3  0.15600278775
0.72  -0.28  0.187515694793
0.72  -0.26  0.22539427853
0.72  -0.24  0.270924419688
0.72  -0.22  0.325651749734
0.72  -0.2  0.287758988693
0.72  -0.18  0.287787486971
0.72  -0.16  0.288402502206
0.72  -0.14  0.289534642818
0.72  -0.12  0.291057296184
0.72  -0.1  0.292802437709
0.72  -0.08  0.294580607322
0.72  -0.06  0.296202092443
0.72  -0.04  0.297496751418
0.72  -0.02  0.298330643495
0.72  6.17561557e-16  0.298618376387
0.72  0.02  0.298330643495
0.72  0.04  0.297496751418
0.72  0.06  0.296202092443
0.72  0.08  0.294580607322
0.72  0.1  0.292802437709
0.72  0.12  0.291057296184
0.72  0.14  0.289534642818
0.72  0.16  0.288402502206
0.72  0.18  0.287787486971
0.72  0.2  0.391434121099
0.72  0.22  0.325651749734
0.72  0.24  0.270924419688
0.72  0.26  0.22539427853
0.72  0.28  0.187515694793
0.72  0.3  0.15600278775
0.72  0.32  0.129785775066
0.72  0.34  0.107974656431
0.72  0.36  0.0898290003308
0.72  0.38  0.0747328083011
0.72  0.4  0.0621736033576
0.72  0.42  0.0517250327177
0.72  0.44  0.0430323942182
0.72  0.46  0.0358005950863
0.72  0.48  0.0297841342973
0.72  0.5  0.0247787684452
0.72  0.52  0.0206145782023
0.72  0.54  0.0171501999947
0.72  0.56  0.0142680270716
0.72  0.58  0.0118702170574
0.72  0.6  0.00987537045471
0.72  0.62  0.00821576733991
0.72  0.64  0.00683506844559
0.72  0.66  0.00568640258701
0.72  0.68  0.0047307755056
0.72  0.7  0.00393574611399
0.72  0.72  0.00327432520429
0.72  0.74  0.00272405923373
0.72  0.76  0.00226626808453
0.72  0.78  0.00188541092182
0.72  0.8  0.00156855862217
0.72  0.82  0.00130495486299
0.72  0.84  0.00108565097306
0.72  0.86  0.000903202147998
0.72  0.88  0.000751414718353
0.72  0.9  0.000625135890353
0.72  0.92  0.000520078821804
0.72  0.94  0.000432677094794
0.72  0.96  0.000359963644953
0.72  0.98  0.000299470037232
0.74  -1  0.000199196020035
0.74  -0.98  0.000239434055222
0.74  -0.96  0.000287800262223
0.74  -0.94  0.000345936549665
0.74  -0.92  0.000415816495334
0.74  -0.9  0.000499812344084
0.74  -0.88  0.000600775539454
0.74  -0.86  0.000722133522868
0.74  -0.84  0.000868006086473
0.74  -0.82  0.00104334522951
0.74  -0.8  0.00125410326599
0.74  -0.78  0.00150743489046
0.74  -0.76  0.00181194006156
0.74  -0.74  0.00217795594853
0.74  -0.72  0.00261790785156
0.74  -0.7  0.00314673100891
0.74  -0.68  0.00378237760986
0.74  -0.66  0.00454642622552
0.74  -0.64  0.00546481434594
0.74  -0.62  0.00656871889132
0.74  -0.6  0.00789561458849
0.74  -0.58  0.00949054614171
0.74  -0.56  0.0114076573848
0.74  -0.54  0.0137120293254
0.74  -0.52  0.0164818894781
0.74  -0.5  0.0198112674879
0.74  -0.48  0.0238131871956
0.74  -0.46  0.0286235035067
0.74  -0.44  0.0344055143172
0.74  -0.42  0.0413555040582
0.74  -0.4  0.0497094070486
0.74  -0.38  0.0597508168597
0.74  -0.36  0.0718206135896
0.74  -0.34  0.0863285358674
0.74  -0.32  0.103767090429
0.74  -0.3  0.124728271456
0.74  -0.28  0.149923657261
0.74  -0.26  0.180208566543
0.74  -0.24  0.216611094265
0.74  -0.22  0.260367012839
0.74  -0.2  0.230070768435
0.74  -0.18  0.230093553547
0.74  -0.16  0.230585274164
0.74  -0.14  0.231490449922
0.74  -0.12  0.232707850746
0.74  -0.1  0.234103136619
0.74  -0.08  0.235524829304
0.74  -0.06  0.236821248677
0.74  -0.04  0.237856362078
0.74  -0.02  0.238523080402
0.74  6.17561557e-16  0.238753130306
0.74  0.02  0.238523080402
0.74  0.04  0.237856362078
0.74  0.06  0.236821248677
0.74  0.08  0.235524829304
0.74  0.1  0.234103136619
0.74  0.12  0.232707850746
0.74  0.14  0.231490449922
0.74  0.16  0.230585274164
0.74  0.18  0.230093553547
0.74  0.2  0.312961723426
0.74  0.22  0.260367012839
0.74  0.24  0.216611094265
0.74  0.26  0.180208566543
0.74  0.28  0.149923657261
0.74  0.3  0.124728271456
0.74  0.32  0.103767090429
0.74  0.34  0.0863285358674
0.74  0.36  0.0718206135896
0.74  0.38  0.0597508168597
0.74  0.4  0.0497094070486
0.74  0.42  0.0413555040582
0.74  0.44  0.0344055143172
0.74  0.46  0.0286235035067
0.74  0.48  0.0238131871956
0.74  0.5  0.0198112674879
0.74  0.52  0.0164818894781
0.74  0.54  0.0137120293254
0.74  0.56  0.0114076573848
0.74  0.58  0.00949054614171
0.74  0.6  0.00789561458849
0.74  0.62  0.00656871889132
0.74  0.64  0.00546481434594
0.74  0.66  0.00454642622552
0.74  0.68  0.00378237760986
0.74  0.7  0.0031467310089
0.74  0.72  0.00261790785156
0.74  0.74  0.00217795594853
0.74  0.76  0.00181194006156
0.74  0.78  0.00150743489046
0.74  0.8  0.00125410326599
0.74  0.82  0.00104334522951
0.74  0.84  0.000868006086473
0.74  0.86  0.000722133522868
0.74  0.88  0.000600775539454
0.74  0.9  0.000499812344083
0.74  0.92  0.000415816495334
0.74  0.94  0.000345936549665
0.74  0.96  0.000287800262223
0.74  0.98  0.000239434055222
0.76  -1  0.000159262379976
0.76  -0.98  0.000191433731834
0.76  -0.96  0.000230103767692
0.76  -0.94  0.000276585236043
0.76  -0.92  0.000332456063472
0.76  -0.9  0.000399612921212
0.76  -0.88  0.000480335612266
0.76  -0.86  0.000577364464872
0.76  -0.84  0.00069399335961
0.76  -0.82  0.0008341815482
0.76  -0.8  0.00100268805994
0.76  -0.78  0.00120523325853
0.76  -0.76  0.00144869303376
0.76  -0.74  0.00174133222031
0.76  -0.72  0.00209308516768
0.76  -0.7  0.00251589298588
0.76  -0.68  0.00302410891546
0.76  -0.66  0.00363498558321
0.76  -0.64  0.00436926068456
0.76  -0.62  0.00525186097513
0.76  -0.6  0.00631274847014
0.76  -0.58  0.00758793757793
0.76  -0.56  0.00912071769672
0.76  -0.54  0.0109631227786
0.76  -0.52  0.0131776977487
0.76  -0.5  0.015839621745
0.76  -0.48  0.0190392602568
0.76  -0.46  0.0228852328019
0.76  -0.44  0.0275081002797
0.76  -0.42  0.0330647971794
0.76  -0.4  0.0397439591029
0.76  -0.38  0.0477723264596
0.76  -0.36  0.0574224417213
0.76  -0.34  0.0690219015402
0.76  -0.32  0.0829644778141
0.76  -0.3  0.0997234852326
0.76  -0.28  0.119867849096
0.76  -0.26  0.144081418869
0.76  -0.24  0.173186183116
0.76  -0.22  0.208170173905
0.76  -0.2  0.183947541408
0.76  -0.18  0.183965758696
0.76  -0.16  0.184358902072
0.76  -0.14  0.185082613547
0.76  -0.12  0.186055957053
0.76  -0.1  0.187171524266
0.76  -0.08  0.188308204409
0.76  -0.06  0.189344725294
0.76  -0.04  0.190172325281
0.76  -0.02  0.190705383859
0.76  6.17561557e-16  0.190889314719
0.76  0.02  0.190705383859
0.76  0.04  0.190172325281
0.76  0.06  0.189344725294
0.76  0.08  0.188308204409
0.76  0.1  0.187171524266
0.76  0.12  0.186055957053
0.76  0.14  0.185082613547
0.76  0.16  0.184358902072
0.76  0.18  0.183965758696
0.76  0.2  0.250221007957
0.76  0.22  0.208170173905
0.76  0.24  0.173186183116
0.76  0.26  0.144081418869
0.76  0.28  0.119867849096
0.76  0.3  0.0997234852326
0.76  0.32  0.0829644778141
0.76  0.34  0.0690219015402
0.76  0.36  0.0574224417213
0.76  0.38  0.0477723264596
0.76  0.4  0.0397439591029
0.76  0.42  0.0330647971794
0.76  0.44  0.0275081002797
0.76  0.46  0.0228852328019
0.76  0.48  0.0190392602568
0.76  0.5  0.015839621745
0.76  0.52  0.0131776977487
0.76  0.54  0.0109631227786
0.76  0.56  0.00912071769672
0.76  0.58  0.00758793757793
0.76  0.6  0.00631274847013
0.76  0.62  0.00525186097513
0.76  0.64  0.00436926068455
0.76  0.66  0.00363498558321
0.76  0.68  0.00302410891546
0.76  0.7  0.00251589298588
0.76  0.72  0.00209308516768
0.76  0.74  0.00174133222031
0.76  0.76  0.00144869303376
0.76  0.78  0.00120523325853
0.76  0.8  0.00100268805994
0.76  0.82  0.0008341815482
0.76  0.84  0.00069399335961
0.76  0.86  0.000577364464872
0.76  0.88  0.000480335612266
0.76  0.9  0.000399612921212
0.76  0.92  0.000332456063472
0.76  0.94  0.000276585236043
0.76  0.96  0.000230103767692
0.76  0.98  0.000191433731834
0.78  -1  0.00012733439991
0.78  -0.98  0.000153056229408
0.78  -0.96  0.000183973925169
0.78  -0.94  0.000221137063635
0.78  -0.92  0.000265807237999
0.78  -0.9  0.000319500886062
0.78  -0.88  0.000384040769405
0.78  -0.86  0.000461617851465
0.78  -0.84  0.000554865675124
0.78  -0.82  0.000666949764733
0.78  -0.8  0.000801675087539
0.78  -0.78  0.000963615222561
0.78  -0.76  0.00115826762186
0.78  -0.74  0.00139224023495
0.78  -0.72  0.00167347583169
0.78  -0.7  0.00201152163896
0.78  -0.68  0.00241785344455
0.78  -0.66  0.00290626517065
0.78  -0.64  0.00349333714215
0.78  -0.62  0.00419899894613
0.78  -0.6  0.00504720599018
0.78  -0.58  0.00606675272706
0.78  -0.56  0.00729225015244
0.78  -0.54  0.00876530075942
0.78  -0.52  0.0105359108364
0.78  -0.5  0.0126641880524
0.78  -0.48  0.015222381958
0.78  -0.46  0.0182973366721
0.78  -0.44  0.0219934390174
0.78  -0.42  0.0264361621848
0.78  -0.4  0.0317763252262
0.78  -0.38  0.0381952129746
0.78  -0.36  0.045910730199
0.78  -0.34  0.0551847989121
0.78  -0.32  0.0663322499505
0.78  -0.3  0.0797315106738
0.78  -0.28  0.0958374516027
0.78  -0.26  0.115196828106
0.78  -0.24  0.138466841341
0.78  -0.22  0.16643744855
0.78  -0.2  0.147070826165
0.78  -0.18  0.147085391358
0.78  -0.16  0.147399719676
0.78  -0.14  0.147978345754
0.78  -0.12  0.148756559111
0.78  -0.1  0.149648484006
0.78  -0.08  0.150557289236
0.78  -0.06  0.151386014544
0.78  -0.04  0.15204770218
0.78  -0.02  0.152473896327
0.78  6.17561557e-16  0.152620953816
0.78  0.02  0.152473896327
0.78  0.04  0.15204770218
0.78  0.06  0.151386014544
0.78  0.08  0.150557289236
0.78  0.1  0.149648484006
0.78  0.12  0.148756559111
0.78  0.14  0.147978345754
0.78  0.16  0.147399719676
0.78  0.18  0.147085391358
0.78  0.2  0.200058180079
0.78  0.22  0.16643744855
0.78  0.24  0.138466841341
0.78  0.26  0.115196828106
0.78  0.28  0.0958374516027
0.78  0.3  0.0797315106738
0.78  0.32  0.0663322499505
0.78  0.34  0.0551847989121
0.78  0.36  0.045910730199
0.78  0.38  0.0381952129746
0.78  0.4  0.0317763252261
0.78  0.42  0.0264361621848
0.78  0.44  0.0219934390174
0.78  0.46  0.0182973366721
0.78  0.48  0.015222381958
0.78  0.5  0.0126641880524
0.78  0.52  0.0105359108364
0.78  0.54  0.00876530075942
0.78  0.56  0.00729225015244
0.78  0.58  0.00606675272706
0.78  0.6  0.00504720599018
0.78  0.62  0.00419899894613
0.78  0.64  0.00349333714215
0.78  0.66  0.00290626517064
0.78  0.68  0.00241785344455
0.78  0.7  0.00201152163896
0.78  0.72  0.00167347583168
0.78  0.74  0.00139224023495
0.78  0.76  0.00115826762186
0.78  0.78  0.000963615222561
0.78  0.8  0.000801675087539
0.78  0.82  0.000666949764733
0.78  0.84  0.000554865675124
0.78  0.86  0.000461617851465
0.78  0.88  0.000384040769405
0.78  0.9  0.000319500886062
0.78  0.92  0.000265807237998
0.78  0.94  0.000221137063635
0.78  0.96  0.000183973925169
0.78  0.98  0.000153056229408
0.8  -1  0.000101807152466
0.8  -0.98  0.000122372421704
0.8  -0.96  0.000147091920666
0.8  -0.94  0.000176804812913
0.8  -0.92  0.000212519774898
0.8  -0.9  0.00025544923794
0.8  -0.88  0.000307050547156
0.8  -0.86  0.000369075434592
0.8  -0.84  0.000443629486029
0.8  -0.82  0.000533243620213
0.8  -0.8  0.000640960007063
0.8  -0.78  0.000770435341524
0.8  -0.76  0.000926064978981
0.8  -0.74  0.0011131321463
0.8  -0.72  0.00133798729382
0.8  -0.7  0.00160826367684
0.8  -0.68  0.00193313648507
0.8  -0.66  0.00232363431677
0.8  -0.64  0.00279301357134
0.8  -0.62  0.00335720847012
0.8  -0.6  0.00403537198224
0.8  -0.58  0.00485052601887
0.8  -0.56  0.00583034296795
0.8  -0.54  0.00700808510081
0.8  -0.52  0.0084237337409
0.8  -0.5  0.0101253465272
0.8  -0.48  0.0121706888476
0.8  -0.46  0.0146291948258
0.8  -0.44  0.0175843244315
0.8  -0.42  0.0211363967324
0.8  -0.4  0.0254059954687
0.8  -0.38  0.0305380625624
0.8  -0.36  0.0367068185229
