-0.36  -0.76  0.0477411628512
-0.36  -0.74  0.0548856120379
-0.36  -0.72  0.0630992256759
-0.36  -0.7  0.0725420038706
-0.36  -0.68  0.0833978906904
-0.36  -0.66  0.0958783573723
-0.36  -0.64  0.110226521754
-0.36  -0.62  0.126721884176
-0.36  -0.6  0.145685772114
-0.36  -0.58  0.167487599593
-0.36  -0.56  0.192552063323
-0.36  -0.54  0.221367415736
-0.36  -0.52  0.254494976082
-0.36  -0.5  0.292580064846
-0.36  -0.48  0.336364574513
-0.36  -0.46  0.386701421529
-0.36  -0.44  0.444571161007
-0.36  -0.42  0.511101087804
-0.36  -0.4  0.587587196081
-0.36  -0.38  0.675519425094
-0.36  -0.36  0.776610683014
-0.36  -0.34  0.892830214155
-0.36  -0.32  1.02644195958
-0.36  -0.3  1.1800486584
-0.36  -0.28  1.35664254876
-0.36  -0.26  1.55966365623
-0.36  -0.24  1.7930668051
-0.36  -0.22  2.0613986578
-0.36  -0.2  1.78624914885
-0.36  -0.18  1.79153180429
-0.36  -0.16  1.77268684006
-0.36  -0.14  1.73112799956
-0.36  -0.12  1.67010904165
-0.36  -0.1  1.59478724001
-0.36  -0.08  1.51226731651
-0.36  -0.06  1.43149327881
-0.36  -0.04  1.36271294105
-0.36  -0.02  1.31613016484
-0.36  6.17561557e-16  1.29960287354
-0.36  0.02  1.31613016484
-0.36  0.04  1.36271294105
-0.36  0.06  1.43149327881
-0.36  0.08  1.51226731651
-0.36  0.1  1.59478724001
-0.36  0.12  1.67010904165
-0.36  0.14  1.73112799956
-0.36  0.16  1.77268684006
-0.36  0.18  1.79153180429
-0.36  0.2  2.36988628325
-0.36  0.22  2.0613986578
-0.36  0.24  1.7930668051
-0.36  0.26  1.55966365623
-0.36  0.28  1.35664254876
-0.36  0.3  1.1800486584
-0.36  0.32  1.02644195959
-0.36  0.34  0.892830214155
-0.36  0.36  0.776610683014
-0.36  0.38  0.675519425094
-0.36  0.4  0.587587196081
-0.36  0.42  0.511101087804
-0.36  0.44  0.444571161007
-0.36  0.46  0.386701421529
-0.36  0.48  0.336364574513
-0.36  0.5  0.292580064846
-0.36  0.52  0.254494976082
-0.36  0.54  0.221367415736
-0.36  0.56  0.192552063323
-0.36  0.58  0.167487599593
-0.36  0.6  0.145685772114
-0.36  0.62  0.126721884176
-0.36  0.64  0.110226521754
-0.36  0.66  0.0958783573723
-0.36  0.68  0.0833978906904
-0.36  0.7  0.0725420038706
-0.36  0.72  0.0630992256759
-0.36  0.74  0.0548856120379
-0.36  0.76  0.0477411628512
-0.36  0.78  0.041526705192
-0.36  0.8  0.0361211822486
-0.36  0.82  0.03141929515
-0.36  0.84  0.0273294517585
-0.36  0.86  0.0237719824666
-0.36  0.88  0.0206775882439
-0.36  0.9  0.0179859907008
-0.36  0.92  0.0156447578738
-0.36  0.94  0.0136082828575
-0.36  0.96  0.0118368953885
-0.36  0.98  0.0102960890735
-0.34  -1  0.0107464076591
-0.34  -0.98  0.0123546040011
-0.34  -0.96  0.0142034663923
-0.34  -0.94  0.0163290104271
-0.34  -0.92  0.0187726414218
-0.34  -0.9  0.0215819609844
-0.34  -0.88  0.0248116942878
-0.34  -0.86  0.0285247561089
-0.34  -0.84  0.0327934764
-0.34  -0.82  0.0377010092669
-0.34  -0.8  0.0433429527997
-0.34  -0.78  0.0498292113109
-0.34  -0.76  0.0572861362571
-0.34  -0.74  0.0658589875483
-0.34  -0.72  0.075714763192
-0.34  -0.7  0.0870454523919
-0.34  -0.68  0.100071775473
-0.34  -0.66  0.115047483482
-0.34  -0.64  0.132264301228
-0.34  -0.62  0.15205761004
-0.34  -0.6  0.174812980951
-0.34  -0.58  0.200973685571
-0.34  -0.56  0.231049330961
-0.34  -0.54  0.265625786709
-0.34  -0.52  0.305376597592
-0.34  -0.5  0.35107610414
-0.34  -0.48  0.403614526686
-0.34  -0.46  0.464015306741
-0.34  -0.44  0.533455043498
-0.34  -0.42  0.61328641383
-0.34  -0.4  0.705064522256
-0.34  -0.38  0.810577194168
-0.34  -0.36  0.931879802438
-0.34  -0.34  1.0713353058
-0.34  -0.32  1.23166027899
-0.34  -0.3  1.41597783125
-0.34  -0.28  1.62787844407
-0.34  -0.26  1.87148991332
-0.34  -0.24  2.15155775815
-0.34  -0.22  2.47353766306
-0.34  -0.2  2.14337703606
-0.34  -0.18  2.14971586196
-0.34  -0.16  2.12710319138
-0.34  -0.14  2.0772354199
-0.34  -0.12  2.004016836
-0.34  -0.1  1.91363581605
-0.34  -0.08  1.81461754128
-0.34  -0.06  1.71769421027
-0.34  -0.04  1.63516250041
-0.34  -0.02  1.57926634904
-0.34  6.17561557e-16  1.55943472776
-0.34  0.02  1.57926634904
-0.34  0.04  1.63516250041
-0.34  0.06  1.71769421027
-0.34  0.08  1.81461754128
-0.34  0.1  1.91363581605
-0.34  0.12  2.004016836
-0.34  0.14  2.0772354199
-0.34  0.16  2.12710319138
-0.34  0.18  2.14971586196
-0.34  0.2  2.84370175396
-0.34  0.22  2.47353766306
-0.34  0.24  2.15155775815
-0.34  0.26  1.87148991332
-0.34  0.28  1.62787844407
-0.34  0.3  1.41597783125
-0.34  0.32  1.23166027899
-0.34  0.34  1.0713353058
-0.34  0.36  0.931879802438
-0.34  0.38  0.810577194168
-0.34  0.4  0.705064522256
-0.34  0.42  0.61328641383
-0.34  0.44  0.533455043498
-0.34  0.46  0.464015306741
-0.34  0.48  0.403614526686
-0.34  0.5  0.35107610414
-0.34  0.52  0.305376597592
-0.34  0.54  0.265625786709
-0.34  0.56  0.231049330961
-0.34  0.58  0.200973685571
-0.34  0.6  0.174812980951
-0.34  0.62  0.15205761004
-0.34  0.64  0.132264301228
-0.34  0.66  0.115047483482
-0.34  0.68  0.100071775473
-0.34  0.7  0.0870454523919
-0.34  0.72  0.075714763192
-0.34  0.74  0.0658589875483
-0.34  0.76  0.0572861362571
-0.34  0.78  0.0498292113109
-0.34  0.8  0.0433429527997
-0.34  0.82  0.0377010092669
-0.34  0.84  0.0327934764
-0.34  0.86  0.0285247561089
-0.34  0.88  0.0248116942878
-0.34  0.9  0.0215819609844
-0.34  0.92  0.0187726414218
-0.34  0.94  0.0163290104271
-0.34  0.96  0.0142034663923
-0.34  0.98  0.0123546040011
-0.32  -1  0.0128949555618
-0.32  -0.98  0.0148246813848
-0.32  -0.96  0.0170431900372
-0.32  -0.94  0.0195936977737
-0.32  -0.92  0.0225258881471
-0.32  -0.9  0.0258968798373
-0.32  -0.88  0.0297723393159
-0.32  -0.86  0.0342277600202
-0.32  -0.84  0.0393499329552
-0.32  -0.82  0.045238637371
-0.32  -0.8  0.0520085844496
-0.32  -0.78  0.0597916518632
-0.32  -0.76  0.0687394527339
-0.32  -0.74  0.0790262890372
-0.32  -0.72  0.0908525469816
-0.32  -0.7  0.104448600505
-0.32  -0.68  0.120079298929
-0.32  -0.66  0.138049126188
-0.32  -0.64  0.158708132136
-0.32  -0.62  0.182458751473
-0.32  -0.6  0.209763643116
-0.32  -0.58  0.241154702738
-0.32  -0.56  0.27724342402
-0.32  -0.54  0.318732810474
-0.32  -0.52  0.366431069849
-0.32  -0.5  0.421267357921
-0.32  -0.48  0.484309878315
-0.32  -0.46  0.556786690978
-0.32  -0.44  0.640109634617
-0.32  -0.42  0.735901829137
-0.32  -0.4  0.846029293797
-0.32  -0.38  0.972637297017
-0.32  -0.36  1.11819214593
-0.32  -0.34  1.2855292297
-0.32  -0.32  1.47790825257
-0.32  -0.3  1.6990767324
-0.32  -0.28  1.95334300188
-0.32  -0.26  2.24566013426
-0.32  -0.24  2.58172242855
-0.32  -0.22  2.96807633373
-0.32  -0.2  2.57190612053
-0.32  -0.18  2.57951227888
-0.32  -0.16  2.55237861789
-0.32  -0.14  2.49254069645
-0.32  -0.12  2.40468339422
-0.32  -0.1  2.29623234035
-0.32  -0.08  2.17741717034
-0.32  -0.06  2.06111578983
-0.32  -0.04  1.96208337223
-0.32  -0.02  1.89501180647
-0.32  6.17561557e-16  1.87121521478
-0.32  0.02  1.89501180647
-0.32  0.04  1.96208337223
-0.32  0.06  2.06111578983
-0.32  0.08  2.17741717034
-0.32  0.1  2.29623234035
-0.32  0.12  2.40468339422
-0.32  0.14  2.49254069645
-0.32  0.16  2.55237861789
-0.32  0.18  2.57951227888
-0.32  0.2  3.41224797267
-0.32  0.22  2.96807633373
-0.32  0.24  2.58172242855
-0.32  0.26  2.24566013426
-0.32  0.28  1.95334300188
-0.32  0.3  1.6990767324
-0.32  0.32  1.47790825257
-0.32  0.34  1.2855292297
-0.32  0.36  1.11819214593
-0.32  0.38  0.972637297017
-0.32  0.4  0.846029293797
-0.32  0.42  0.735901829137
-0.32  0.44  0.640109634617
-0.32  0.46  0.556786690978
-0.32  0.48  0.484309878315
-0.32  0.5  0.421267357921
-0.32  0.52  0.366431069849
-0.32  0.54  0.318732810474
-0.32  0.56  0.27724342402
-0.32  0.58  0.241154702738
-0.32  0.6  0.209763643116
-0.32  0.62  0.182458751473
-0.32  0.64  0.158708132136
-0.32  0.66  0.138049126188
-0.32  0.68  0.120079298929
-0.32  0.7  0.104448600505
-0.32  0.72  0.0908525469816
-0.32  0.74  0.0790262890372
-0.32  0.76  0.0687394527339
-0.32  0.78  0.0597916518632
-0.32  0.8  0.0520085844496
-0.32  0.82  0.045238637371
-0.32  0.84  0.0393499329552
-0.32  0.86  0.0342277600202
-0.32  0.88  0.0297723393159
-0.32  0.9  0.0258968798373
-0.32  0.92  0.0225258881471
-0.32  0.94  0.0195936977737
-0.32  0.96  0.0170431900372
-0.32  0.98  0.0148246813848
-0.3  -1  0.0154730663692
-0.3  -0.98  0.0177886056195
-0.3  -0.96  0.0204506645507
-0.3  -0.94  0.023511099718
-0.3  -0.92  0.027029527993
-0.3  -0.9  0.0310744878925
-0.3  -0.88  0.0357247746994
-0.3  -0.86  0.0410709753846
-0.3  -0.84  0.0472172332292
-0.3  -0.82  0.0542832765218
-0.3  -0.8  0.0624067508495
-0.3  -0.78  0.0717459004162
-0.3  -0.76  0.082482650618
-0.3  -0.74  0.0948261519266
-0.3  -0.72  0.109016854112
-0.3  -0.7  0.125331190173
-0.3  -0.68  0.144086961215
-0.3  -0.66  0.165649527173
-0.3  -0.64  0.190438923974
-0.3  -0.62  0.218938045786
-0.3  -0.6  0.251702051724
-0.3  -0.58  0.289369180284
-0.3  -0.56  0.332673182141
-0.3  -0.54  0.382457613513
-0.3  -0.52  0.439692268529
-0.3  -0.5  0.505492070685
-0.3  -0.48  0.58113879141
-0.3  -0.46  0.668106018802
-0.3  -0.44  0.768087862931
-0.3  -0.42  0.883031956872
-0.3  -0.4  1.01517739635
-0.3  -0.38  1.16709835702
-0.3  -0.36  1.34175423906
-0.3  -0.34  1.54254731593
-0.3  -0.32  1.77338901015
-0.3  -0.3  2.03877608735
-0.3  -0.28  2.34387825264
-0.3  -0.26  2.69463885577
-0.3  -0.24  3.09789066683
-0.3  -0.22  3.56148897767
-0.3  -0.2  3.08611176733
-0.3  -0.18  3.0952386381
-0.3  -0.16  3.06268009726
-0.3  -0.14  2.9908786765
-0.3  -0.12  2.88545591162
-0.3  -0.1  2.75532205065
-0.3  -0.08  2.61275195783
-0.3  -0.06  2.47319824081
-0.3  -0.04  2.35436610037
-0.3  -0.02  2.27388480027
-0.3  6.17561557e-16  2.24533051477
-0.3  0.02  2.27388480027
-0.3  0.04  2.35436610037
-0.3  0.06  2.47319824081
-0.3  0.08  2.61275195783
-0.3  0.1  2.75532205065
-0.3  0.12  2.88545591162
-0.3  0.14  2.9908786765
-0.3  0.16  3.06268009726
-0.3  0.18  3.0952386381
-0.3  0.2  4.09446462196
-0.3  0.22  3.56148897767
-0.3  0.24  3.09789066683
-0.3  0.26  2.69463885577
-0.3  0.28  2.34387825264
-0.3  0.3  2.03877608735
-0.3  0.32  1.77338901015
-0.3  0.34  1.54254731593
-0.3  0.36  1.34175423906
-0.3  0.38  1.16709835702
-0.3  0.4  1.01517739635
-0.3  0.42  0.883031956872
-0.3  0.44  0.768087862931
-0.3  0.46  0.668106018802
-0.3  0.48  0.58113879141
-0.3  0.5  0.505492070685
-0.3  0.52  0.439692268529
-0.3  0.54  0.382457613513
-0.3  0.56  0.332673182141
-0.3  0.58  0.289369180284
-0.3  0.6  0.251702051724
-0.3  0.62  0.218938045786
-0.3  0.64  0.190438923974
-0.3  0.66  0.165649527173
-0.3  0.68  0.144086961215
-0.3  0.7  0.125331190173
-0.3  0.72  0.109016854112
-0.3  0.74  0.0948261519266
-0.3  0.76  0.0824826506181
-0.3  0.78  0.0717459004162
-0.3  0.8  0.0624067508495
-0.3  0.82  0.0542832765218
-0.3  0.84  0.0472172332292
-0.3  0.86  0.0410709753846
-0.3  0.88  0.0357247746994
-0.3  0.9  0.0310744878925
-0.3  0.92  0.027029527993
-0.3  0.94  0.023511099718
-0.3  0.96  0.0204506645507
-0.3  0.98  0.0177886056195
-0.28  -1  0.0185666233373
-0.28  -0.98  0.0213451123619
-0.28  -0.96  0.0245394013475
-0.28  -0.94  0.0282117146203
-0.28  -0.92  0.0324335883565
-0.28  -0.9  0.037287264097
-0.28  -0.88  0.0428672908024
-0.28  -0.86  0.0492823666535
-0.28  -0.84  0.056657456478
-0.28  -0.82  0.0651362260488
-0.28  -0.8  0.0748838406738
-0.28  -0.78  0.0860901825945
-0.28  -0.76  0.0989735498669
-0.28  -0.74  0.113784908779
-0.28  -0.72  0.130812782639
-0.28  -0.7  0.150388872175
-0.28  -0.68  0.172894517018
-0.28  -0.66  0.198768124147
-0.28  -0.64  0.228513708002
-0.28  -0.62  0.262710708615
-0.28  -0.6  0.302025279028
-0.28  -0.58  0.347223261864
-0.28  -0.56  0.399185107841
-0.28  -0.54  0.458923026835
-0.28  -0.52  0.527600705593
-0.28  -0.5  0.6065559762
-0.28  -0.48  0.697326876867
-0.28  -0.46  0.801681612713
-0.28  -0.44  0.921653000168
-0.28  -0.42  1.05957806596
-0.28  -0.4  1.21814357211
-0.28  -0.38  1.40043835367
-0.28  -0.36  1.61001348882
-0.28  -0.34  1.85095147344
-0.28  -0.32  2.12794574755
-0.28  -0.3  2.44639212292
-0.28  -0.28  2.81249389273
-0.28  -0.26  3.23338267098
-0.28  -0.24  3.7172573153
-0.28  -0.22  4.27354363966
-0.28  -0.2  3.70312344002
-0.28  -0.18  3.71407506187
-0.28  -0.16  3.67500703555
-0.28  -0.14  3.58885023234
-0.28  -0.12  3.46235011141
-0.28  -0.1  3.30619836215
-0.28  -0.08  3.13512398366
-0.28  -0.06  2.9676690502
-0.28  -0.04  2.82507859403
-0.28  -0.02  2.72850652815
-0.28  6.17561557e-16  2.69424333488
-0.28  0.02  2.72850652815
-0.28  0.04  2.82507859403
-0.28  0.06  2.9676690502
-0.28  0.08  3.13512398366
-0.28  0.1  3.30619836215
-0.28  0.12  3.46235011141
-0.28  0.14  3.58885023234
-0.28  0.16  3.67500703555
-0.28  0.18  3.71407506187
-0.28  0.2  4.91307802797
-0.28  0.22  4.27354363966
-0.28  0.24  3.7172573153
-0.28  0.26  3.23338267098
-0.28  0.28  2.81249389273
-0.28  0.3  2.44639212292
-0.28  0.32  2.12794574755
-0.28  0.34  1.85095147344
-0.28  0.36  1.61001348882
-0.28  0.38  1.40043835367
-0.28  0.4  1.21814357211
-0.28  0.42  1.05957806597
-0.28  0.44  0.921653000168
-0.28  0.46  0.801681612713
-0.28  0.48  0.697326876867
-0.28  0.5  0.6065559762
-0.28  0.52  0.527600705594
-0.28  0.54  0.458923026835
-0.28  0.56  0.399185107841
-0.28  0.58  0.347223261864
-0.28  0.6  0.302025279028
-0.28  0.62  0.262710708615
-0.28  0.64  0.228513708002
-0.28  0.66  0.198768124147
-0.28  0.68  0.172894517018
-0.28  0.7  0.150388872175
-0.28  0.72  0.130812782639
-0.28  0.74  0.113784908779
-0.28  0.76  0.0989735498669
-0.28  0.78  0.0860901825945
-0.28  0.8  0.0748838406738
-0.28  0.82  0.0651362260488
-0.28  0.84  0.0566574564781
-0.28  0.86  0.0492823666535
-0.28  0.88  0.0428672908024
-0.28  0.9  0.037287264097
-0.28  0.92  0.0324335883565
-0.28  0.94  0.0282117146203
-0.28  0.96  0.0245394013475
-0.28  0.98  0.0213451123619
-0.26  -1  0.02227868051
-0.26  -0.98  0.0256126776593
-0.26  -0.96  0.0294456063762
-0.26  -0.94  0.0338521316044
-0.26  -0.92  0.0389180918715
-0.26  -0.9  0.0447421714125
-0.26  -0.88  0.051437822525
-0.26  -0.86  0.0591354756059
-0.26  -0.84  0.0679850799173
-0.26  -0.82  0.0781590245789
-0.26  -0.8  0.0898554966847
-0.26  -0.78  0.103302341962
-0.26  -0.76  0.118761503175
-0.26  -0.74  0.136534122736
-0.26  -0.72  0.156966408921
-0.26  -0.7  0.180456379956
-0.26  -0.68  0.207461617365
-0.26  -0.66  0.238508179597
-0.26  -0.64  0.274200849569
-0.26  -0.62  0.315234915765
-0.26  -0.6  0.362409716358
-0.26  -0.58  0.416644210213
-0.26  -0.56  0.478994878087
-0.26  -0.54  0.550676302728
-0.26  -0.52  0.633084828792
-0.26  -0.5  0.727825763451
-0.26  -0.48  0.836744647558
-0.26  -0.46  0.961963206549
-0.26  -0.44  1.10592068136
-0.26  -0.42  1.27142134454
-0.26  -0.4  1.46168912706
-0.26  -0.38  1.68043042014
-0.26  -0.36  1.93190627518
-0.26  -0.34  2.22101540852
-0.26  -0.32  2.55338962778
-0.26  -0.3  2.93550353871
-0.26  -0.28  3.37480066968
-0.26  -0.26  3.8798384706
-0.26  -0.24  4.46045501093
-0.26  -0.22  5.12796062395
-0.26  -0.2  4.44349532547
-0.26  -0.18  4.45663652406
-0.26  -0.16  4.40975755955
-0.26  -0.14  4.30637527739
-0.26  -0.12  4.15458376811
-0.26  -0.1  3.96721232907
-0.26  -0.08  3.76193475368
-0.26  -0.06  3.56100026524
-0.26  -0.04  3.38990145211
-0.26  -0.02  3.27402156578
-0.26  6.17561557e-16  3.23290807291
-0.26  0.02  3.27402156578
-0.26  0.04  3.38990145211
-0.26  0.06  3.56100026524
-0.26  0.08  3.76193475368
-0.26  0.1  3.96721232907
-0.26  0.12  4.15458376811
-0.26  0.14  4.30637527739
-0.26  0.16  4.40975755955
-0.26  0.18  4.45663652406
-0.26  0.2  5.89535823058
-0.26  0.22  5.12796062395
-0.26  0.24  4.46045501093
-0.26  0.26  3.8798384706
-0.26  0.28  3.37480066968
-0.26  0.3  2.93550353871
-0.26  0.32  2.55338962778
-0.26  0.34  2.22101540852
-0.26  0.36  1.93190627518
-0.26  0.38  1.68043042014
-0.26  0.4  1.46168912706
-0.26  0.42  1.27142134454
-0.26  0.44  1.10592068136
-0.26  0.46  0.961963206549
-0.26  0.48  0.836744647559
-0.26  0.5  0.727825763451
-0.26  0.52  0.633084828792
-0.26  0.54  0.550676302728
-0.26  0.56  0.478994878087
-0.26  0.58  0.416644210213
-0.26  0.6  0.362409716358
-0.26  0.62  0.315234915765
-0.26  0.64  0.274200849569
-0.26  0.66  0.238508179597
-0.26  0.68  0.207461617365
-0.26  0.7  0.180456379956
-0.26  0.72  0.156966408921
-0.26  0.74  0.136534122736
-0.26  0.76  0.118761503175
-0.26  0.78  0.103302341962
-0.26  0.8  0.0898554966847
-0.26  0.82  0.0781590245789
-0.26  0.84  0.0679850799173
-0.26  0.86  0.0591354756059
-0.26  0.88  0.051437822525
-0.26  0.9  0.0447421714125
-0.26  0.92  0.0389180918716
-0.26  0.94  0.0338521316044
-0.26  0.96  0.0294456063762
-0.26  0.98  0.0256126776593
-0.24  -1  0.0267328957047
-0.24  -0.98  0.0307334646806
-0.24  -0.96  0.035332717477
-0.24  -0.94  0.0406202469288
-0.24  -0.92  0.0466990534095
-0.24  -0.9  0.053687551264
-0.24  -0.88  0.0617218755045
-0.24  -0.86  0.0709585337029
-0.24  -0.84  0.0815774547372
-0.24  -0.82  0.0937854937825
-0.24  -0.8  0.107820461822
-0.24  -0.78  0.123955758174
-0.24  -0.76  0.142505696273
-0.24  -0.74  0.163831626456
-0.24  -0.72  0.188348975019
-0.24  -0.7  0.216535336662
-0.24  -0.68  0.248939777977
-0.24  -0.66  0.286193533187
-0.24  -0.64  0.329022300509
-0.24  -0.62  0.378260378655
-0.24  -0.6  0.434866918866
-0.24  -0.58  0.499944609046
-0.24  -0.56  0.574761153977
-0.24  -0.54  0.660773970043
-0.24  -0.52  0.759658575506
-0.24  -0.5  0.87334122938
-0.24  -0.48  1.0040364547
-0.24  -0.46  1.15429017715
-0.24  -0.44  1.32702931932
-0.24  -0.42  1.52561881683
-0.24  -0.4  1.75392716678
-0.24  -0.38  2.01640178558
-0.24  -0.36  2.31815564403
-0.24  -0.34  2.66506686731
-0.24  -0.32  3.0638932401
-0.24  -0.3  3.5224038473
-0.24  -0.28  4.0495304148
-0.24  -0.26  4.6555412983
-0.24  -0.24  5.35224150952
-0.24  -0.22  6.15320267629
-0.24  -0.2  5.33189104477
-0.24  -0.18  5.34765958596
-0.24  -0.16  5.29140802884
-0.24  -0.14  5.1673563479
-0.24  -0.12  4.98521689917
-0.24  -0.1  4.76038396368
-0.24  -0.08  4.51406488697
-0.24  -0.06  4.27295721811
-0.24  -0.04  4.06765032283
-0.24  -0.02  3.92860237005
-0.24  6.17561557e-16  3.87926898531
-0.24  0.02  3.92860237005
-0.24  0.04  4.06765032283
-0.24  0.06  4.27295721811
-0.24  0.08  4.51406488697
-0.24  0.1  4.76038396368
-0.24  0.12  4.98521689917
-0.24  0.14  5.1673563479
-0.24  0.16  5.29140802884
-0.24  0.18  5.34765958596
-0.24  0.2  7.07402741601
-0.24  0.22  6.15320267629
-0.24  0.24  5.35224150952
-0.24  0.26  4.6555412983
-0.24  0.28  4.0495304148
-0.24  0.3  3.5224038473
-0.24  0.32  3.0638932401
-0.24  0.34  2.66506686731
-0.24  0.36  2.31815564403
-0.24  0.38  2.01640178558
-0.24  0.4  1.75392716678
-0.24  0.42  1.52561881683
-0.24  0.44  1.32702931932
-0.24  0.46  1.15429017715
-0.24  0.48  1.0040364547
-0.24  0.5  0.87334122938
-0.24  0.52  0.759658575506
-0.24  0.54  0.660773970043
-0.24  0.56  0.574761153977
-0.24  0.58  0.499944609046
-0.24  0.6  0.434866918867
-0.24  0.62  0.378260378655
-0.24  0.64  0.329022300509
-0.24  0.66  0.286193533187
-0.24  0.68  0.248939777977
-0.24  0.7  0.216535336662
-0.24  0.72  0.188348975019
-0.24  0.74  0.163831626456
-0.24  0.76  0.142505696273
-0.24  0.78  0.123955758174
-0.24  0.8  0.107820461822
-0.24  0.82  0.0937854937825
-0.24  0.84  0.0815774547372
-0.24  0.86  0.0709585337029
-0.24  0.88  0.0617218755045
-0.24  0.9  0.053687551264
-0.24  0.92  0.0466990534095
-0.24  0.94  0.0406202469288
-0.24  0.96  0.035332717477
-0.24  0.98  0.0307334646806
-0.22  -1  0.0320776498608
-0.22  -0.98  0.0368780595235
-0.22  -0.96  0.0423968489002
-0.22  -0.94  0.0487415232766
-0.22  -0.92  0.0560356760692
-0.22  -0.9  0.0644213964081
-0.22  -0.88  0.0740620370144
-0.22  -0.86  0.08514539629
-0.22  -0.84  0.0978873766053
-0.22  -0.82  0.112536190049
-0.22  -0.8  0.129377193565
-0.22  -0.78  0.148738447673
-0.22  -0.76  0.170997107036
-0.22  -0.74  0.196586767391
-0.22  -0.72  0.226005911931
-0.22  -0.7  0.259827621693
-0.22  -0.68  0.298710739105
-0.22  -0.66  0.34341270214
-0.22  -0.64  0.394804299119
-0.22  -0.62  0.45388663154
-0.22  -0.6  0.521810615413
-0.22  -0.58  0.599899400944
-0.22  -0.56  0.689674147332
-0.22  -0.54  0.792883654741
-0.22  -0.52  0.911538430703
-0.22  -0.5  1.04794985453
-0.22  -0.48  1.2047752027
-0.22  -0.46  1.38506941221
-0.22  -0.44  1.59234459037
-0.22  -0.42  1.83063843019
-0.22  -0.4  2.10459286412
-0.22  -0.38  2.41954448822
-0.22  -0.36  2.78162851841
-0.22  -0.34  3.19789830363
-0.22  -0.32  3.67646272414
-0.22  -0.3  4.22664415147
-0.22  -0.28  4.85916004692
-0.22  -0.26  5.58633173634
-0.22  -0.24  6.4223244279
-0.22  -0.22  7.38342314849
-0.22  -0.2  6.39790525947
-0.22  -0.18  6.41682643242
-0.22  -0.16  6.34932840403
-0.22  -0.14  6.20047485557
-0.22  -0.12  5.98191995128
-0.22  -0.1  5.71213577745
-0.22  -0.08  5.41656970096
-0.22  -0.06  5.12725695813
-0.22  -0.04  4.88090269955
-0.22  -0.02  4.71405464865
-0.22  6.17561557e-16  4.65485795483
-0.22  0.02  4.71405464865
-0.22  0.04  4.88090269955
-0.22  0.06  5.12725695813
-0.22  0.08  5.41656970096
-0.22  0.1  5.71213577745
-0.22  0.12  5.98191995128
-0.22  0.14  6.20047485557
-0.22  0.16  6.34932840403
-0.22  0.18  6.41682643242
-0.22  0.2  8.48834997386
-0.22  0.22  7.38342314849
-0.22  0.24  6.4223244279
-0.22  0.26  5.58633173634
-0.22  0.28  4.85916004692
-0.22  0.3  4.22664415147
-0.22  0.32  3.67646272414
-0.22  0.34  3.19789830363
-0.22  0.36  2.78162851841
-0.22  0.38  2.41954448822
-0.22  0.4  2.10459286412
-0.22  0.42  1.83063843019
-0.22  0.44  1.59234459037
-0.22  0.46  1.38506941221
-0.22  0.48  1.2047752027
-0.22  0.5  1.04794985453
-0.22  0.52  0.911538430703
-0.22  0.54  0.792883654741
-0.22  0.56  0.689674147332
-0.22  0.58  0.599899400944
-0.22  0.6  0.521810615413
-0.22  0.62  0.45388663154
-0.22  0.64  0.394804299119
-0.22  0.66  0.34341270214
-0.22  0.68  0.298710739105
-0.22  0.7  0.259827621693
-0.22  0.72  0.226005911931
-0.22  0.74  0.196586767391
-0.22  0.76  0.170997107036
-0.22  0.78  0.148738447673
-0.22  0.8  0.129377193565
-0.22  0.82  0.112536190049
-0.22  0.84  0.0978873766053
-0.22  0.86  0.08514539629
-0.22  0.88  0.0740620370144
-0.22  0.9  0.0644213964081
-0.22  0.92  0.0560356760692
-0.22  0.94  0.0487415232766
-0.22  0.96  0.0423968489002
-0.22  0.98  0.0368780595235
-0.2  -1  0.0384909899757
-0.2  -0.98  0.0442511538596
-0.2  -0.96  0.0508733243582
-0.2  -0.94  0.0584865004757
-0.2  -0.92  0.0672389858741
-0.2  -0.9  0.0773012778095
-0.2  -0.88  0.0888693883957
-0.2  -0.86  0.102168662895
-0.2  -0.84  0.117458169411
-0.2  -0.82  0.135035745507
-0.2  -0.8  0.155243800036
-0.2  -0.78  0.178475983223
-0.2  -0.76  0.205184854918
-0.2  -0.74  0.235890700405
-0.2  -0.72  0.271191665484
-0.2  -0.7  0.31177540828
-0.2  -0.68  0.358432494725
-0.2  -0.66  0.412071798682
-0.2  -0.64  0.473738206686
-0.2  -0.62  0.544632972195
-0.2  -0.6  0.62613711585
-0.2  -0.58  0.719838327571
-0.2  -0.56  0.827561894548
-0.2  -0.54  0.951406257596
-0.2  -0.52  1.0937838885
-0.2  -0.5  1.25746828465
-0.2  -0.48  1.44564799639
-0.2  -0.46  1.66198873958
-0.2  -0.44  1.91070480324
-0.2  -0.42  2.19664114334
-0.2  -0.4  2.52536776189
-0.2  -0.38  2.90328820989
-0.2  -0.36  3.33776432759
-0.2  -0.34  3.8372596522
-0.2  -0.32  4.41150428648
-0.2  -0.3  5.07168443982
-0.2  -0.28  5.83066033415
-0.2  -0.26  6.70321671935
-0.2  -0.24  7.7063508782
-0.2  -0.22  8.85960373121
-0.2  -0.2  7.6770495431
-0.2  -0.18  7.69975365895
-0.2  -0.16  7.61876063279
-0.2  -0.14  7.44014653649
-0.2  -0.12  7.17789557151
-0.2  -0.1  6.85417298037
-0.2  -0.08  6.49951386611
-0.2  -0.06  6.15235832533
-0.2  -0.04  5.856750033
-0.2  -0.02  5.6565437622
-0.2  6.17561557e-16  5.58551177082
-0.2  0.02  5.6565437622
-0.2  0.04  5.856750033
-0.2  0.06  6.15235832533
-0.2  0.08  6.49951386611
-0.2  0.1  6.85417298037
-0.2  0.12  7.17789557151
-0.2  0.14  7.44014653649
-0.2  0.16  7.61876063279
-0.2  0.18  7.69975365895
-0.2  0.2  10.1854404912
-0.2  0.22  8.85960373121
-0.2  0.24  7.7063508782
-0.2  0.26  6.70321671935
-0.2  0.28  5.83066033415
-0.2  0.3  5.07168443982
-0.2  0.32  4.41150428648
-0.2  0.34  3.8372596522
-0.2  0.36  3.33776432759
-0.2  0.38  2.90328820989
-0.2  0.4  2.52536776189
-0.2  0.42  2.19664114334
-0.2  0.44  1.91070480324
-0.2  0.46  1.66198873958
-0.2  0.48  1.44564799639
-0.2  0.5  1.25746828465
-0.2  0.52  1.0937838885
-0.2  0.54  0.951406257596
-0.2  0.56  0.827561894548
-0.2  0.58  0.719838327571
-0.2  0.6  0.62613711585
-0.2  0.62  0.544632972195
-0.2  0.64  0.473738206686
-0.2  0.66  0.412071798682
-0.2  0.68  0.358432494725
-0.2  0.7  0.31177540828
-0.2  0.72  0.271191665484
-0.2  0.74  0.235890700405
-0.2  0.76  0.205184854918
-0.2  0.78  0.178475983223
-0.2  0.8  0.155243800036
-0.2  0.82  0.135035745507
-0.2  0.84  0.117458169411
-0.2  0.86  0.102168662895
-0.2  0.88  0.0888693883957
-0.2  0.9  0.0773012778095
-0.2  0.92  0.0672389858741
-0.2  0.94  0.0584865004757
-0.2  0.96  0.0508733243582
-0.2  0.98  0.0442511538596
-0.18  -1  0.0461865602917
-0.18  -0.98  0.053098363721
-0.18  -0.96  0.0610445162411
-0.18  -0.94  0.0701798078504
-0.18  -0.92  0.0806821928192
-0.18  -0.9  0.0927562562154
-0.18  -0.88  0.106637199194
-0.18  -0.86  0.122595420686
-0.18  -0.84  0.140941784731
-0.18  -0.82  0.162033676071
-0.18  -0.8  0.186281961955
-0.18  -0.78  0.214158995779
-0.18  -0.76  0.246207818469
-0.18  -0.74  0.283052736845
-0.18  -0.72  0.325411485036
-0.18  -0.7  0.374109205844
-0.18  -0.68  0.430094524421
-0.18  -0.66  0.494458027354
-0.18  -0.64  0.568453507155
-0.18  -0.62  0.653522385966
-0.18  -0.6  0.751321794277
-0.18  -0.58  0.863756851605
-0.18  -0.56  0.993017777972
-0.18  -0.54  1.1416225591
-0.18  -0.52  1.31246599643
-0.18  -0.5  1.50887609751
-0.18  -0.48  1.73467890506
-0.18  -0.46  1.99427302787
-0.18  -0.44  2.29271532507
-0.18  -0.42  2.63581941306
-0.18  -0.4  3.03026891402
-0.18  -0.38  3.48374765198
-0.18  -0.36  4.00508933267
-0.18  -0.34  4.60444962297
-0.18  -0.32  5.29350398192
-0.18  -0.3  6.08567509716
-0.18  -0.28  6.99639435706
-0.18  -0.26  8.04340245215
-0.18  -0.24  9.24709496142
-0.18  -0.22  10.6309196555
-0.18  -0.2  9.21193535964
-0.18  -0.18  9.2391787487
-0.18  -0.16  9.14199264649
-0.18  -0.14  8.92766792445
-0.18  -0.12  8.61298466966
-0.18  -0.1  8.22453965999
-0.18  -0.08  7.79897293452
-0.18  -0.06  7.38240998499
-0.18  -0.04  7.0277002146
-0.18  -0.02  6.7874663572
-0.18  6.17561557e-16  6.70223281671
-0.18  0.02  6.7874663572
-0.18  0.04  7.0277002146
-0.18  0.06  7.38240998499
-0.18  0.08  7.79897293452
-0.18  0.1  8.22453965999
-0.18  0.12  8.61298466966
-0.18  0.14  8.92766792445
-0.18  0.16  9.14199264649
-0.18  0.18  9.2391787487
-0.18  0.2  12.221833256
-0.18  0.22  10.6309196555
-0.18  0.24  9.24709496142
-0.18  0.26  8.04340245215
-0.18  0.28  6.99639435706
-0.18  0.3  6.08567509716
-0.18  0.32  5.29350398192
-0.18  0.34  4.60444962297
-0.18  0.36  4.00508933267
-0.18  0.38  3.48374765198
-0.18  0.4  3.03026891402
-0.18  0.42  2.63581941306
-0.18  0.44  2.29271532507
-0.18  0.46  1.99427302787
-0.18  0.48  1.73467890506
-0.18  0.5  1.50887609751
-0.18  0.52  1.31246599644
-0.18  0.54  1.1416225591
-0.18  0.56  0.993017777972
-0.18  0.58  0.863756851605
-0.18  0.6  0.751321794277
-0.18  0.62  0.653522385966
-0.18  0.64  0.568453507155
-0.18  0.66  0.494458027354
-0.18  0.68  0.430094524421
-0.18  0.7  0.374109205844
-0.18  0.72  0.325411485036
-0.18  0.74  0.283052736845
-0.18  0.76  0.246207818469
-0.18  0.78  0.214158995779
-0.18  0.8  0.186281961955
-0.18  0.82  0.162033676071
-0.18  0.84  0.140941784731
-0.18  0.86  0.122595420686
-0.18  0.88  0.106637199194
-0.18  0.9  0.0927562562154
-0.18  0.92  0.0806821928192
-0.18  0.94  0.0701798078504
-0.18  0.96  0.0610445162411
-0.18  0.98  0.053098363721
-0.16  -1  0.0554207193144
-0.16  -0.98  0.0637144115788
-0.16  -0.96  0.0732492521399
-0.16  -0.94  0.0842109784286
-0.16  -0.92  0.0968131234208
-0.16  -0.9  0.111301175231
-0.16  -0.88  0.12795735919
-0.16  -0.86  0.147106135555
-0.16  -0.84  0.169120519951
-0.16  -0.82  0.194429349671
-0.16  -0.8  0.223525637364
-0.16  -0.78  0.25697617486
-0.16  -0.76  0.295432574199
-0.16  -0.74  0.339643960944
-0.16  -0.72  0.390471567052
-0.16  -0.7  0.448905507556
-0.16  -0.68  0.516084067877
-0.16  -0.66  0.593315877469
-0.16  -0.64  0.682105401752
-0.16  -0.62  0.784182248895
-0.16  -0.6  0.901534862359
-0.16  -0.58  1.03644925551
-0.16  -0.56  1.19155354284
-0.16  -0.54  1.36986913533
-0.16  -0.52  1.5748695971
-0.16  -0.5  1.81054830998
-0.16  -0.48  2.08149626408
-0.16  -0.46  2.39299148965
-0.16  -0.44  2.75110187241
-0.16  -0.42  3.16280335518
-0.16  -0.4  3.63611582829
-0.16  -0.38  4.18025935604
-0.16  -0.36  4.80583378223
-0.16  -0.34  5.52502521383
-0.16  -0.32  6.35184340463
-0.16  -0.3  7.30239466347
-0.16  -0.28  8.39519560293
-0.16  -0.26  9.65153384054
-0.16  -0.24  11.0958826787
-0.16  -0.22  12.7563778415
-0.16  -0.2  11.0536935568
-0.16  -0.18  11.0863837639
-0.16  -0.16  10.9697670759
-0.16  -0.14  10.7125920408
-0.16  -0.12  10.3349936177
-0.16  -0.1  9.86888612418
-0.16  -0.08  9.35823510594
-0.16  -0.06  8.85838800417
-0.16  -0.04  8.43276049481
-0.16  -0.02  8.14449626607
-0.16  6.17561557e-16  8.04222183615
-0.16  0.02  8.14449626607
-0.16  0.04  8.43276049481
-0.16  0.06  8.85838800417
-0.16  0.08  9.35823510594
-0.16  0.1  9.86888612418
-0.16  0.12  10.3349936177
-0.16  0.14  10.7125920408
-0.16  0.16  10.9697670759
-0.16  0.18  11.0863837639
-0.16  0.2  14.6653655547
-0.16  0.22  12.7563778415
-0.16  0.24  11.0958826787
-0.16  0.26  9.65153384054
-0.16  0.28  8.39519560293
-0.16  0.3  7.30239466347
-0.16  0.32  6.35184340464
-0.16  0.34  5.52502521383
-0.16  0.36  4.80583378223
-0.16  0.38  4.18025935604
-0.16  0.4  3.63611582829
-0.16  0.42  3.16280335518
-0.16  0.44  2.75110187241
-0.16  0.46  2.39299148965
-0.16  0.48  2.08149626408
-0.16  0.5  1.81054830998
-0.16  0.52  1.5748695971
-0.16  0.54  1.36986913533
-0.16  0.56  1.19155354284
-0.16  0.58  1.03644925551
-0.16  0.6  0.901534862359
-0.16  0.62  0.784182248895
-0.16  0.64  0.682105401752
-0.16  0.66  0.593315877469
-0.16  0.68  0.516084067877
-0.16  0.7  0.448905507556
-0.16  0.72  0.390471567052
-0.16  0.74  0.339643960944
-0.16  0.76  0.295432574199
-0.16  0.78  0.25697617486
-0.16  0.8  0.223525637364
-0.16  0.82  0.194429349671
-0.16  0.84  0.169120519951
-0.16  0.86  0.147106135555
-0.16  0.88  0.12795735919
-0.16  0.9  0.111301175231
-0.16  0.92  0.0968131234208
-0.16  0.94  0.0842109784286
-0.16  0.96  0.0732492521399
-0.16  0.98  0.0637144115788
-0.14  -1  0.0665010797497
-0.14  -0.98  0.0764529442784
-0.14  -0.96  0.0878941020331
-0.14  -0.94  0.101047425251
-0.14  -0.92  0.116169138926
-0.14  -0.9  0.133553812038
-0.14  -0.88  0.153540095714
-0.14  -0.86  0.176517320115
-0.14  -0.84  0.202933078526
-0.14  -0.82  0.233301946422
-0.14  -0.8  0.268215505326
-0.14  -0.78  0.308353866741
-0.14  -0.76  0.35449892063
-0.14  -0.74  0.407549566528
-0.14  -0.72  0.46853922399
-0.14  -0.7  0.538655963463
-0.14  -0.68  0.619265649743
-0.14  -0.66  0.71193854884
-0.14  -0.64  0.818479916551
-0.14  -0.62  0.940965164604
-0.14  -0.6  1.0817802894
-0.14  -0.58  1.24366835093
-0.14  -0.56  1.42978290717
-0.14  -0.54  1.64374944502
-0.14  -0.52  1.88973600429
-0.14  -0.5  2.17253437058
-0.14  -0.48  2.49765341859
-0.14  -0.46  2.87142642431
-0.14  -0.44  3.30113443636
-0.14  -0.42  3.7951481099
-0.14  -0.4  4.36309076584
-0.14  -0.38  5.01602585187
-0.14  -0.36  5.76667245698
-0.14  -0.34  6.62965307758
-0.14  -0.32  7.62177846183
-0.14  -0.3  8.76237508078
-0.14  -0.28  10.0736616055
-0.14  -0.26  11.5811817237
-0.14  -0.24  13.3143017276
-0.14  -0.22  15.3067825653
-0.14  -0.2  13.2636776615
-0.14  -0.18  13.3029036782
-0.14  -0.16  13.1629716137
-0.14  -0.14  12.8543791283
-0.14  -0.12  12.4012867982
-0.14  -0.1  11.841989626
-0.14  -0.08  11.2292432649
-0.14  -0.06  10.629460866
-0.14  -0.04  10.1187369113
-0.14  -0.02  9.77283951583
-0.14  6.17561557e-16  9.65011718194
-0.14  0.02  9.77283951583
-0.14  0.04  10.1187369113
-0.14  0.06  10.629460866
-0.14  0.08  11.2292432649
-0.14  0.1  11.841989626
-0.14  0.12  12.4012867982
-0.14  0.14  12.8543791283
-0.14  0.16  13.1629716137
-0.14  0.18  13.3029036782
-0.14  0.2  17.5974374995
-0.14  0.22  15.3067825653
-0.14  0.24  13.3143017276
-0.14  0.26  11.5811817237
-0.14  0.28  10.0736616055
-0.14  0.3  8.76237508078
-0.14  0.32  7.62177846183
-0.14  0.34  6.62965307758
-0.14  0.36  5.76667245698
-0.14  0.38  5.01602585187
-0.14  0.4  4.36309076584
-0.14  0.42  3.7951481099
-0.14  0.44  3.30113443636
-0.14  0.46  2.87142642431
-0.14  0.48  2.49765341859
-0.14  0.5  2.17253437058
-0.14  0.52  1.88973600429
-0.14  0.54  1.64374944502
-0.14  0.56  1.42978290717
-0.14  0.58  1.24366835093
-0.14  0.6  1.0817802894
-0.14  0.62  0.940965164604
-0.14  0.64  0.818479916551
-0.14  0.66  0.71193854884
-0.14  0.68  0.619265649743
-0.14  0.7  0.538655963463
-0.14  0.72  0.46853922399
-0.14  0.74  0.407549566528
-0.14  0.76  0.35449892063
-0.14  0.78  0.308353866741
-0.14  0.8  0.268215505326
-0.14  0.82  0.233301946422
-0.14  0.84  0.202933078526
-0.14  0.86  0.176517320115
-0.14  0.88  0.153540095714
-0.14  0.9  0.133553812038
-0.14  0.92  0.116169138926
-0.14  0.94  0.101047425251
-0.14  0.96  0.0878941020331
-0.14  0.98  0.0764529442784
-0.12  -1  0.0797967558449
-0.12  -0.98  0.0917383138915
-0.12  -0.96  0.105466922139
-0.12  -0.94  0.121250012058
-0.12  -0.92  0.139395036148
-0.12  -0.9  0.160255457076
-0.12  -0.88  0.184237633077
-0.12  -0.86  0.211808733762
-0.12  -0.84  0.24350584052
-0.12  -0.82  0.279946408792
-0.12  -0.8  0.32184029602
-0.12  -0.78  0.370003589578
-0.12  -0.76  0.425374504042
-0.12  -0.74  0.489031657491
-0.12  -0.72  0.562215082841
-0.12  -0.7  0.646350383522
-0.12  -0.68  0.743076504046
-0.12  -0.66  0.854277656426
-0.12  -0.64  0.982120024378
-0.12  -0.62  1.12909396029
-0.12  -0.6  1.29806249697
-0.12  -0.58  1.49231711913
-0.12  -0.56  1.71564188106
-0.12  -0.54  1.97238711955
-0.12  -0.52  2.26755419782
-0.12  -0.5  2.60689293146
-0.12  -0.48  2.99701359405
-0.12  -0.46  3.4455156844
-0.12  -0.44  3.96113596382
-0.12  -0.42  4.55391864705
-0.12  -0.4  5.23541106221
-0.12  -0.38  6.01888859128
-0.12  -0.36  6.91961327273
-0.12  -0.34  7.95513110402
-0.12  -0.32  9.14561383532
-0.12  -0.3  10.5142519125
-0.12  -0.28  12.087706224
-0.12  -0.26  13.8966274514
-0.12  -0.24  15.9762531406
-0.12  -0.22  18.3670941243
-0.12  -0.2  15.9155077172
-0.12  -0.18  15.9625762594
-0.12  -0.16  15.7946673349
-0.12  -0.14  15.4243774192
-0.12  -0.12  14.8806975545
-0.12  -0.1  14.2095791295
-0.12  -0.08  13.4743253268
-0.12  -0.06  12.7546273937
-0.12  -0.04  12.1417935138
-0.12  -0.02  11.7267402528
-0.12  6.17561557e-16  11.5794818301
-0.12  0.02  11.7267402528
-0.12  0.04  12.1417935138
-0.12  0.06  12.7546273937
-0.12  0.08  13.4743253268
-0.12  0.1  14.2095791295
-0.12  0.12  14.8806975545
-0.12  0.14  15.4243774192
-0.12  0.16  15.7946673349
-0.12  0.18  15.9625762594
-0.12  0.2  21.1157236683
-0.12  0.22  18.3670941243
-0.12  0.24  15.9762531406
-0.12  0.26  13.8966274514
-0.12  0.28  12.087706224
-0.12  0.3  10.5142519125
-0.12  0.32  9.14561383532
-0.12  0.34  7.95513110402
-0.12  0.36  6.91961327273
-0.12  0.38  6.01888859129
-0.12  0.4  5.23541106221
-0.12  0.42  4.55391864705
-0.12  0.44  3.96113596382
-0.12  0.46  3.4455156844
-0.12  0.48  2.99701359405
-0.12  0.5  2.60689293146
-0.12  0.52  2.26755419782
-0.12  0.54  1.97238711955
-0.12  0.56  1.71564188106
-0.12  0.58  1.49231711913
-0.12  0.6  1.29806249697
-0.12  0.62  1.12909396029
-0.12  0.64  0.982120024379
-0.12  0.66  0.854277656426
-0.12  0.68  0.743076504046
-0.12  0.7  0.646350383522
-0.12  0.72  0.562215082841
-0.12  0.74  0.489031657491
-0.12  0.76  0.425374504042
-0.12  0.78  0.370003589578
-0.12  0.8  0.32184029602
-0.12  0.82  0.279946408792
-0.12  0.84  0.24350584052
-0.12  0.86  0.211808733762
-0.12  0.88  0.184237633077
-0.12  0.9  0.160255457076
-0.12  0.92  0.139395036148
-0.12  0.94  0.121250012058
-0.12  0.96  0.105466922139
-0.12  0.98  0.0917383138915
-0.1  -1  0.0957506594981
-0.1  -0.98  0.110079713935
-0.1  -0.96  0.126553106616
-0.1  -0.94  0.145491737048
-0.1  -0.92  0.167264527244
-0.1  -0.9  0.19229560827
-0.1  -0.88  0.221072582271
-0.1  -0.86  0.254156020886
-0.1  -0.84  0.292190385118
-0.1  -0.82  0.335916579342
-0.1  -0.8  0.386186384029
-0.1  -0.78  0.443979048316
-0.1  -0.76  0.510420365645
-0.1  -0.74  0.586804604077
-0.1  -0.72  0.674619718456
-0.1  -0.7  0.775576335577
-0.1  -0.68  0.891641076966
-0.1  -0.66  1.02507486841
-0.1  -0.64  1.17847698249
-0.1  -0.62  1.35483567206
-0.1  -0.6  1.55758638104
-0.1  -0.58  1.79067866637
-0.1  -0.56  2.05865313489
-0.1  -0.54  2.36672989375
-0.1  -0.52  2.72091023739
-0.1  -0.5  3.12809355199
-0.1  -0.48  3.59621171458
-0.1  -0.46  4.13438360494
-0.1  -0.44  4.7530927402
-0.1  -0.42  5.46439149234
-0.1  -0.4  6.28213586684
-0.1  -0.38  7.22225541576
-0.1  -0.36  8.30306354338
-0.1  -0.34  9.54561424883
-0.1  -0.32  10.9741122553
-0.1  -0.3  12.6163845145
-0.1  -0.28  14.5044222728
-0.1  -0.26  16.6750042553
-0.1  -0.24  19.1704131117
-0.1  -0.22  22.0392590757
-0.1  -0.2  19.0975227505
-0.1  -0.18  19.154001788
-0.1  -0.16  18.9525225412
-0.1  -0.14  18.5081999211
-0.1  -0.12  17.8558211991
-0.1  -0.1  17.0505249046
-0.1  -0.08  16.1682705352
-0.1  -0.06  15.3046821475
-0.1  -0.04  14.5693233281
-0.1  -0.02  14.0712877495
-0.1  6.17561557e-16  13.8945876952
-0.1  0.02  14.0712877495
-0.1  0.04  14.5693233281
-0.1  0.06  15.3046821475
-0.1  0.08  16.1682705352
-0.1  0.1  17.0505249046
-0.1  0.12  17.8558211991
-0.1  0.14  18.5081999211
-0.1  0.16  18.9525225412
-0.1  0.18  19.154001788
-0.1  0.2  25.3374268868
-0.1  0.22  22.0392590757
-0.1  0.24  19.1704131117
-0.1  0.26  16.6750042553
-0.1  0.28  14.5044222728
-0.1  0.3  12.6163845145
-0.1  0.32  10.9741122553
-0.1  0.34  9.54561424883
-0.1  0.36  8.30306354338
-0.1  0.38  7.22225541576
-0.1  0.4  6.28213586684
-0.1  0.42  5.46439149234
-0.1  0.44  4.7530927402
-0.1  0.46  4.13438360494
-0.1  0.48  3.59621171458
-0.1  0.5  3.12809355199
-0.1  0.52  2.72091023739
-0.1  0.54  2.36672989375
-0.1  0.56  2.05865313489
-0.1  0.58  1.79067866637
-0.1  0.6  1.55758638104
-0.1  0.62  1.35483567206
-0.1  0.64  1.17847698249
-0.1  0.66  1.02507486841
-0.1  0.68  0.891641076966
-0.1  0.7  0.775576335577
-0.1  0.72  0.674619718456
-0.1  0.74  0.586804604077
-0.1  0.76  0.510420365645
-0.1  0.78  0.443979048316
-0.1  0.8  0.386186384029
-0.1  0.82  0.335916579342
-0.1  0.84  0.292190385118
-0.1  0.86  0.254156020886
-0.1  0.88  0.221072582271
-0.1  0.9  0.19229560827
-0.1  0.92  0.167264527244
-0.1  0.94  0.145491737048
-0.1  0.96  0.126553106616
-0.1  0.98  0.110079713935
-0.08  -1  0.114894254751
-0.08  -0.98  0.132088141868
-0.08  -0.96  0.15185508849
-0.08  -0.94  0.174580152118
-0.08  -0.92  0.200706013981
-0.08  -0.9  0.230741602406
-0.08  -0.88  0.265272006678
-0.08  -0.86  0.304969874497
-0.08  -0.84  0.350608515068
-0.08  -0.82  0.403076963064
-0.08  -0.8  0.463397296901
-0.08  -0.78  0.532744548691
-0.08  -0.76  0.612469593711
-0.08  -0.74  0.704125465277
-0.08  -0.72  0.809497607624
-0.08  -0.7  0.930638656125
-0.08  -0.68  1.06990842236
-0.08  -0.66  1.23001986291
-0.08  -0.64  1.41409192745
-0.08  -0.62  1.62571031539
-0.08  -0.6  1.8689973249
-0.08  -0.58  2.14869215469
-0.08  -0.56  2.470243223
-0.08  -0.54  2.83991430204
-0.08  -0.52  3.26490653545
-0.08  -0.5  3.75349871563
-0.08  -0.48  4.31520855353
-0.08  -0.46  4.96097808237
-0.08  -0.44  5.70338680703
-0.08  -0.42  6.5568967511
-0.08  -0.4  7.53813417523
-0.08  -0.38  8.66621345443
-0.08  -0.36  9.96310942363
-0.08  -0.34  11.4540854445
-0.08  -0.32  13.1681855324
-0.08  -0.3  15.1388001299
-0.08  -0.28  17.4043165484
-0.08  -0.26  20.0088667475
-0.08  -0.24  23.00318702
-0.08  -0.22  26.4456063283
-0.08  -0.2  22.9157235627
-0.08  -0.18  22.983494552
-0.08  -0.16  22.7417332103
-0.08  -0.14  22.2085763989
-0.08  -0.12  21.4257664687
-0.08  -0.1  20.4594658908
-0.08  -0.08  19.4008208768
-0.08  -0.06  18.3645737663
-0.08  -0.04  17.4821933842
-0.08  -0.02  16.8845846894
-0.08  6.17561557e-16  16.672556687
-0.08  0.02  16.8845846894
-0.08  0.04  17.4821933842
-0.08  0.06  18.3645737663
-0.08  0.08  19.4008208768
-0.08  0.1  20.4594658908
-0.08  0.12  21.4257664687
-0.08  0.14  22.2085763989
-0.08  0.16  22.7417332103
-0.08  0.18  22.983494552
-0.08  0.2  30.4031825443
-0.08  0.22  26.4456063283
-0.08  0.24  23.00318702
-0.08  0.26  20.0088667475
-0.08  0.28  17.4043165484
-0.08  0.3  15.1388001299
-0.08  0.32  13.1681855324
-0.08  0.34  11.4540854445
-0.08  0.36  9.96310942363
-0.08  0.38  8.66621345443
-0.08  0.4  7.53813417523
-0.08  0.42  6.5568967511
-0.08  0.44  5.70338680703
-0.08  0.46  4.96097808237
-0.08  0.48  4.31520855353
-0.08  0.5  3.75349871563
-0.08  0.52  3.26490653545
-0.08  0.54  2.83991430204
-0.08  0.56  2.470243223
-0.08  0.58  2.14869215469
-0.08  0.6  1.8689973249
-0.08  0.62  1.62571031539
-0.08  0.64  1.41409192745
-0.08  0.66  1.23001986291
-0.08  0.68  1.06990842236
-0.08  0.7  0.930638656125
-0.08  0.72  0.809497607624
-0.08  0.74  0.704125465277
-0.08  0.76  0.612469593711
-0.08  0.78  0.532744548691
-0.08  0.8  0.463397296901
-0.08  0.82  0.403076963064
-0.08  0.84  0.350608515068
-0.08  0.86  0.304969874497
-0.08  0.88  0.265272006678
-0.08  0.9  0.230741602406
-0.08  0.92  0.200706013981
-0.08  0.94  0.174580152118
-0.08  0.96  0.15185508849
-0.08  0.98  0.132088141868
-0.06  -1  0.137865262171
-0.06  -0.98  0.15849675293
-0.06  -0.96  0.182215739438
-0.06  -0.94  0.209484264411
-0.06  -0.92  0.240833515102
-0.06  -0.9  0.276874170762
-0.06  -0.88  0.318308298588
-0.06  -0.86  0.3659430299
-0.06  -0.84  0.420706282955
-0.06  -0.82  0.483664838667
-0.06  -0.8  0.55604512136
-0.06  -0.78  0.639257089353
-0.06  -0.76  0.734921700757
-0.06  -0.74  0.844902489529
-0.06  -0.72  0.971341866865
-0.06  -0.7  1.11670285508
-0.06  -0.68  1.28381706698
-0.06  -0.66  1.47593986526
-0.06  -0.64  1.69681377658
-0.06  -0.62  1.95074139548
-0.06  -0.6  2.24266919832
-0.06  -0.58  2.57828390004
-0.06  -0.56  2.96412323056
-0.06  -0.54  3.40770328893
-0.06  -0.52  3.91766495591
-0.06  -0.5  4.50394221722
-0.06  -0.48  5.17795567623
-0.06  -0.46  5.95283502585
-0.06  -0.44  6.84367481314
-0.06  -0.42  7.86782847913
-0.06  -0.4  9.04524640157
-0.06  -0.38  10.3988645256
-0.06  -0.36  11.9550511529
-0.06  -0.34  13.7441205929
-0.06  -0.32  15.8009236813
-0.06  -0.3  18.1655266696
-0.06  -0.28  20.8839917109
-0.06  -0.26  24.009274144
-0.06  -0.24  27.6022540566
-0.06  -0.22  31.7329222216
-0.06  -0.2  27.4973038788
-0.06  -0.18  27.5786244394
-0.06  -0.16  27.2885273337
-0.06  -0.14  26.6487755573
-0.06  -0.12  25.7094570814
-0.06  -0.1  24.5499623548
-0.06  -0.08  23.2796606088
-0.06  -0.06  22.0362348182
-0.06  -0.04  20.9774385974
-0.06  -0.02  20.2603489608
-0.06  6.17561557e-16  20.0059298326
-0.06  0.02  20.2603489608
-0.06  0.04  20.9774385974
-0.06  0.06  22.0362348182
-0.06  0.08  23.2796606088
-0.06  0.1  24.5499623548
-0.06  0.12  25.7094570814
-0.06  0.14  26.6487755573
-0.06  0.16  27.2885273337
-0.06  0.18  27.5786244394
-0.06  0.2  36.4817435074
-0.06  0.22  31.7329222216
-0.06  0.24  27.6022540566
-0.06  0.26  24.009274144
-0.06  0.28  20.8839917109
-0.06  0.3  18.1655266696
-0.06  0.32  15.8009236813
-0.06  0.34  13.7441205929
-0.06  0.36  11.9550511529
-0.06  0.38  10.3988645256
-0.06  0.4  9.04524640157
-0.06  0.42  7.86782847913
-0.06  0.44  6.84367481314
-0.06  0.46  5.95283502585
-0.06  0.48  5.17795567623
-0.06  0.5  4.50394221722
-0.06  0.52  3.91766495591
-0.06  0.54  3.40770328893
-0.06  0.56  2.96412323056
-0.06  0.58  2.57828390004
-0.06  0.6  2.24266919832
-0.06  0.62  1.95074139548
-0.06  0.64  1.69681377658
-0.06  0.66  1.47593986526
-0.06  0.68  1.28381706698
-0.06  0.7  1.11670285508
-0.06  0.72  0.971341866865
-0.06  0.74  0.844902489529
-0.06  0.76  0.734921700757
-0.06  0.78  0.639257089353
-0.06  0.8  0.55604512136
-0.06  0.82  0.483664838667
-0.06  0.84  0.420706282955
-0.06  0.86  0.3659430299
-0.06  0.88  0.318308298588
-0.06  0.9  0.276874170762
-0.06  0.92  0.240833515102
-0.06  0.94  0.209484264411
-0.06  0.96  0.182215739438
-0.06  0.98  0.15849675293
-0.04  -1  0.165428902904
-0.04  -0.98  0.190185283357
-0.04  -0.96  0.218646447934
-0.04  -0.94  0.251366816351
-0.04  -0.92  0.288983777049
-0.04  -0.9  0.332230103439
-0.04  -0.88  0.38194822823
-0.04  -0.86  0.439106653907
-0.04  -0.84  0.504818819029
-0.04  -0.82  0.580364787867
-0.04  -0.8  0.667216185887
-0.04  -0.78  0.767064866814
-0.04  -0.76  0.881855869726
-0.04  -0.74  1.01382530815
-0.04  -0.72  1.16554392927
-0.04  -0.7  1.33996719172
-0.04  -0.68  1.54049283754
-0.04  -0.66  1.77102707976
-0.04  -0.64  2.03606069486
-0.04  -0.62  2.34075650256
-0.04  -0.6  2.69104993683
-0.04  -0.58  3.09376466735
-0.04  -0.56  3.55674552373
-0.04  -0.54  4.08901131172
-0.04  -0.52  4.70093049835
-0.04  -0.5  5.40442318831
-0.04  -0.48  6.21319332599
-0.04  -0.46  7.14299564654
-0.04  -0.44  8.21194257599
-0.04  -0.42  9.44085705889
-0.04  -0.4  10.8536781866
-0.04  -0.38  12.4779275274
-0.04  -0.36  14.3452452435
-0.04  -0.34  16.4920064364
-0.04  -0.32  18.9600297298
-0.04  -0.3  21.7973918905
-0.04  -0.28  25.0593643576
-0.04  -0.26  28.8094899224
-0.04  -0.24  33.1208205343
-0.04  -0.22  38.0773403423
-0.04  -0.2  32.9948874855
-0.04  -0.18  33.0924666067
-0.04  -0.16  32.7443698841
-0.04  -0.14  31.9767114266
-0.04  -0.12  30.8495933803
-0.04  -0.1  29.458278864
-0.04  -0.08  27.9340034891
-0.04  -0.06  26.4419774257
-0.04  -0.04  25.171494242
-0.04  -0.02  24.311035632
-0.04  6.17561557e-16  24.0057500466
-0.04  0.02  24.311035632
-0.04  0.04  25.171494242
-0.04  0.06  26.4419774257
-0.04  0.08  27.9340034891
-0.04  0.1  29.458278864
-0.04  0.12  30.8495933803
-0.04  0.14  31.9767114266
-0.04  0.16  32.7443698841
-0.04  0.18  33.0924666067
-0.04  0.2  43.7756016957
-0.04  0.22  38.0773403423
-0.04  0.24  33.1208205343
-0.04  0.26  28.8094899224
-0.04  0.28  25.0593643576
-0.04  0.3  21.7973918905
-0.04  0.32  18.9600297298
-0.04  0.34  16.4920064364
-0.04  0.36  14.3452452435
-0.04  0.38  12.4779275274
-0.04  0.4  10.8536781866
-0.04  0.42  9.44085705889
-0.04  0.44  8.21194257599
-0.04  0.46  7.14299564654
-0.04  0.48  6.21319332599
-0.04  0.5  5.40442318831
-0.04  0.52  4.70093049835
-0.04  0.54  4.08901131172
-0.04  0.56  3.55674552373
-0.04  0.58  3.09376466735
-0.04  0.6  2.69104993683
-0.04  0.62  2.34075650256
-0.04  0.64  2.03606069486
-0.04  0.66  1.77102707976
-0.04  0.68  1.54049283754
-0.04  0.7  1.33996719172
-0.04  0.72  1.16554392927
-0.04  0.74  1.01382530815
-0.04  0.76  0.881855869726
-0.04  0.78  0.767064866814
-0.04  0.8  0.667216185887
-0.04  0.82  0.580364787867
-0.04  0.84  0.504818819029
-0.04  0.86  0.439106653907
-0.04  0.88  0.38194822823
-0.04  0.9  0.332230103439
-0.04  0.92  0.288983777049
-0.04  0.94  0.251366816351
-0.04  0.96  0.218646447934
-0.04  0.98  0.190185283357
-0.02  -1  0.198503390086
-0.02  -0.98  0.228209356577
-0.02  -0.96  0.2623608111
-0.02  -0.94  0.301623019466
-0.02  -0.92  0.346760804292
-0.02  -0.9  0.398653443647
-0.02  -0.88  0.45831179927
-0.02  -0.86  0.526898008026
-0.02  -0.84  0.605748120175
-0.02  -0.82  0.696398125455
-0.02  -0.8  0.80061387396
-0.02  -0.78  0.920425474665
-0.02  -0.76  1.05816684168
-0.02  -0.74  1.21652115858
-0.02  -0.72  1.39857314649
-0.02  -0.7  1.60786915401
-0.02  -0.68  1.84848623963
-0.02  -0.66  2.12511159232
-0.02  -0.64  2.44313383729
-0.02  -0.62  2.80874800575
-0.02  -0.6  3.22907621325
-0.02  -0.58  3.7123063976
-0.02  -0.56  4.26785181877
-0.02  -0.54  4.90653442796
-0.02  -0.52  5.64079567779
-0.02  -0.5  6.48493888014
-0.02  -0.48  7.45540783274
-0.02  -0.46  8.57110714223
-0.02  -0.44  9.85377048335
-0.02  -0.42  11.3283839681
-0.02  -0.4  13.0236728717
-0.02  -0.38  14.9726611975
-0.02  -0.36  17.2133149798
-0.02  -0.34  19.7892818575
-0.02  -0.32  22.7507413241
-0.02  -0.3  26.1553822177
-0.02  -0.28  30.0695264918
-0.02  -0.26  34.5694211584
-0.02  -0.24  39.7427235694
-0.02  -0.22  45.6902089704
-0.02  -0.2  39.591612508
-0.02  -0.18  39.7087007919
-0.02  -0.16  39.2910084885
-0.02  -0.14  38.3698707455
