0.52  0.34  0.906273150974
0.52  0.36  0.750060266357
0.52  0.38  0.620773552171
0.52  0.4  0.513771786562
0.52  0.42  0.425213747821
0.52  0.44  0.351920319615
0.52  0.46  0.291260364916
0.52  0.48  0.24105627167
0.52  0.5  0.199505779402
0.52  0.52  0.165117280454
0.52  0.54  0.136656273249
0.52  0.56  0.113101045311
0.52  0.58  0.0936059951462
0.52  0.6  0.0774712762664
0.52  0.62  0.0641176736274
0.52  0.64  0.0530658105754
0.52  0.66  0.0439189398603
0.52  0.68  0.0363487009345
0.52  0.7  0.0300833322441
0.52  0.72  0.0248979153489
0.52  0.74  0.0206063006481
0.52  0.76  0.0170544248565
0.52  0.78  0.014114780336
0.52  0.8  0.0116818377407
0.52  0.82  0.00966825765267
0.52  0.84  0.00800175521295
0.52  0.86  0.00662250519052
0.52  0.88  0.00548099433577
0.52  0.9  0.00453624392047
0.52  0.92  0.00375433865561
0.52  0.94  0.00310720917749
0.52  0.96  0.00257162439469
0.52  0.98  0.00212835752265
0.54  -1  0.00140329957357
0.54  -0.98  0.00169556072137
0.54  -0.96  0.00204869025404
0.54  -0.94  0.00247536505422
0.54  -0.92  0.00299090218229
0.54  -0.9  0.00361380873855
0.54  -0.88  0.00436644624359
0.54  -0.86  0.00527583338731
0.54  -0.84  0.00637461596407
0.54  -0.82  0.00770223881351
0.54  -0.8  0.00930636183806
0.54  -0.78  0.0112445709304
0.54  -0.76  0.0135864452305
0.54  -0.74  0.016416054925
0.54  -0.72  0.0198349792553
0.54  -0.7  0.023965953078
0.54  -0.68  0.0289572728837
0.54  -0.66  0.0349881204445
0.54  -0.64  0.0422749952026
0.54  -0.62  0.0510794863135
0.54  -0.6  0.0617176633503
0.54  -0.58  0.074571422783
0.54  -0.56  0.090102197556
0.54  -0.54  0.10886752192
0.54  -0.52  0.131541046172
0.54  -0.5  0.158936719813
0.54  -0.48  0.192038011253
0.54  -0.46  0.232033213024
0.54  -0.44  0.280358099916
0.54  -0.42  0.338747471381
0.54  -0.4  0.409297428544
0.54  -0.38  0.494540621454
0.54  -0.36  0.597537167869
0.54  -0.34  0.721984507431
0.54  -0.32  0.872350134852
0.54  -0.3  1.05403197706
0.54  -0.28  1.27355217164
0.54  -0.26  1.53879120291
0.54  -0.24  1.8592708009
0.54  -0.22  2.24649575884
0.54  -0.2  1.99155480302
0.54  -0.18  1.99213778186
0.54  -0.16  2.00072456311
0.54  -0.14  2.01630531352
0.54  -0.12  2.03708001697
0.54  -0.1  2.06071128174
0.54  -0.08  2.0846235342
0.54  -0.06  2.10629621018
0.54  -0.04  2.12351547608
0.54  -0.02  2.13456811715
0.54  6.17561557e-16  2.13837501442
0.54  0.02  2.13456811715
0.54  0.04  2.12351547608
0.54  0.06  2.10629621018
0.54  0.08  2.0846235342
0.54  0.1  2.06071128174
0.54  0.12  2.03708001697
0.54  0.14  2.01630531352
0.54  0.16  2.00072456311
0.54  0.18  1.99213778186
0.54  0.2  2.71436694001
0.54  0.22  2.24649575884
0.54  0.24  1.8592708009
0.54  0.26  1.53879120291
0.54  0.28  1.27355217164
0.54  0.3  1.05403197706
0.54  0.32  0.872350134852
0.54  0.34  0.72198450743
0.54  0.36  0.597537167869
0.54  0.38  0.494540621454
0.54  0.4  0.409297428544
0.54  0.42  0.338747471381
0.54  0.44  0.280358099916
0.54  0.46  0.232033213024
0.54  0.48  0.192038011252
0.54  0.5  0.158936719813
0.54  0.52  0.131541046172
0.54  0.54  0.10886752192
0.54  0.56  0.0901021975559
0.54  0.58  0.074571422783
0.54  0.6  0.0617176633503
0.54  0.62  0.0510794863135
0.54  0.64  0.0422749952026
0.54  0.66  0.0349881204445
0.54  0.68  0.0289572728837
0.54  0.7  0.023965953078
0.54  0.72  0.0198349792553
0.54  0.74  0.016416054925
0.54  0.76  0.0135864452305
0.54  0.78  0.0112445709303
0.54  0.8  0.00930636183806
0.54  0.82  0.0077022388135
0.54  0.84  0.00637461596406
0.54  0.86  0.00527583338731
0.54  0.88  0.00436644624359
0.54  0.9  0.00361380873855
0.54  0.92  0.00299090218229
0.54  0.94  0.00247536505421
0.54  0.96  0.00204869025404
0.54  0.98  0.00169556072137
0.56  -1  0.00111794170478
0.56  -0.98  0.00135077219371
0.56  -0.96  0.00163209361587
0.56  -0.94  0.00197200503784
0.56  -0.92  0.0023827088296
0.56  -0.9  0.00287894871347
0.56  -0.88  0.00347853904423
0.56  -0.86  0.00420300432086
0.56  -0.84  0.00507835188754
0.56  -0.82  0.0061360055629
0.56  -0.8  0.00741393371347
0.56  -0.78  0.00895801226781
0.56  -0.76  0.0108236716015
0.56  -0.74  0.0130778864145
0.56  -0.72  0.0158015800337
0.56  -0.7  0.0190925294538
0.56  -0.68  0.0230688754014
0.56  -0.66  0.0278733634312
0.56  -0.64  0.0336784683019
0.56  -0.62  0.0406925855921
0.56  -0.6  0.0491675128253
0.56  -0.58  0.0594074886677
0.56  -0.56  0.0717801146938
0.56  -0.54  0.0867295517956
0.56  -0.52  0.104792464971
0.56  -0.5  0.126617288887
0.56  -0.48  0.152987505823
0.56  -0.46  0.184849771653
0.56  -0.44  0.223347899531
0.56  -0.42  0.269863921275
0.56  -0.4  0.326067700475
0.56  -0.38  0.393976878385
0.56  -0.36  0.476029304577
0.56  -0.34  0.575170552509
0.56  -0.32  0.69495966171
0.56  -0.3  0.839696902593
0.56  -0.28  1.01457815046
0.56  -0.26  1.22588141056
0.56  -0.24  1.48119219015
0.56  -0.22  1.78967580817
0.56  -0.2  1.58657653262
0.56  -0.18  1.587040964
0.56  -0.16  1.59388164225
0.56  -0.14  1.60629408147
0.56  -0.12  1.62284429486
0.56  -0.1  1.64167019414
0.56  -0.08  1.66071994288
0.56  -0.06  1.67798552807
0.56  -0.04  1.69170329428
0.56  -0.02  1.70050840519
0.56  6.17561557e-16  1.70354117832
0.56  0.02  1.70050840519
0.56  0.04  1.69170329428
0.56  0.06  1.67798552807
0.56  0.08  1.66071994288
0.56  0.1  1.64167019414
0.56  0.12  1.62284429486
0.56  0.14  1.60629408147
0.56  0.16  1.59388164225
0.56  0.18  1.587040964
0.56  0.2  2.16240641805
0.56  0.22  1.78967580817
0.56  0.24  1.48119219015
0.56  0.26  1.22588141056
0.56  0.28  1.01457815046
0.56  0.3  0.839696902592
0.56  0.32  0.69495966171
0.56  0.34  0.575170552508
0.56  0.36  0.476029304577
0.56  0.38  0.393976878385
0.56  0.4  0.326067700474
0.56  0.42  0.269863921275
0.56  0.44  0.223347899531
0.56  0.46  0.184849771653
0.56  0.48  0.152987505823
0.56  0.5  0.126617288887
0.56  0.52  0.104792464971
0.56  0.54  0.0867295517956
0.56  0.56  0.0717801146938
0.56  0.58  0.0594074886677
0.56  0.6  0.0491675128252
0.56  0.62  0.0406925855921
0.56  0.64  0.0336784683019
0.56  0.66  0.0278733634312
0.56  0.68  0.0230688754014
0.56  0.7  0.0190925294538
0.56  0.72  0.0158015800337
0.56  0.74  0.0130778864145
0.56  0.76  0.0108236716015
0.56  0.78  0.00895801226781
0.56  0.8  0.00741393371347
0.56  0.82  0.00613600556289
0.56  0.84  0.00507835188753
0.56  0.86  0.00420300432085
0.56  0.88  0.00347853904423
0.56  0.9  0.00287894871347
0.56  0.92  0.0023827088296
0.56  0.94  0.00197200503784
0.56  0.96  0.00163209361587
0.56  0.98  0.00135077219371
0.58  -1  0.000890610728339
0.58  -0.98  0.0010760956516
0.58  -0.96  0.00130021098392
0.58  -0.94  0.00157100216901
0.58  -0.92  0.00189819025184
0.58  -0.9  0.00229352085139
0.58  -0.88  0.00277118581272
0.58  -0.86  0.00334833267548
0.58  -0.84  0.00404568024788
0.58  -0.82  0.00488826238442
0.58  -0.8  0.00590632666817
0.58  -0.78  0.00713642025892
0.58  -0.76  0.00862270188787
0.58  -0.74  0.0104185270975
0.58  -0.72  0.0125883636352
0.58  -0.7  0.0152101057595
0.58  -0.68  0.0183778705413
0.58  -0.66  0.022205376542
0.58  -0.64  0.0268300261591
0.58  -0.62  0.0324178381906
0.58  -0.6  0.0391694076897
0.58  -0.58  0.0473271070619
0.58  -0.56  0.0571837869132
0.58  -0.54  0.0690932889996
0.58  -0.52  0.0834831486768
0.58  -0.5  0.100869942854
0.58  -0.48  0.121877834421
0.58  -0.46  0.147260978869
0.58  -0.44  0.177930597475
0.58  -0.42  0.214987688939
0.58  -0.4  0.259762553776
0.58  -0.38  0.313862550351
0.58  -0.36  0.379229796909
0.58  -0.34  0.458210891049
0.58  -0.32  0.553641149475
0.58  -0.3  0.668946392109
0.58  -0.28  0.808265924489
0.58  -0.26  0.976601133358
0.58  -0.24  1.17999502983
0.58  -0.22  1.42574918548
0.58  -0.2  1.26394969902
0.58  -0.18  1.26431968931
0.58  -0.16  1.26976933074
0.58  -0.14  1.27965772787
0.58  -0.12  1.29284249192
0.58  -0.1  1.30784018616
0.58  -0.08  1.32301621056
0.58  -0.06  1.33677087714
0.58  -0.04  1.34769916589
0.58  -0.02  1.35471377695
0.58  6.17561557e-16  1.35712984236
0.58  0.02  1.35471377695
0.58  0.04  1.34769916589
0.58  0.06  1.33677087714
0.58  0.08  1.32301621056
0.58  0.1  1.30784018616
0.58  0.12  1.29284249192
0.58  0.14  1.27965772787
0.58  0.16  1.26976933074
0.58  0.18  1.26431968931
0.58  0.2  1.72268584909
0.58  0.22  1.42574918548
0.58  0.24  1.17999502983
0.58  0.26  0.976601133358
0.58  0.28  0.808265924488
0.58  0.3  0.668946392108
0.58  0.32  0.553641149475
0.58  0.34  0.458210891048
0.58  0.36  0.379229796908
0.58  0.38  0.313862550351
0.58  0.4  0.259762553776
0.58  0.42  0.214987688939
0.58  0.44  0.177930597475
0.58  0.46  0.147260978869
0.58  0.48  0.121877834421
0.58  0.5  0.100869942854
0.58  0.52  0.0834831486767
0.58  0.54  0.0690932889995
0.58  0.56  0.0571837869132
0.58  0.58  0.0473271070618
0.58  0.6  0.0391694076897
0.58  0.62  0.0324178381906
0.58  0.64  0.0268300261591
0.58  0.66  0.022205376542
0.58  0.68  0.0183778705413
0.58  0.7  0.0152101057595
0.58  0.72  0.0125883636352
0.58  0.74  0.0104185270975
0.58  0.76  0.00862270188786
0.58  0.78  0.00713642025892
0.58  0.8  0.00590632666817
0.58  0.82  0.00488826238442
0.58  0.84  0.00404568024788
0.58  0.86  0.00334833267548
0.58  0.88  0.00277118581272
0.58  0.9  0.00229352085139
0.58  0.92  0.00189819025184
0.58  0.94  0.00157100216901
0.58  0.96  0.00130021098392
0.58  0.98  0.0010760956516
0.6  -1  0.000709507003844
0.6  -0.98  0.000857273977643
0.6  -0.96  0.00103581595215
0.6  -0.94  0.00125154234785
0.6  -0.92  0.00151219745671
0.6  -0.9  0.00182713845201
0.6  -0.88  0.00220767129848
0.6  -0.86  0.00266745662147
0.6  -0.84  0.00322300010526
0.6  -0.82  0.00389424502537
0.6  -0.8  0.00470528818564
0.6  -0.78  0.00568524496165
0.6  -0.76  0.00686929450413
0.6  -0.74  0.0082999426239
0.6  -0.72  0.0100285476942
0.6  -0.7  0.0121171643482
0.6  -0.68  0.0146407711584
0.6  -0.66  0.0176899622677
0.6  -0.64  0.0213741995998
0.6  -0.62  0.0258257423966
0.6  -0.6  0.0312043951504
0.6  -0.58  0.0377032443733
0.6  -0.56  0.0455555901476
0.6  -0.54  0.0550433212895
0.6  -0.52  0.0665070347845
0.6  -0.5  0.0803582627685
0.6  -0.48  0.097094245986
0.6  -0.46  0.117315784075
0.6  -0.44  0.141748803478
0.6  -0.42  0.171270417241
0.6  -0.4  0.20694041221
0.6  -0.38  0.250039293973
0.6  -0.36  0.302114255321
0.6  -0.34  0.365034718415
0.6  -0.32  0.441059444569
0.6  -0.3  0.532917620791
0.6  -0.28  0.64390683398
0.6  -0.26  0.778011449932
0.6  -0.24  0.940045646796
0.6  -0.22  1.1358262377
0.6  -0.2  1.00692831944
0.6  -0.18  1.00722307302
0.6  -0.16  1.01156454191
0.6  -0.14  1.01944215531
0.6  -0.12  1.02994582672
0.6  -0.1  1.04189377296
0.6  -0.08  1.05398378632
0.6  -0.06  1.06494147183
0.6  -0.04  1.0736475172
0.6  -0.02  1.0792357226
0.6  6.17561557e-16  1.08116048644
0.6  0.02  1.0792357226
0.6  0.04  1.0736475172
0.6  0.06  1.06494147183
0.6  0.08  1.05398378632
0.6  0.1  1.04189377296
0.6  0.12  1.02994582672
0.6  0.14  1.01944215531
0.6  0.16  1.01156454191
0.6  0.18  1.00722307302
0.6  0.2  1.37238148662
0.6  0.22  1.1358262377
0.6  0.24  0.940045646796
0.6  0.26  0.778011449931
0.6  0.28  0.643906833979
0.6  0.3  0.532917620791
0.6  0.32  0.441059444569
0.6  0.34  0.365034718415
0.6  0.36  0.302114255321
0.6  0.38  0.250039293973
0.6  0.4  0.20694041221
0.6  0.42  0.171270417241
0.6  0.44  0.141748803478
0.6  0.46  0.117315784075
0.6  0.48  0.097094245986
0.6  0.5  0.0803582627685
0.6  0.52  0.0665070347845
0.6  0.54  0.0550433212895
0.6  0.56  0.0455555901476
0.6  0.58  0.0377032443733
0.6  0.6  0.0312043951504
0.6  0.62  0.0258257423966
0.6  0.64  0.0213741995998
0.6  0.66  0.0176899622677
0.6  0.68  0.0146407711583
0.6  0.7  0.0121171643482
0.6  0.72  0.0100285476942
0.6  0.74  0.0082999426239
0.6  0.76  0.00686929450413
0.6  0.78  0.00568524496165
0.6  0.8  0.00470528818564
0.6  0.82  0.00389424502537
0.6  0.84  0.00322300010526
0.6  0.86  0.00266745662146
0.6  0.88  0.00220767129848
0.6  0.9  0.00182713845201
0.6  0.92  0.00151219745671
0.6  0.94  0.00125154234785
0.6  0.96  0.00103581595215
0.6  0.98  0.000857273977643
0.62  -1  0.000565230321717
0.62  -0.98  0.00068294920777
0.62  -0.96  0.000825185066111
0.62  -0.94  0.000997043975725
0.62  -0.92  0.00120469544391
0.62  -0.9  0.00145559388344
0.62  -0.88  0.00175874621607
0.62  -0.86  0.00212503520916
0.62  -0.84  0.00256761015257
0.62  -0.82  0.00310235890077
0.62  -0.8  0.00374847822577
0.62  -0.78  0.00452916295583
0.62  -0.76  0.00547243863909
0.62  -0.74  0.00661216762361
0.62  -0.72  0.00798926467085
0.62  -0.7  0.00965316574145
0.62  -0.68  0.0116636026807
0.62  -0.66  0.0140927475128
0.62  -0.64  0.0170278033209
0.62  -0.62  0.0205741347222
0.62  -0.6  0.0248590503184
0.62  -0.58  0.030036372906
0.62  -0.56  0.0362919615108
0.62  -0.54  0.0438503834807
0.62  -0.52  0.0529829761567
0.62  -0.5  0.0640175875237
0.62  -0.48  0.0773503455191
0.62  -0.46  0.0934598785015
0.62  -0.44  0.112924497375
0.62  -0.42  0.136442956184
0.62  -0.4  0.164859536461
0.62  -0.38  0.199194355811
0.62  -0.36  0.240679988788
0.62  -0.34  0.290805714686
0.62  -0.32  0.351370980695
0.62  -0.3  0.424549999671
0.62  -0.28  0.512969801502
0.62  -0.26  0.61980454
0.62  -0.24  0.748889440821
0.62  -0.22  0.904858480987
0.62  -0.2  0.802171669706
0.62  -0.18  0.802406485797
0.62  -0.16  0.805865126576
0.62  -0.14  0.812140844697
0.62  -0.12  0.820508617719
0.62  -0.1  0.830026975484
0.62  -0.08  0.839658511333
0.62  -0.06  0.848387975696
0.62  -0.04  0.855323665971
0.62  -0.02  0.859775522139
0.62  6.17561557e-16  0.861308889505
0.62  0.02  0.859775522139
0.62  0.04  0.855323665971
0.62  0.06  0.848387975696
0.62  0.08  0.839658511333
0.62  0.1  0.830026975484
0.62  0.12  0.820508617719
0.62  0.14  0.812140844697
0.62  0.16  0.805865126576
0.62  0.18  0.802406485797
0.62  0.2  1.09331074252
0.62  0.22  0.904858480986
0.62  0.24  0.748889440821
0.62  0.26  0.61980454
0.62  0.28  0.512969801502
0.62  0.3  0.424549999671
0.62  0.32  0.351370980694
0.62  0.34  0.290805714686
0.62  0.36  0.240679988788
0.62  0.38  0.199194355811
0.62  0.4  0.164859536461
0.62  0.42  0.136442956184
0.62  0.44  0.112924497375
0.62  0.46  0.0934598785015
0.62  0.48  0.0773503455191
0.62  0.5  0.0640175875237
0.62  0.52  0.0529829761567
0.62  0.54  0.0438503834807
0.62  0.56  0.0362919615108
0.62  0.58  0.030036372906
0.62  0.6  0.0248590503184
0.62  0.62  0.0205741347222
0.62  0.64  0.0170278033209
0.62  0.66  0.0140927475128
0.62  0.68  0.0116636026807
0.62  0.7  0.00965316574145
0.62  0.72  0.00798926467085
0.62  0.74  0.0066121676236
0.62  0.76  0.00547243863909
0.62  0.78  0.00452916295583
0.62  0.8  0.00374847822577
0.62  0.82  0.00310235890077
0.62  0.84  0.00256761015257
0.62  0.86  0.00212503520916
0.62  0.88  0.00175874621607
0.62  0.9  0.00145559388344
0.62  0.92  0.00120469544391
0.62  0.94  0.000997043975724
0.62  0.96  0.000825185066111
0.62  0.98  0.00068294920777
0.64  -1  0.000450291984233
0.64  -0.98  0.000544072994816
0.64  -0.96  0.000657385505523
0.64  -0.94  0.000794297285455
0.64  -0.92  0.000959723286232
0.64  -0.9  0.00115960208224
0.64  -0.88  0.00140110905762
0.64  -0.86  0.001692913993
0.64  -0.84  0.00204549229919
0.64  -0.82  0.00247150107055
0.64  -0.8  0.00298623345791
0.64  -0.78  0.00360816767243
0.64  -0.76  0.00435963032893
0.64  -0.74  0.0052675979418
0.64  -0.72  0.00636466534611
0.64  -0.7  0.0076902158091
0.64  -0.68  0.00929183483727
0.64  -0.66  0.0112270184331
0.64  -0.64  0.0135652371253
0.64  -0.62  0.016390429869
0.64  -0.6  0.0198040173429
0.64  -0.58  0.0239285428176
0.64  -0.56  0.0289120712965
0.64  -0.54  0.0349335048533
0.64  -0.52  0.04220900498
0.64  -0.5  0.0509997524979
0.64  -0.48  0.0616213236033
0.64  -0.46  0.0744550186353
0.64  -0.44  0.0899615502527
0.64  -0.42  0.108697582409
0.64  -0.4  0.131335713851
0.64  -0.38  0.158688623522
0.64  -0.36  0.191738244664
0.64  -0.34  0.231671014914
0.64  -0.32  0.279920467852
0.64  -0.3  0.338218694951
0.64  -0.28  0.408658525375
0.64  -0.26  0.493768655768
0.64  -0.24  0.59660442712
0.64  -0.22  0.72085750746
0.64  -0.2  0.639051832447
0.64  -0.18  0.639238899204
0.64  -0.16  0.64199423302
0.64  -0.14  0.646993797722
0.64  -0.12  0.653660002583
0.64  -0.1  0.661242823319
0.64  -0.08  0.668915807626
0.64  -0.06  0.675870154693
0.64  -0.04  0.681395487669
0.64  -0.02  0.684942068719
0.64  6.17561557e-16  0.686163629217
0.64  0.02  0.684942068719
0.64  0.04  0.681395487669
0.64  0.06  0.675870154693
0.64  0.08  0.668915807626
0.64  0.1  0.661242823319
0.64  0.12  0.653660002583
0.64  0.14  0.646993797722
0.64  0.16  0.64199423302
0.64  0.18  0.639238899204
0.64  0.2  0.870988417853
0.64  0.22  0.72085750746
0.64  0.24  0.596604427119
0.64  0.26  0.493768655768
0.64  0.28  0.408658525375
0.64  0.3  0.338218694951
0.64  0.32  0.279920467851
0.64  0.34  0.231671014914
0.64  0.36  0.191738244664
0.64  0.38  0.158688623522
0.64  0.4  0.131335713851
0.64  0.42  0.108697582409
0.64  0.44  0.0899615502527
0.64  0.46  0.0744550186352
0.64  0.48  0.0616213236033
0.64  0.5  0.0509997524979
0.64  0.52  0.04220900498
0.64  0.54  0.0349335048533
0.64  0.56  0.0289120712965
0.64  0.58  0.0239285428176
0.64  0.6  0.0198040173429
0.64  0.62  0.016390429869
0.64  0.64  0.0135652371253
0.64  0.66  0.0112270184331
0.64  0.68  0.00929183483726
0.64  0.7  0.0076902158091
0.64  0.72  0.00636466534611
0.64  0.74  0.00526759794179
0.64  0.76  0.00435963032893
0.64  0.78  0.00360816767243
0.64  0.8  0.00298623345791
0.64  0.82  0.00247150107055
0.64  0.84  0.00204549229919
0.64  0.86  0.001692913993
0.64  0.88  0.00140110905762
0.64  0.9  0.00115960208224
0.64  0.92  0.000959723286231
0.64  0.94  0.000794297285455
0.64  0.96  0.000657385505523
0.64  0.98  0.000544072994816
0.66  -1  0.00035872610381
0.66  -0.98  0.000433436953027
0.66  -0.96  0.000523707614958
0.66  -0.94  0.000632778686841
0.66  -0.92  0.00076456567574
0.66  -0.9  0.00092379956006
0.66  -0.88  0.00111619662541
0.66  -0.86  0.0013486636717
0.66  -0.84  0.00162954595808
0.66  -0.82  0.00196892678672
0.66  -0.8  0.00237898948001
0.66  -0.78  0.00287445474569
0.66  -0.76  0.00347310913076
0.66  -0.74  0.004196443535
0.66  -0.72  0.00507042470576
0.66  -0.7  0.00612642740988
0.66  -0.68  0.0074023607462
0.66  -0.66  0.00894402903208
0.66  -0.64  0.0108067761177
0.66  -0.62  0.0130574721571
0.66  -0.6  0.0157769141579
0.66  -0.58  0.0190627264872
0.66  -0.56  0.0230328654571
0.66  -0.54  0.0278298537998
0.66  -0.52  0.0336258970453
0.66  -0.5  0.0406290654718
0.66  -0.48  0.049090763553
0.66  -0.46  0.0593147550463
0.66  -0.44  0.071668067709
0.66  -0.42  0.086594169109
0.66  -0.4  0.104628886523
0.66  -0.38  0.126419642428
0.66  -0.36  0.152748696108
0.66  -0.34  0.184561225728
0.66  -0.32  0.222999258981
0.66  -0.3  0.269442670364
0.66  -0.28  0.325558716854
0.66  -0.26  0.393361890216
0.66  -0.24  0.475286234599
0.66  -0.22  0.574272725493
0.66  -0.2  0.509102053808
0.66  -0.18  0.509251080953
0.66  -0.16  0.511446123723
0.66  -0.14  0.515429037986
0.66  -0.12  0.520739684812
0.66  -0.1  0.5267805557
0.66  -0.08  0.532893255596
0.66  -0.06  0.538433451546
0.66  -0.04  0.542835220266
0.66  -0.02  0.545660611892
0.66  6.17561557e-16  0.546633770762
0.66  0.02  0.545660611892
0.66  0.04  0.542835220266
0.66  0.06  0.538433451546
0.66  0.08  0.532893255596
0.66  0.1  0.5267805557
0.66  0.12  0.520739684812
0.66  0.14  0.515429037986
0.66  0.16  0.511446123723
0.66  0.18  0.509251080953
0.66  0.2  0.693874846855
0.66  0.22  0.574272725493
0.66  0.24  0.475286234599
0.66  0.26  0.393361890216
0.66  0.28  0.325558716854
0.66  0.3  0.269442670364
0.66  0.32  0.222999258981
0.66  0.34  0.184561225728
0.66  0.36  0.152748696108
0.66  0.38  0.126419642428
0.66  0.4  0.104628886523
0.66  0.42  0.086594169109
0.66  0.44  0.071668067709
0.66  0.46  0.0593147550463
0.66  0.48  0.049090763553
0.66  0.5  0.0406290654718
0.66  0.52  0.0336258970453
0.66  0.54  0.0278298537998
0.66  0.56  0.0230328654571
0.66  0.58  0.0190627264872
0.66  0.6  0.0157769141578
0.66  0.62  0.013057472157
0.66  0.64  0.0108067761177
0.66  0.66  0.00894402903208
0.66  0.68  0.0074023607462
0.66  0.7  0.00612642740988
0.66  0.72  0.00507042470576
0.66  0.74  0.004196443535
0.66  0.76  0.00347310913076
0.66  0.78  0.00287445474569
0.66  0.8  0.00237898948001
0.66  0.82  0.00196892678672
0.66  0.84  0.00162954595807
0.66  0.86  0.0013486636717
0.66  0.88  0.00111619662541
0.66  0.9  0.00092379956006
0.66  0.92  0.00076456567574
0.66  0.94  0.000632778686841
0.66  0.96  0.000523707614958
0.66  0.98  0.000433436953027
0.68  -1  0.000285779942927
0.68  -0.98  0.000345298505971
0.68  -0.96  0.000417212828181
0.68  -0.94  0.000504104538505
0.68  -0.92  0.000609092934292
0.68  -0.9  0.00073594695994
0.68  -0.88  0.000889220507005
0.68  -0.86  0.00107441589288
0.68  -0.84  0.00129818138672
0.68  -0.82  0.00156854987345
0.68  -0.8  0.00189522722378
0.68  -0.78  0.00228994072203
0.68  -0.76  0.00276686006016
0.68  -0.74  0.00334310601094
0.68  -0.72  0.00403936504101
0.68  -0.7  0.00488063192766
0.68  -0.68  0.00589710703823
0.68  -0.66  0.00712528048329
0.68  -0.64  0.00860924206335
0.68  -0.62  0.0104022640343
0.68  -0.6  0.0125687135107
0.68  -0.58  0.0151863631603
0.68  -0.56  0.0183491831396
0.68  -0.54  0.0221707144981
0.68  -0.52  0.0267881451515
0.68  -0.5  0.0323672347465
0.68  -0.48  0.0391082652125
0.68  -0.46  0.0472532306175
0.68  -0.44  0.0570945244353
0.68  -0.42  0.0689854360833
0.68  -0.4  0.0833528335452
0.68  -0.38  0.100712487367
0.68  -0.36  0.121687586134
0.68  -0.34  0.147031108121
0.68  -0.32  0.177652852211
0.68  -0.3  0.21465209847
0.68  -0.28  0.259357070851
0.68  -0.26  0.313372618668
0.68  -0.24  0.378637828569
0.68  -0.22  0.457495635174
0.68  -0.2  0.405577275631
0.68  -0.18  0.405695998436
0.68  -0.16  0.407444684107
0.68  -0.14  0.410617681552
0.68  -0.12  0.414848420075
0.68  -0.1  0.419660893211
0.68  -0.08  0.424530589084
0.68  -0.06  0.428944198425
0.68  -0.04  0.432450877197
0.68  -0.02  0.434701731677
0.68  6.17561557e-16  0.43547700084
0.68  0.02  0.434701731677
0.68  0.04  0.432450877197
0.68  0.06  0.428944198425
0.68  0.08  0.424530589084
0.68  0.1  0.419660893211
0.68  0.12  0.414848420075
0.68  0.14  0.410617681552
0.68  0.16  0.407444684107
0.68  0.18  0.405695998436
0.68  0.2  0.552776929325
0.68  0.22  0.457495635173
0.68  0.24  0.378637828569
0.68  0.26  0.313372618668
0.68  0.28  0.259357070851
0.68  0.3  0.21465209847
0.68  0.32  0.177652852211
0.68  0.34  0.147031108121
0.68  0.36  0.121687586134
0.68  0.38  0.100712487366
0.68  0.4  0.0833528335451
0.68  0.42  0.0689854360832
0.68  0.44  0.0570945244353
0.68  0.46  0.0472532306175
0.68  0.48  0.0391082652124
0.68  0.5  0.0323672347465
0.68  0.52  0.0267881451515
0.68  0.54  0.0221707144981
0.68  0.56  0.0183491831396
0.68  0.58  0.0151863631603
0.68  0.6  0.0125687135107
0.68  0.62  0.0104022640343
0.68  0.64  0.00860924206335
0.68  0.66  0.00712528048329
0.68  0.68  0.00589710703823
0.68  0.7  0.00488063192766
0.68  0.72  0.00403936504101
0.68  0.74  0.00334310601094
0.68  0.76  0.00276686006016
0.68  0.78  0.00228994072203
0.68  0.8  0.00189522722378
0.68  0.82  0.00156854987345
0.68  0.84  0.00129818138672
0.68  0.86  0.00107441589288
0.68  0.88  0.000889220507005
0.68  0.9  0.00073594695994
0.68  0.92  0.000609092934292
0.68  0.94  0.000504104538505
0.68  0.96  0.000417212828181
0.68  0.98  0.000345298505971
0.7  -1  0.000227667222742
0.7  -0.98  0.000275082817451
0.7  -0.96  0.000332373521079
0.7  -0.94  0.000401595994028
0.7  -0.92  0.000485235231422
0.7  -0.9  0.000586293771139
0.7  -0.88  0.000708399480948
0.7  -0.86  0.000855935794154
0.7  -0.84  0.00103419906905
0.7  -0.82  0.00124958872118
0.7  -0.8  0.00150983695386
0.7  -0.78  0.00182428633405
0.7  -0.76  0.00220422517815
0.7  -0.74  0.00266329278761
0.7  -0.72  0.00321796908176
0.7  -0.7  0.00388816620514
0.7  -0.68  0.00469794334708
0.7  -0.66  0.00567637043479
0.7  -0.64  0.0068585717052
0.7  -0.62  0.00828698661862
0.7  -0.6  0.0100128933791
0.7  -0.58  0.0120982497541
0.7  -0.56  0.0146179172765
0.7  -0.54  0.0176623486739
0.7  -0.52  0.0213408350025
0.7  -0.5  0.0257854290511
0.7  -0.48  0.0311556858608
0.7  -0.46  0.0376443905408
0.7  -0.44  0.0454844789974
0.7  -0.42  0.0549574000255
0.7  -0.4  0.0664032189471
0.7  -0.38  0.0802328255066
0.7  -0.36  0.096942684268
0.7  -0.34  0.117132657036
0.7  -0.32  0.1415275371
0.7  -0.3  0.171003068353
0.7  -0.28  0.206617383341
0.7  -0.26  0.249648988815
0.7  -0.24  0.301642662436
0.7  -0.22  0.364464908242
0.7  -0.2  0.32310403244
0.7  -0.18  0.323198613224
0.7  -0.16  0.324591707526
0.7  -0.14  0.327119482949
0.7  -0.12  0.330489910138
0.7  -0.1  0.334323777491
0.7  -0.08  0.338203231464
0.7  -0.06  0.341719343094
0.7  -0.04  0.344512946484
0.7  -0.02  0.346306094677
0.7  6.17561557e-16  0.346923714568
0.7  0.02  0.346306094677
0.7  0.04  0.344512946484
0.7  0.06  0.341719343094
0.7  0.08  0.338203231464
0.7  0.1  0.334323777491
0.7  0.12  0.330489910138
0.7  0.14  0.327119482949
0.7  0.16  0.324591707526
0.7  0.18  0.323198613224
0.7  0.2  0.440370961678
0.7  0.22  0.364464908242
0.7  0.24  0.301642662436
0.7  0.26  0.249648988815
0.7  0.28  0.206617383341
0.7  0.3  0.171003068353
0.7  0.32  0.1415275371
0.7  0.34  0.117132657036
0.7  0.36  0.0969426842679
0.7  0.38  0.0802328255065
0.7  0.4  0.0664032189471
0.7  0.42  0.0549574000255
0.7  0.44  0.0454844789974
0.7  0.46  0.0376443905408
0.7  0.48  0.0311556858608
0.7  0.5  0.025785429051
0.7  0.52  0.0213408350025
0.7  0.54  0.0176623486739
0.7  0.56  0.0146179172765
0.7  0.58  0.0120982497541
0.7  0.6  0.0100128933791
0.7  0.62  0.00828698661861
0.7  0.64  0.0068585717052
0.7  0.66  0.00567637043479
0.7  0.68  0.00469794334708
0.7  0.7  0.00388816620514
0.7  0.72  0.00321796908176
0.7  0.74  0.00266329278761
0.7  0.76  0.00220422517815
0.7  0.78  0.00182428633405
0.7  0.8  0.00150983695386
0.7  0.82  0.00124958872118
0.7  0.84  0.00103419906905
0.7  0.86  0.000855935794153
0.7  0.88  0.000708399480948
0.7  0.9  0.000586293771139
0.7  0.92  0.000485235231422
0.7  0.94  0.000401595994027
0.7  0.96  0.000332373521078
0.7  0.98  0.000275082817451
0.72  -1  0.000181371595851
0.72  -0.98  0.000219145334104
0.72  -0.96  0.000264786099688
0.72  -0.94  0.000319932335657
0.72  -0.92  0.000386563718863
0.72  -0.9  0.000467072227739
0.72  -0.88  0.000564348011156
0.72  -0.86  0.000681883140938
0.72  -0.84  0.00082389697262
0.72  -0.82  0.000995487614723
0.72  -0.8  0.0012028149441
0.72  -0.78  0.00145332173736
0.72  -0.76  0.0017560008567
0.72  -0.74  0.00212171808173
0.72  -0.72  0.00256360217659
0.72  -0.7  0.00309751619521
0.72  -0.68  0.00374262694391
0.72  -0.66  0.00452209304441
0.72  -0.64  0.00546389629764
0.72  -0.62  0.00660184619338
0.72  -0.6  0.00797679362618
0.72  -0.58  0.00963809738833
0.72  -0.56  0.0116453960852
0.72  -0.54  0.0140707490823
0.72  -0.52  0.0170012233408
0.72  -0.5  0.0205420190064
0.72  -0.48  0.0248202459553
0.72  -0.46  0.0299894868704
0.72  -0.44  0.0362353106559
0.72  -0.42  0.043781934116
0.72  -0.4  0.0529002710406
0.72  -0.38  0.0639176576519
0.72  -0.36  0.0772296035417
0.72  -0.34  0.0933139899413
0.72  -0.32  0.112748225026
0.72  -0.3  0.136229972102
0.72  -0.28  0.164602194799
0.72  -0.26  0.198883418345
0.72  -0.24  0.240304293275
0.72  -0.22  0.290351774153
0.72  -0.2  0.257401541091
0.72  -0.18  0.257476889082
0.72  -0.16  0.258586700734
0.72  -0.14  0.260600458608
0.72  -0.12  0.263285516872
0.72  -0.1  0.266339775767
0.72  -0.08  0.269430351344
0.72  -0.06  0.27223146944
0.72  -0.04  0.27445699975
0.72  -0.02  0.275885515219
0.72  6.17561557e-16  0.276377543469
0.72  0.02  0.275885515219
0.72  0.04  0.27445699975
0.72  0.06  0.27223146944
0.72  0.08  0.269430351344
0.72  0.1  0.266339775767
0.72  0.12  0.263285516872
0.72  0.14  0.260600458608
0.72  0.16  0.258586700734
0.72  0.18  0.257476889082
0.72  0.2  0.350822499279
0.72  0.22  0.290351774153
0.72  0.24  0.240304293275
0.72  0.26  0.198883418345
0.72  0.28  0.164602194799
0.72  0.3  0.136229972102
0.72  0.32  0.112748225026
0.72  0.34  0.0933139899412
0.72  0.36  0.0772296035416
0.72  0.38  0.0639176576519
0.72  0.4  0.0529002710405
0.72  0.42  0.043781934116
0.72  0.44  0.0362353106559
0.72  0.46  0.0299894868704
0.72  0.48  0.0248202459553
0.72  0.5  0.0205420190064
0.72  0.52  0.0170012233408
0.72  0.54  0.0140707490823
0.72  0.56  0.0116453960852
0.72  0.58  0.00963809738833
0.72  0.6  0.00797679362617
0.72  0.62  0.00660184619338
0.72  0.64  0.00546389629764
0.72  0.66  0.00452209304441
0.72  0.68  0.00374262694391
0.72  0.7  0.00309751619521
0.72  0.72  0.00256360217659
0.72  0.74  0.00212171808173
0.72  0.76  0.0017560008567
0.72  0.78  0.00145332173736
0.72  0.8  0.0012028149441
0.72  0.82  0.000995487614723
0.72  0.84  0.000823896972619
0.72  0.86  0.000681883140938
0.72  0.88  0.000564348011156
0.72  0.9  0.000467072227739
0.72  0.92  0.000386563718862
0.72  0.94  0.000319932335656
0.72  0.96  0.000264786099688
0.72  0.98  0.000219145334104
0.74  -1  0.000144490082434
0.74  -0.98  0.000174582614446
0.74  -0.96  0.000210942431156
0.74  -0.94  0.000254874801843
0.74  -0.92  0.000307956840444
0.74  -0.9  0.000372094121862
0.74  -0.88  0.000449589089576
0.74  -0.86  0.000543223710319
0.74  -0.84  0.000656359342998
0.74  -0.82  0.000793057407026
0.74  -0.8  0.000958225181904
0.74  -0.78  0.00115779197206
0.74  -0.76  0.00139892196101
0.74  -0.74  0.0016902713961
0.74  -0.72  0.00204229933627
0.74  -0.7  0.00246764311847
0.74  -0.68  0.00298157202129
0.74  -0.66  0.00360253541188
0.74  -0.64  0.00435282505375
0.74  -0.62  0.00525937535161
0.74  -0.6  0.00635473026082
0.74  -0.58  0.0076782115723
0.74  -0.56  0.00927733051276
0.74  -0.54  0.0112094933348
0.74  -0.52  0.0135440621254
0.74  -0.5  0.0163648448131
0.74  -0.48  0.0197731037614
0.74  -0.46  0.0238911909538
0.74  -0.44  0.0288669402678
0.74  -0.42  0.0348789745157
0.74  -0.4  0.0421431177665
0.74  -0.38  0.0509201431448
0.74  -0.36  0.0615251342403
0.74  -0.34  0.0743387961915
0.74  -0.32  0.0898211224964
0.74  -0.3  0.10852790817
0.74  -0.28  0.131130702048
0.74  -0.26  0.158440914503
0.74  -0.24  0.191438946003
0.74  -0.22  0.231309382186
0.74  -0.2  0.205059506239
0.74  -0.18  0.205119532382
0.74  -0.16  0.206003666286
0.74  -0.14  0.207607930944
0.74  -0.12  0.209746988541
0.74  -0.1  0.212180170636
0.74  -0.08  0.214642284495
0.74  -0.06  0.216873801413
0.74  -0.04  0.21864677505
0.74  -0.02  0.219784805054
0.74  6.17561557e-16  0.220176780446
0.74  0.02  0.219784805054
0.74  0.04  0.21864677505
0.74  0.06  0.216873801413
0.74  0.08  0.214642284495
0.74  0.1  0.212180170636
0.74  0.12  0.209746988541
0.74  0.14  0.207607930944
0.74  0.16  0.206003666286
0.74  0.18  0.205119532382
0.74  0.2  0.27948351892
0.74  0.22  0.231309382186
0.74  0.24  0.191438946003
0.74  0.26  0.158440914503
0.74  0.28  0.131130702048
0.74  0.3  0.10852790817
0.74  0.32  0.0898211224963
0.74  0.34  0.0743387961915
0.74  0.36  0.0615251342403
0.74  0.38  0.0509201431448
0.74  0.4  0.0421431177665
0.74  0.42  0.0348789745157
0.74  0.44  0.0288669402678
0.74  0.46  0.0238911909537
0.74  0.48  0.0197731037614
0.74  0.5  0.0163648448131
0.74  0.52  0.0135440621254
0.74  0.54  0.0112094933348
0.74  0.56  0.00927733051275
0.74  0.58  0.0076782115723
0.74  0.6  0.00635473026082
0.74  0.62  0.00525937535161
0.74  0.64  0.00435282505375
0.74  0.66  0.00360253541188
0.74  0.68  0.00298157202129
0.74  0.7  0.00246764311847
0.74  0.72  0.00204229933627
0.74  0.74  0.0016902713961
0.74  0.76  0.00139892196101
0.74  0.78  0.00115779197206
0.74  0.8  0.000958225181903
0.74  0.82  0.000793057407026
0.74  0.84  0.000656359342998
0.74  0.86  0.000543223710319
0.74  0.88  0.000449589089576
0.74  0.9  0.000372094121861
0.74  0.92  0.000307956840444
0.74  0.94  0.000254874801843
0.74  0.96  0.000210942431156
0.74  0.98  0.000174582614445
0.76  -1  0.00011510834331
0.76  -0.98  0.000139081625403
0.76  -0.96  0.000168047753694
0.76  -0.94  0.000203046573836
0.76  -0.92  0.000245334497131
0.76  -0.9  0.000296429604034
0.76  -0.88  0.000358166141229
0.76  -0.86  0.000432760368657
0.76  -0.84  0.000522890120316
0.76  -0.82  0.000631790934952
0.76  -0.8  0.000763372207618
0.76  -0.78  0.000922357531781
0.76  -0.76  0.00111445427007
0.76  -0.74  0.00134655844104
0.76  -0.72  0.00162700227711
0.76  -0.7  0.00196585334067
0.76  -0.68  0.00237527593623
0.76  -0.66  0.00286996779288
0.76  -0.64  0.00346768769326
0.76  -0.62  0.00418989299037
0.76  -0.6  0.00506250989813
0.76  -0.58  0.00611686420812
0.76  -0.56  0.00739080584404
0.76  -0.54  0.00893006762384
0.76  -0.52  0.0107899070073
0.76  -0.5  0.0130370897658
0.76  -0.48  0.0157522867848
0.76  -0.46  0.0190329700423
0.76  -0.44  0.0229969117234
0.76  -0.42  0.0277864120859
0.76  -0.4  0.0335734078512
0.76  -0.38  0.0405656445048
0.76  -0.36  0.0490141340845
0.76  -0.34  0.0592221661798
0.76  -0.32  0.0715561956268
0.76  -0.3  0.0864589977514
0.76  -0.28  0.104465563418
0.76  -0.26  0.126222304491
0.76  -0.24  0.152510259169
0.76  -0.22  0.184273130217
0.76  -0.2  0.163361108565
0.76  -0.18  0.163408928524
0.76  -0.16  0.164113275752
0.76  -0.14  0.165391316735
0.76  -0.12  0.167095401695
0.76  -0.1  0.169033801584
0.76  -0.08  0.170995250028
0.76  -0.06  0.17277299291
0.76  -0.04  0.174185436274
0.76  -0.02  0.17509205039
0.76  6.17561557e-16  0.175404318452
0.76  0.02  0.17509205039
0.76  0.04  0.174185436274
0.76  0.06  0.17277299291
0.76  0.08  0.170995250028
0.76  0.1  0.169033801584
0.76  0.12  0.167095401695
0.76  0.14  0.165391316735
0.76  0.16  0.164113275752
0.76  0.18  0.163408928524
0.76  0.2  0.22265116265
0.76  0.22  0.184273130217
0.76  0.24  0.152510259169
0.76  0.26  0.126222304491
0.76  0.28  0.104465563418
0.76  0.3  0.0864589977514
0.76  0.32  0.0715561956267
0.76  0.34  0.0592221661798
0.76  0.36  0.0490141340845
0.76  0.38  0.0405656445048
0.76  0.4  0.0335734078512
0.76  0.42  0.0277864120859
0.76  0.44  0.0229969117234
0.76  0.46  0.0190329700423
0.76  0.48  0.0157522867848
0.76  0.5  0.0130370897658
0.76  0.52  0.0107899070073
0.76  0.54  0.00893006762383
0.76  0.56  0.00739080584404
0.76  0.58  0.00611686420812
0.76  0.6  0.00506250989813
0.76  0.62  0.00418989299036
0.76  0.64  0.00346768769325
0.76  0.66  0.00286996779288
0.76  0.68  0.00237527593623
0.76  0.7  0.00196585334067
0.76  0.72  0.00162700227711
0.76  0.74  0.00134655844104
0.76  0.76  0.00111445427007
0.76  0.78  0.000922357531781
0.76  0.8  0.000763372207618
0.76  0.82  0.000631790934951
0.76  0.84  0.000522890120315
0.76  0.86  0.000432760368657
0.76  0.88  0.000358166141228
0.76  0.9  0.000296429604034
0.76  0.92  0.000245334497131
0.76  0.94  0.000203046573836
0.76  0.96  0.000168047753694
0.76  0.98  0.000139081625403
0.78  -1  0.0000917013159404
0.78  -0.98  0.00011079968407
0.78  -0.96  0.000133875614151
0.78  -0.94  0.00016175750152
0.78  -0.92  0.000195446269016
0.78  -0.9  0.000236151298785
0.78  -0.88  0.0002853338475
0.78  -0.86  0.000344759503538
0.78  -0.84  0.000416561569269
0.78  -0.82  0.000503317643781
0.78  -0.8  0.000608142155277
0.78  -0.78  0.000734798164926
0.78  -0.76  0.000887832455773
0.78  -0.74  0.00107273875623
0.78  -0.72  0.00129615495766
0.78  -0.7  0.00156610140587
0.78  -0.68  0.00189226882093
0.78  -0.66  0.00228636618116
0.78  -0.64  0.00276254106
0.78  -0.62  0.00333788750509
0.78  -0.6  0.00403305969203
0.78  -0.58  0.00487301338186
0.78  -0.56  0.0058879017999
0.78  -0.54  0.00711415809658
0.78  -0.52  0.00859580324929
0.78  -0.5  0.0103860263572
0.78  -0.48  0.0125490940596
0.78  -0.46  0.0151626576228
0.78  -0.44  0.0183205405183
0.78  -0.42  0.0221361065608
0.78  -0.4  0.026746329519
0.78  -0.38  0.0323167102931
0.78  -0.36  0.0390472181771
0.78  -0.34  0.0471794694925
0.78  -0.32  0.0570054012939
0.78  -0.3  0.0688777515227
0.78  -0.28  0.0832227218323
0.78  -0.26  0.100555277663
0.78  -0.24  0.12149763482
0.78  -0.22  0.146801596196
0.78  -0.2  0.130141987958
0.78  -0.18  0.130180083834
0.78  -0.16  0.130741203609
0.78  -0.14  0.131759357781
0.78  -0.12  0.133116920827
0.78  -0.1  0.134661151381
0.78  -0.08  0.136223743616
0.78  -0.06  0.137639986409
0.78  -0.04  0.138765212535
0.78  -0.02  0.139487468673
0.78  6.17561557e-16  0.139736237714
0.78  0.02  0.139487468673
0.78  0.04  0.138765212535
0.78  0.06  0.137639986409
0.78  0.08  0.136223743616
0.78  0.1  0.134661151381
0.78  0.12  0.133116920827
0.78  0.14  0.131759357781
0.78  0.16  0.130741203609
0.78  0.18  0.130180083834
0.78  0.2  0.1773755405
0.78  0.22  0.146801596196
0.78  0.24  0.12149763482
0.78  0.26  0.100555277663
0.78  0.28  0.0832227218322
0.78  0.3  0.0688777515226
0.78  0.32  0.0570054012939
0.78  0.34  0.0471794694925
0.78  0.36  0.0390472181771
0.78  0.38  0.0323167102931
0.78  0.4  0.026746329519
0.78  0.42  0.0221361065607
0.78  0.44  0.0183205405183
0.78  0.46  0.0151626576228
0.78  0.48  0.0125490940596
0.78  0.5  0.0103860263572
0.78  0.52  0.00859580324929
0.78  0.54  0.00711415809658
0.78  0.56  0.0058879017999
0.78  0.58  0.00487301338186
0.78  0.6  0.00403305969203
0.78  0.62  0.00333788750509
0.78  0.64  0.00276254105999
0.78  0.66  0.00228636618116
0.78  0.68  0.00189226882093
0.78  0.7  0.00156610140587
0.78  0.72  0.00129615495766
0.78  0.74  0.00107273875623
0.78  0.76  0.000887832455773
0.78  0.78  0.000734798164926
0.78  0.8  0.000608142155277
0.78  0.82  0.00050331764378
0.78  0.84  0.000416561569269
0.78  0.86  0.000344759503538
0.78  0.88  0.0002853338475
0.78  0.9  0.000236151298785
0.78  0.92  0.000195446269016
0.78  0.94  0.00016175750152
0.78  0.96  0.000133875614151
0.78  0.98  0.00011079968407
0.8  -1  0.0000730540558868
0.8  -0.98  0.0000882688130402
0.8  -0.96  0.000106652303708
0.8  -0.94  0.000128864470864
0.8  -0.92  0.000155702701898
0.8  -0.9  0.00018813045377
0.8  -0.88  0.000227311839834
0.8  -0.86  0.000274653419972
0.8  -0.84  0.000331854694228
0.8  -0.82  0.000400969112607
0.8  -0.8  0.000484477791219
0.8  -0.78  0.000585378581054
0.8  -0.76  0.000707293686868
0.8  -0.74  0.000854599699535
0.8  -0.72  0.00103258470987
0.8  -0.7  0.00124763814407
0.8  -0.68  0.00150748013569
0.8  -0.66  0.00182143866817
0.8  -0.64  0.00220078443713
0.8  -0.62  0.0026591354534
0.8  -0.6  0.00321294591157
0.8  -0.58  0.0038820968738
0.8  -0.56  0.00469060997364
0.8  -0.54  0.00566750976085
0.8  -0.52  0.0068478656443
0.8  -0.5  0.00827405083734
0.8  -0.48  0.00999726350003
0.8  -0.46  0.0120793646853
0.8  -0.44  0.0145950990689
0.8  -0.42  0.0176347781842
0.8  -0.4  0.0213075224866
0.8  -0.38  0.0257451786337
0.8  -0.36  0.0311070526053
0.8  -0.34  0.0375856285776
0.8  -0.32  0.0454134788499
0.8  -0.3  0.0548716128824
0.8  -0.28  0.0662995651637
0.8  -0.26  0.0801075840491
0.8  -0.24  0.096791359134
0.8  -0.22  0.116949815853
0.8  -0.2  0.103677902154
0.8  -0.18  0.103708251318
0.8  -0.16  0.104155268626
0.8  -0.14  0.104966383396
0.8  -0.12  0.106047888996
0.8  -0.1  0.107278103677
0.8  -0.08  0.108522946233
0.8  -0.06  0.109651199182
0.8  -0.04  0.11054761306
0.8  -0.02  0.111123000008
0.8  6.17561557e-16  0.111321182414
0.8  0.02  0.111123000008
0.8  0.04  0.11054761306
0.8  0.06  0.109651199182
0.8  0.08  0.108522946233
0.8  0.1  0.107278103677
0.8  0.12  0.106047888996
0.8  0.14  0.104966383396
0.8  0.16  0.104155268626
0.8  0.18  0.103708251318
0.8  0.2  0.141306616112
0.8  0.22  0.116949815853
0.8  0.24  0.096791359134
0.8  0.26  0.0801075840491
0.8  0.28  0.0662995651636
0.8  0.3  0.0548716128824
0.8  0.32  0.0454134788499
0.8  0.34  0.0375856285776
0.8  0.36  0.0311070526053
0.8  0.38  0.0257451786336
0.8  0.4  0.0213075224866
0.8  0.42  0.0176347781842
0.8  0.44  0.0145950990689
0.8  0.46  0.0120793646853
0.8  0.48  0.00999726350003
0.8  0.5  0.00827405083734
0.8  0.52  0.0068478656443
0.8  0.54  0.00566750976084
0.8  0.56  0.00469060997364
0.8  0.58  0.0038820968738
0.8  0.6  0.00321294591157
0.8  0.62  0.0026591354534
0.8  0.64  0.00220078443713
0.8  0.66  0.00182143866817
0.8  0.68  0.00150748013569
0.8  0.7  0.00124763814407
0.8  0.72  0.00103258470987
0.8  0.74  0.000854599699535
0.8  0.76  0.000707293686868
0.8  0.78  0.000585378581054
0.8  0.8  0.000484477791219
0.8  0.82  0.000400969112607
0.8  0.84  0.000331854694227
0.8  0.86  0.000274653419972
0.8  0.88  0.000227311839834
0.8  0.9  0.00018813045377
0.8  0.92  0.000155702701898
0.8  0.94  0.000128864470864
0.8  0.96  0.000106652303708
0.8  0.98  0.0000882688130401
0.82  -1  0.0000581986749784
0.82  -0.98  0.0000703195448699
0.82  -0.96  0.0000849647933143
0.82  -0.94  0.00010266016534
0.82  -0.92  0.000124040901371
0.82  -0.9  0.000149874541524
0.82  -0.88  0.000181088479273
0.82  -0.86  0.000218803253654
0.82  -0.84  0.000264372775132
0.82  -0.82  0.000319432929189
0.82  -0.8  0.000385960302452
0.82  -0.78  0.000466343139536
0.82  -0.76  0.00056346707786
0.82  -0.74  0.000680818738209
0.82  -0.72  0.00082261088981
0.82  -0.7  0.000993933683162
0.82  -0.68  0.0012009373797
0.82  -0.66  0.00145105313805
0.82  -0.64  0.00175325978277
0.82  -0.62  0.00211840613225
0.82  -0.6  0.00255960045696
0.82  -0.58  0.00309268104899
0.82  -0.56  0.00373678479576
0.82  -0.54  0.00451503416894
0.82  -0.52  0.00545536729057
0.82  -0.5  0.00659154087466
0.82  -0.48  0.00796434204849
0.82  -0.46  0.00962305255654
0.82  -0.44  0.0116272179098
0.82  -0.42  0.0140487849908
0.82  -0.4  0.0169746848514
0.82  -0.38  0.0205099534225
0.82  -0.36  0.0247815021649
0.82  -0.34  0.0299426740226
0.82  -0.32  0.0361787482316
0.82  -0.3  0.043713591599
0.82  -0.28  0.052817695025
0.82  -0.26  0.0638178837682
0.82  -0.24  0.0771090500395
0.82  -0.22  0.0931683291095
0.82  -0.2  0.0825952297469
0.82  -0.18  0.0826194074756
0.82  -0.16  0.0829755248012
0.82  -0.14  0.0836217011741
0.82  -0.12  0.0844832849989
0.82  -0.1  0.0854633382419
0.82  -0.08  0.0864550448133
0.82  -0.06  0.0873538700173
0.82  -0.04  0.0880680001135
0.82  -0.02  0.088526383396
0.82  6.17561557e-16  0.0886842658477
0.82  0.02  0.088526383396
0.82  0.04  0.0880680001135
0.82  0.06  0.0873538700173
0.82  0.08  0.0864550448133
0.82  0.1  0.0854633382419
0.82  0.12  0.0844832849989
0.82  0.14  0.0836217011741
0.82  0.16  0.0829755248012
0.82  0.18  0.0826194074756
0.82  0.2  0.112572227833
0.82  0.22  0.0931683291094
0.82  0.24  0.0771090500394
0.82  0.26  0.0638178837682
0.82  0.28  0.052817695025
0.82  0.3  0.043713591599
0.82  0.32  0.0361787482316
0.82  0.34  0.0299426740226
0.82  0.36  0.0247815021649
0.82  0.38  0.0205099534225
0.82  0.4  0.0169746848514
0.82  0.42  0.0140487849908
0.82  0.44  0.0116272179098
0.82  0.46  0.00962305255653
0.82  0.48  0.00796434204849
0.82  0.5  0.00659154087465
0.82  0.52  0.00545536729057
0.82  0.54  0.00451503416894
0.82  0.56  0.00373678479576
0.82  0.58  0.00309268104899
0.82  0.6  0.00255960045696
0.82  0.62  0.00211840613225
0.82  0.64  0.00175325978277
0.82  0.66  0.00145105313805
0.82  0.68  0.0012009373797
0.82  0.7  0.000993933683162
0.82  0.72  0.00082261088981
0.82  0.74  0.000680818738209
0.82  0.76  0.000563467077859
0.82  0.78  0.000466343139536
0.82  0.8  0.000385960302452
0.82  0.82  0.000319432929188
0.82  0.84  0.000264372775132
0.82  0.86  0.000218803253654
0.82  0.88  0.000181088479273
0.82  0.9  0.000149874541524
0.82  0.92  0.000124040901371
0.82  0.94  0.000102660165339
0.82  0.96  0.0000849647933142
0.82  0.98  0.0000703195448698
0.84  -1  0.0000463641029663
0.84  -0.98  0.000056020220737
0.84  -0.96  0.0000676873902575
0.84  -0.94  0.0000817844474656
0.84  -0.92  0.0000988174580495
0.84  -0.9  0.000119397884536
0.84  -0.88  0.000144264536987
0.84  -0.86  0.0001743100953
0.84  -0.84  0.000210613155235
0.84  -0.82  0.000254476948577
0.84  -0.8  0.000307476127428
0.84  -0.78  0.000371513292135
0.84  -0.76  0.00044888729212
0.84  -0.74  0.000542375751535
0.84  -0.72  0.000655334782287
0.84  -0.7  0.000791819464016
0.84  -0.68  0.00095672941608
0.84  -0.66  0.00115598468741
0.84  -0.64  0.00139673827841
0.84  -0.62  0.00168763292423
0.84  -0.6  0.00203911135749
0.84  -0.58  0.00246379118856
0.84  -0.56  0.00297691786107
0.84  -0.54  0.00359691194315
0.84  -0.52  0.00434603040143
0.84  -0.5  0.00525116559669
0.84  -0.48  0.00634481068396
0.84  -0.46  0.00766622607383
0.84  -0.44  0.00926284882914
0.84  -0.42  0.0111919955928
0.84  -0.4  0.0135229201792
0.84  -0.38  0.0163392996948
0.84  -0.36  0.0197422384351
0.84  -0.34  0.0238538973952
0.84  -0.32  0.0288218796876
0.84  -0.3  0.0348245292986
0.84  -0.28  0.0420773334014
0.84  -0.26  0.05084065806
0.84  -0.24  0.0614290950265
0.84  -0.22  0.0742227551681
0.84  -0.2  0.0657996722079
0.84  -0.18  0.0658189334488
0.84  -0.16  0.0661026351029
0.84  -0.14  0.0666174129376
0.84  -0.12  0.0673037955946
0.84  -0.1  0.0680845571753
0.84  -0.08  0.0688746024058
0.84  -0.06  0.0695906534898
0.84  -0.04  0.0701595668083
0.84  -0.02  0.0705247388627
0.84  6.17561557e-16  0.0706505162666
0.84  0.02  0.0705247388627
0.84  0.04  0.0701595668083
0.84  0.06  0.0695906534898
0.84  0.08  0.0688746024058
0.84  0.1  0.0680845571753
0.84  0.12  0.0673037955946
0.84  0.14  0.0666174129376
0.84  0.16  0.0661026351029
0.84  0.18  0.0658189334488
0.84  0.2  0.0896809139443
0.84  0.22  0.0742227551681
0.84  0.24  0.0614290950265
0.84  0.26  0.05084065806
0.84  0.28  0.0420773334014
0.84  0.3  0.0348245292986
0.84  0.32  0.0288218796876
0.84  0.34  0.0238538973952
0.84  0.36  0.0197422384351
0.84  0.38  0.0163392996948
0.84  0.4  0.0135229201792
0.84  0.42  0.0111919955928
0.84  0.44  0.00926284882913
0.84  0.46  0.00766622607382
0.84  0.48  0.00634481068396
0.84  0.5  0.00525116559668
0.84  0.52  0.00434603040143
0.84  0.54  0.00359691194315
0.84  0.56  0.00297691786107
0.84  0.58  0.00246379118855
0.84  0.6  0.00203911135748
0.84  0.62  0.00168763292423
0.84  0.64  0.00139673827841
0.84  0.66  0.00115598468741
0.84  0.68  0.000956729416079
0.84  0.7  0.000791819464016
0.84  0.72  0.000655334782287
0.84  0.74  0.000542375751534
0.84  0.76  0.00044888729212
0.84  0.78  0.000371513292134
0.84  0.8  0.000307476127428
0.84  0.82  0.000254476948577
0.84  0.84  0.000210613155235
0.84  0.86  0.0001743100953
0.84  0.88  0.000144264536987
0.84  0.9  0.000119397884536
0.84  0.92  0.0000988174580495
0.84  0.94  0.0000817844474656
0.84  0.96  0.0000676873902575
0.84  0.98  0.000056020220737
0.86  -1  0.0000369360650336
0.86  -0.98  0.0000446286325833
0.86  -0.96  0.0000539233089514
0.86  -0.94  0.0000651537607127
0.86  -0.92  0.0000787231462156
0.86  -0.9  0.0000951185884328
0.86  -0.88  0.000114928662031
0.86  -0.86  0.000138864522423
0.86  -0.84  0.000167785435304
0.86  -0.82  0.000202729623153
0.86  -0.8  0.000244951536045
0.86  -0.78  0.000295966884749
0.86  -0.76  0.000357607052735
0.86  -0.74  0.000432084840418
0.86  -0.72  0.000522073901762
0.86  -0.7  0.000630804724918
0.86  -0.68  0.000762180602471
0.86  -0.66  0.000920917754472
0.86  -0.64  0.0011127146345
0.86  -0.62  0.0013444564966
0.86  -0.6  0.00162446256677
0.86  -0.58  0.0019627846922
0.86  -0.56  0.00237156818921
0.86  -0.54  0.00286548784409
0.86  -0.52  0.00346227471848
0.86  -0.5  0.00418335267097
0.86  -0.48  0.00505460744531
0.86  -0.46  0.00610731593429
0.86  -0.44  0.0073792689788
0.86  -0.42  0.008916128009
0.86  -0.4  0.0107730642292
0.86  -0.38  0.0130167391909
0.86  -0.36  0.0157276978545
0.86  -0.34  0.0190032600466
0.86  -0.32  0.0229610141127
0.86  -0.3  0.0277430381835
0.86  -0.28  0.0335210005914
0.86  -0.26  0.0405023225365
0.86  -0.24  0.0489376242327
0.86  -0.22  0.0591297218422
0.86  -0.2  0.0524194541977
0.86  -0.18  0.0524347987078
0.86  -0.16  0.0526608102571
0.86  -0.14  0.0530709091562
0.86  -0.12  0.0536177174159
0.86  -0.1  0.0542397128536
0.86  -0.08  0.0548691041315
0.86  -0.06  0.0554395478092
0.86  -0.04  0.0558927738609
0.86  -0.02  0.0561836889846
0.86  6.17561557e-16  0.0562838898312
0.86  0.02  0.0561836889846
0.86  0.04  0.0558927738609
0.86  0.06  0.0554395478092
0.86  0.08  0.0548691041315
0.86  0.1  0.0542397128536
0.86  0.12  0.0536177174159
0.86  0.14  0.0530709091562
0.86  0.16  0.0526608102571
0.86  0.18  0.0524347987078
0.86  0.2  0.071444498174
0.86  0.22  0.0591297218422
0.86  0.24  0.0489376242327
0.86  0.26  0.0405023225364
0.86  0.28  0.0335210005914
0.86  0.3  0.0277430381835
