-0.02  6.17561557e-16  28.3392721516
-0.02  0.02  28.3827450278
-0.02  0.04  28.5080632987
-0.02  0.06  28.7006520701
-0.02  0.08  28.9384754684
-0.02  0.1  29.1949106678
-0.02  0.12  29.441954153
-0.02  0.14  29.6532910521
-0.02  0.16  29.8069071622
-0.02  0.18  29.8870794729
-0.02  0.2  40.4306265937
-0.02  0.22  34.0731272281
-0.02  0.24  28.7153105682
-0.02  0.26  24.1999818657
-0.02  0.28  20.3946644042
-0.02  0.3  17.1877127209
-0.02  0.32  14.4850370039
-0.02  0.34  12.2073425598
-0.02  0.36  10.287803361
-0.02  0.38  8.67010141446
-0.02  0.4  7.30677442981
-0.02  0.42  6.15782330746
-0.02  0.44  5.18953859192
-0.02  0.46  4.3735114589
-0.02  0.48  3.68580021948
-0.02  0.5  3.10622788704
-0.02  0.52  2.61779019797
-0.02  0.54  2.20615671798
-0.02  0.56  1.8592503968
-0.02  0.58  1.56689323556
-0.02  0.6  1.32050767119
-0.02  0.62  1.11286491645
-0.02  0.64  0.937872872142
-0.02  0.66  0.790397389026
-0.02  0.68  0.666111635313
-0.02  0.7  0.561369150329
-0.02  0.72  0.473096859797
-0.02  0.74  0.398704913903
-0.02  0.76  0.336010702838
-0.02  0.78  0.283174820486
-0.02  0.8  0.238647097488
-0.02  0.82  0.20112112031
-0.02  0.84  0.169495901942
-0.02  0.86  0.142843579684
-0.02  0.88  0.120382192272
-0.02  0.9  0.101452737662
-0.02  0.92  0.0854998383459
-0.02  0.94  0.0720554469566
-0.02  0.96  0.0607251140653
-0.02  0.98  0.0511764153023
2.8449465e-16  -1  0.0526799279411
2.8449465e-16  -0.98  0.062509158062
2.8449465e-16  -0.96  0.0741723649658
2.8449465e-16  -0.94  0.0880117393225
2.8449465e-16  -0.92  0.104433319096
2.8449465e-16  -0.9  0.123918902425
2.8449465e-16  -0.88  0.14704018326
2.8449465e-16  -0.86  0.174475524475
2.8449465e-16  -0.84  0.207029860587
2.8449465e-16  -0.82  0.245658313987
2.8449465e-16  -0.8  0.291494217597
2.8449465e-16  -0.78  0.345882366094
2.8449465e-16  -0.76  0.410418471285
2.8449465e-16  -0.74  0.486995979224
2.8449465e-16  -0.72  0.577861622644
2.8449465e-16  -0.7  0.685681338597
2.8449465e-16  -0.68  0.81361848525
2.8449465e-16  -0.66  0.965426652699
2.8449465e-16  -0.64  1.14555979079
2.8449465e-16  -0.62  1.359302885
2.8449465e-16  -0.6  1.61292701439
2.8449465e-16  -0.58  1.91387334086
2.8449465e-16  -0.56  2.27097142783
2.8449465e-16  -0.54  2.69469829372
2.8449465e-16  -0.52  3.19748580067
2.8449465e-16  -0.5  3.79408539697
2.8449465e-16  -0.48  4.50200091475
2.8449465e-16  -0.46  5.34200212062
2.8449465e-16  -0.44  6.3387340867
2.8449465e-16  -0.42  7.52144026053
2.8449465e-16  -0.4  8.92482044822
2.8449465e-16  -0.38  10.5900488834
2.8449465e-16  -0.36  12.5659822519
2.8449465e-16  -0.34  14.9105931137
2.8449465e-16  -0.32  17.6926707793
2.8449465e-16  -0.3  20.9938395421
2.8449465e-16  -0.28  24.9109534799
2.8449465e-16  -0.26  29.5589380891
2.8449465e-16  -0.24  35.0741621215
2.8449465e-16  -0.22  41.6184385521
2.8449465e-16  -0.2  36.5037196353
2.8449465e-16  -0.18  36.5054129671
2.8449465e-16  -0.16  36.407486928
2.8449465e-16  -0.14  36.219853354
2.8449465e-16  -0.12  35.9617170318
2.8449465e-16  -0.1  35.6599670915
2.8449465e-16  -0.08  35.3467456922
2.8449465e-16  -0.06  35.0562575775
2.8449465e-16  -0.04  34.8210210554
2.8449465e-16  -0.02  34.6679517254
2.8449465e-16  6.17561557e-16  34.6148520138
2.8449465e-16  0.02  34.6679517254
2.8449465e-16  0.04  34.8210210554
2.8449465e-16  0.06  35.0562575775
2.8449465e-16  0.08  35.3467456922
2.8449465e-16  0.1  35.6599670915
2.8449465e-16  0.12  35.9617170318
2.8449465e-16  0.14  36.219853354
2.8449465e-16  0.16  36.407486928
2.8449465e-16  0.18  36.5054129671
2.8449465e-16  0.2  49.3837720631
2.8449465e-16  0.22  41.618438552
2.8449465e-16  0.24  35.0741621215
2.8449465e-16  0.26  29.5589380891
2.8449465e-16  0.28  24.9109534799
2.8449465e-16  0.3  20.9938395421
2.8449465e-16  0.32  17.6926707793
2.8449465e-16  0.34  14.9105931137
2.8449465e-16  0.36  12.5659822519
2.8449465e-16  0.38  10.5900488834
2.8449465e-16  0.4  8.92482044822
2.8449465e-16  0.42  7.52144026053
2.8449465e-16  0.44  6.3387340867
2.8449465e-16  0.46  5.34200212062
2.8449465e-16  0.48  4.50200091475
2.8449465e-16  0.5  3.79408539697
2.8449465e-16  0.52  3.19748580067
2.8449465e-16  0.54  2.69469829372
2.8449465e-16  0.56  2.27097142783
2.8449465e-16  0.58  1.91387334086
2.8449465e-16  0.6  1.61292701439
2.8449465e-16  0.62  1.35930288499
2.8449465e-16  0.64  1.14555979079
2.8449465e-16  0.66  0.965426652699
2.8449465e-16  0.68  0.813618485249
2.8449465e-16  0.7  0.685681338597
2.8449465e-16  0.72  0.577861622644
2.8449465e-16  0.74  0.486995979224
2.8449465e-16  0.76  0.410418471285
2.8449465e-16  0.78  0.345882366093
2.8449465e-16  0.8  0.291494217597
2.8449465e-16  0.82  0.245658313987
2.8449465e-16  0.84  0.207029860587
2.8449465e-16  0.86  0.174475524475
2.8449465e-16  0.88  0.14704018326
2.8449465e-16  0.9  0.123918902425
2.8449465e-16  0.92  0.104433319096
2.8449465e-16  0.94  0.0880117393224
2.8449465e-16  0.96  0.0741723649658
2.8449465e-16  0.98  0.062509158062
0.02  -1  0.0627193458705
0.02  -0.98  0.0744217704502
0.02  -0.96  0.0883076798724
0.02  -0.94  0.104784477409
0.02  -0.92  0.12433558125
0.02  -0.9  0.147534607674
0.02  -0.88  0.17506220056
0.02  -0.86  0.207726001025
0.02  -0.84  0.246484343072
0.02  -0.82  0.292474370469
0.02  -0.8  0.34704539978
0.02  -0.78  0.411798508414
0.02  -0.76  0.48863350916
0.02  -0.74  0.579804689418
0.02  -0.72  0.687986950484
0.02  -0.7  0.816354287357
0.02  -0.68  0.968672911627
0.02  -0.66  1.14941174959
0.02  -0.64  1.36387355757
0.02  -0.62  1.6183505012
0.02  -0.6  1.92030876338
0.02  -0.58  2.27860759703
0.02  -0.56  2.7037592497
0.02  -0.54  3.20823738578
0.02  -0.52  3.80684305552
0.02  -0.5  4.51713894789
0.02  -0.48  5.35996466808
0.02  -0.46  6.36004815759
0.02  -0.44  7.5467311954
0.02  -0.42  8.95483026613
0.02  -0.4  10.6256580523
0.02  -0.38  12.6082355209
0.02  -0.36  14.9607301654
0.02  -0.34  17.7521626012
0.02  -0.32  21.0644315843
0.02  -0.3  24.9947168656
0.02  -0.28  29.6583303799
0.02  -0.26  35.1920994206
0.02  -0.24  41.7583810607
0.02  -0.22  49.5498256006
0.02  -0.2  43.4603748875
0.02  -0.18  43.462390924
0.02  -0.16  43.3458027404
0.02  -0.14  43.1224111094
0.02  -0.12  42.8150807483
0.02  -0.1  42.455825153
0.02  -0.08  42.0829119384
0.02  -0.06  41.7370643784
0.02  -0.04  41.4569979211
0.02  -0.02  41.2747575759
0.02  6.17561557e-16  41.2115384466
0.02  0.02  41.2747575759
0.02  0.04  41.4569979211
0.02  0.06  41.7370643784
0.02  0.08  42.0829119384
0.02  0.1  42.455825153
0.02  0.12  42.8150807483
0.02  0.14  43.1224111094
0.02  0.16  43.3458027404
0.02  0.18  43.462390924
0.02  0.2  58.7950287987
0.02  0.22  49.5498256006
0.02  0.24  41.7583810607
0.02  0.26  35.1920994206
0.02  0.28  29.6583303799
0.02  0.3  24.9947168656
0.02  0.32  21.0644315843
0.02  0.34  17.7521626012
0.02  0.36  14.9607301654
0.02  0.38  12.6082355209
0.02  0.4  10.6256580523
0.02  0.42  8.95483026613
0.02  0.44  7.5467311954
0.02  0.46  6.36004815759
0.02  0.48  5.35996466808
0.02  0.5  4.51713894789
0.02  0.52  3.80684305552
0.02  0.54  3.20823738578
0.02  0.56  2.70375924969
0.02  0.58  2.27860759703
0.02  0.6  1.92030876338
0.02  0.62  1.6183505012
0.02  0.64  1.36387355757
0.02  0.66  1.14941174959
0.02  0.68  0.968672911626
0.02  0.7  0.816354287357
0.02  0.72  0.687986950484
0.02  0.74  0.579804689418
0.02  0.76  0.48863350916
0.02  0.78  0.411798508414
0.02  0.8  0.34704539978
0.02  0.82  0.292474370468
0.02  0.84  0.246484343072
0.02  0.86  0.207726001025
0.02  0.88  0.17506220056
0.02  0.9  0.147534607674
0.02  0.92  0.12433558125
0.02  0.94  0.104784477409
0.02  0.96  0.0883076798724
0.02  0.98  0.0744217704502
0.04  -1  0.0716462838291
0.04  -0.98  0.0850143319374
0.04  -0.96  0.10087664354
0.04  -0.94  0.119698608222
0.04  -0.92  0.142032449807
0.04  -0.9  0.168533428232
0.04  -0.88  0.199979064433
0.04  -0.86  0.237291952292
0.04  -0.84  0.281566826918
0.04  -0.82  0.334102683446
0.04  -0.8  0.396440888678
0.04  -0.78  0.470410403755
0.04  -0.76  0.558181444652
0.04  -0.74  0.662329154855
0.04  -0.72  0.785909158345
0.04  -0.7  0.932547209561
0.04  -0.68  1.1065455706
0.04  -0.66  1.3130092367
0.04  -0.64  1.55799571339
0.04  -0.62  1.84869273961
0.04  -0.6  2.1936291712
0.04  -0.58  2.60292521177
0.04  -0.56  3.08858933269
0.04  -0.54  3.66487059363
0.04  -0.52  4.34867670035
0.04  -0.5  5.16007006552
0.04  -0.48  6.1228564264
0.04  -0.46  7.26528328924
0.04  -0.44  8.62086869215
0.04  -0.42  10.2293846019
0.04  -0.4  12.1380237967
0.04  -0.38  14.4027844707
0.04  -0.36  17.0901131835
0.04  -0.34  20.2788543575
0.04  -0.32  24.0625635207
0.04  -0.3  28.5522521628
0.04  -0.28  33.879644738
0.04  -0.26  40.2010433724
0.04  -0.24  47.701913663
0.04  -0.22  56.6023261147
0.04  -0.2  49.6461548074
0.04  -0.18  49.6484577894
0.04  -0.16  49.5152754359
0.04  -0.14  49.2600881411
0.04  -0.12  48.9090149918
0.04  -0.1  48.4986260123
0.04  -0.08  48.0726355041
0.04  -0.06  47.6775629456
0.04  -0.04  47.3576342121
0.04  -0.02  47.149455327
0.04  6.17561557e-16  47.0772381248
0.04  0.02  47.149455327
0.04  0.04  47.3576342121
0.04  0.06  47.6775629456
0.04  0.08  48.0726355041
0.04  0.1  48.4986260123
0.04  0.12  48.9090149918
0.04  0.14  49.2600881411
0.04  0.16  49.5152754359
0.04  0.18  49.6484577894
0.04  0.2  67.1634128606
0.04  0.22  56.6023261147
0.04  0.24  47.701913663
0.04  0.26  40.2010433724
0.04  0.28  33.879644738
0.04  0.3  28.5522521628
0.04  0.32  24.0625635207
0.04  0.34  20.2788543575
0.04  0.36  17.0901131835
0.04  0.38  14.4027844707
0.04  0.4  12.1380237967
0.04  0.42  10.2293846019
0.04  0.44  8.62086869215
0.04  0.46  7.26528328924
0.04  0.48  6.1228564264
0.04  0.5  5.16007006552
0.04  0.52  4.34867670035
0.04  0.54  3.66487059363
0.04  0.56  3.08858933269
0.04  0.58  2.60292521177
0.04  0.6  2.1936291712
0.04  0.62  1.84869273961
0.04  0.64  1.55799571339
0.04  0.66  1.3130092367
0.04  0.68  1.1065455706
0.04  0.7  0.932547209561
0.04  0.72  0.785909158345
0.04  0.74  0.662329154855
0.04  0.76  0.558181444652
0.04  0.78  0.470410403755
0.04  0.8  0.396440888678
0.04  0.82  0.334102683446
0.04  0.84  0.281566826918
0.04  0.86  0.237291952292
0.04  0.88  0.199979064433
0.04  0.9  0.168533428232
0.04  0.92  0.142032449807
0.04  0.94  0.119698608222
0.04  0.96  0.10087664354
0.04  0.98  0.0850143319374
0.06  -1  0.0793024008847
0.06  -0.98  0.0940989577119
0.06  -0.96  0.111656314862
0.06  -0.94  0.13248959342
0.06  -0.92  0.15721002781
0.06  -0.9  0.186542899001
0.06  -0.88  0.221348813765
0.06  -0.86  0.262648954303
0.06  -0.84  0.311655039044
0.06  -0.82  0.369804873655
0.06  -0.8  0.438804535292
0.06  -0.78  0.52067842776
0.06  -0.76  0.617828676165
0.06  -0.74  0.733105603652
0.06  -0.72  0.869891357977
0.06  -0.7  1.03219914145
0.06  -0.68  1.22479095561
0.06  -0.66  1.45331731514
0.06  -0.64  1.72448303019
0.06  -0.62  2.04624392103
0.06  -0.6  2.42804023642
0.06  -0.58  2.88107362426
0.06  -0.56  3.41863578038
0.06  -0.54  4.05649841798
0.06  -0.52  4.81337599913
0.06  -0.5  5.71147480455
0.06  -0.48  6.77714445099
0.06  -0.46  8.0416509713
0.06  -0.44  9.5420941389
0.06  -0.42  11.3224959502
0.06  -0.4  13.4350922006
0.06  -0.38  15.9418650474
0.06  -0.36  18.9163615251
0.06  -0.34  22.4458513658
0.06  -0.32  26.6338874349
0.06  -0.3  31.6033439024
0.06  -0.28  37.5000212887
0.06  -0.26  44.4969241546
0.06  -0.24  52.7993369384
0.06  -0.22  62.6508468641
0.06  -0.2  54.9513395603
0.06  -0.18  54.9538886388
0.06  -0.16  54.8064744279
0.06  -0.14  54.5240178361
0.06  -0.12  54.1354290337
0.06  -0.1  53.6811859155
0.06  -0.08  53.2096740903
0.06  -0.06  52.7723841049
0.06  -0.04  52.4182678085
0.06  -0.02  52.1878429418
0.06  6.17561557e-16  52.1079086143
0.06  0.02  52.1878429418
0.06  0.04  52.4182678085
0.06  0.06  52.7723841049
0.06  0.08  53.2096740903
0.06  0.1  53.6811859155
0.06  0.12  54.1354290337
0.06  0.14  54.5240178361
0.06  0.16  54.8064744279
0.06  0.18  54.9538886388
0.06  0.2  74.3404906271
0.06  0.22  62.650846864
0.06  0.24  52.7993369383
0.06  0.26  44.4969241546
0.06  0.28  37.5000212887
0.06  0.3  31.6033439024
0.06  0.32  26.6338874349
0.06  0.34  22.4458513658
0.06  0.36  18.9163615251
0.06  0.38  15.9418650474
0.06  0.4  13.4350922006
0.06  0.42  11.3224959502
0.06  0.44  9.5420941389
0.06  0.46  8.0416509713
0.06  0.48  6.77714445099
0.06  0.5  5.71147480455
0.06  0.52  4.81337599912
0.06  0.54  4.05649841797
0.06  0.56  3.41863578038
0.06  0.58  2.88107362426
0.06  0.6  2.42804023642
0.06  0.62  2.04624392102
0.06  0.64  1.72448303019
0.06  0.66  1.45331731514
0.06  0.68  1.22479095561
0.06  0.7  1.03219914145
0.06  0.72  0.869891357976
0.06  0.74  0.733105603652
0.06  0.76  0.617828676165
0.06  0.78  0.52067842776
0.06  0.8  0.438804535292
0.06  0.82  0.369804873655
0.06  0.84  0.311655039044
0.06  0.86  0.262648954303
0.06  0.88  0.221348813765
0.06  0.9  0.186542899001
0.06  0.92  0.15721002781
0.06  0.94  0.13248959342
0.06  0.96  0.111656314862
0.06  0.98  0.0940989577119
0.08  -1  0.0855518972015
0.08  -0.98  0.101514509865
0.08  -0.96  0.120455490179
0.08  -0.94  0.142930553805
0.08  -0.92  0.16959910404
0.08  -0.9  0.201243578265
0.08  -0.88  0.238792404135
0.08  -0.86  0.283347239023
0.08  -0.84  0.336215291911
0.08  -0.82  0.398947676018
0.08  -0.8  0.473384917431
0.08  -0.78  0.5617109549
0.08  -0.76  0.666517215138
0.08  -0.74  0.790878643544
0.08  -0.72  0.93844392104
0.08  -0.7  1.11354251392
0.08  -0.68  1.32131169749
0.08  -0.66  1.56784728027
0.08  -0.64  1.86038245096
0.08  -0.62  2.20749999531
0.08  -0.6  2.61938410931
0.08  -0.58  3.10811919669
0.08  -0.56  3.68804441719
0.08  -0.54  4.37617438793
0.08  -0.52  5.19269838083
0.08  -0.5  6.16157266233
0.08  -0.48  7.31122335418
0.08  -0.46  8.67538043681
0.08  -0.44  10.2940673643
0.08  -0.42  12.2147753257
0.08  -0.4  14.4938566048
0.08  -0.38  17.1981779179
0.08  -0.36  20.4070822392
0.08  -0.34  24.2147166697
0.08  -0.32  28.7327946505
0.08  -0.3  34.0938735599
0.08  -0.28  40.4552438584
0.08  -0.26  48.003543885
0.08  -0.24  56.9602357012
0.08  -0.22  67.5881026389
0.08  -0.2  59.2818288059
0.08  -0.18  59.2845787669
0.08  -0.16  59.1255474479
0.08  -0.14  58.8208316127
0.08  -0.12  58.4016197238
0.08  -0.1  57.9115795722
0.08  -0.08  57.4029098378
0.08  -0.06  56.9311588257
0.08  -0.04  56.5491360792
0.08  -0.02  56.3005523757
0.08  6.17561557e-16  56.2143187523
0.08  0.02  56.3005523757
0.08  0.04  56.5491360792
0.08  0.06  56.9311588257
0.08  0.08  57.4029098378
0.08  0.1  57.9115795722
0.08  0.12  58.4016197238
0.08  0.14  58.8208316127
0.08  0.16  59.1255474479
0.08  0.18  59.2845787669
0.08  0.2  80.1989591877
0.08  0.22  67.5881026388
0.08  0.24  56.9602357011
0.08  0.26  48.003543885
0.08  0.28  40.4552438584
0.08  0.3  34.0938735599
0.08  0.32  28.7327946505
0.08  0.34  24.2147166697
0.08  0.36  20.4070822392
0.08  0.38  17.1981779179
0.08  0.4  14.4938566048
0.08  0.42  12.2147753257
0.08  0.44  10.2940673643
0.08  0.46  8.67538043681
0.08  0.48  7.31122335418
0.08  0.5  6.16157266232
0.08  0.52  5.19269838082
0.08  0.54  4.37617438793
0.08  0.56  3.68804441719
0.08  0.58  3.10811919669
0.08  0.6  2.61938410931
0.08  0.62  2.20749999531
0.08  0.64  1.86038245096
0.08  0.66  1.56784728027
0.08  0.68  1.32131169749
0.08  0.7  1.11354251392
0.08  0.72  0.93844392104
0.08  0.74  0.790878643544
0.08  0.76  0.666517215138
0.08  0.78  0.561710954899
0.08  0.8  0.473384917431
0.08  0.82  0.398947676018
0.08  0.84  0.33621529191
0.08  0.86  0.283347239023
0.08  0.88  0.238792404135
0.08  0.9  0.201243578265
0.08  0.92  0.16959910404
0.08  0.94  0.142930553805
0.08  0.96  0.120455490179
0.08  0.98  0.101514509865
0.1  -1  0.0902839227797
0.1  -0.98  0.107129455564
0.1  -0.96  0.127118094741
0.1  -0.94  0.15083629358
0.1  -0.92  0.178979928131
0.1  -0.9  0.212374713762
0.1  -0.88  0.252000431089
0.1  -0.86  0.299019672089
0.1  -0.84  0.354811949765
0.1  -0.82  0.421014172133
0.1  -0.8  0.499568668006
0.1  -0.78  0.59278017362
0.1  -0.76  0.703383452048
0.1  -0.74  0.834623529314
0.1  -0.72  0.990350901286
0.1  -0.7  1.17513450464
0.1  -0.68  1.39439576638
0.1  -0.66  1.65456766492
0.1  -0.64  1.9632834693
0.1  -0.62  2.32960069422
0.1  -0.6  2.76426684143
0.1  -0.58  3.28003472422
0.1  -0.56  3.89203662644
0.1  -0.54  4.61822827353
0.1  -0.52  5.47991564148
0.1  -0.5  6.50238005987
0.1  -0.48  7.71561994913
0.1  -0.46  9.15523095411
0.1  -0.44  10.8634502964
0.1  -0.42  12.890395986
0.1  -0.4  15.2955372504
0.1  -0.38  18.1494393214
0.1  -0.36  21.5358337724
0.1  -0.34  25.5540751457
0.1  -0.32  30.3220559488
0.1  -0.3  35.9796655414
0.1  -0.28  42.6928943953
0.1  -0.26  50.6587041437
0.1  -0.24  60.1108063032
0.1  -0.22  71.3265192132
0.1  -0.2  62.560810797
0.1  -0.18  62.5637128631
0.1  -0.16  62.3958852428
0.1  -0.14  62.0743150401
0.1  -0.12  61.6319158058
0.1  -0.1  61.1147706734
0.1  -0.08  60.5779655233
0.1  -0.06  60.0801211347
0.1  -0.04  59.6769680397
0.1  -0.02  59.4146347353
0.1  6.17561557e-16  59.3236313789
0.1  0.02  59.4146347353
0.1  0.04  59.6769680397
0.1  0.06  60.0801211347
0.1  0.08  60.5779655233
0.1  0.1  61.1147706734
0.1  0.12  61.6319158058
0.1  0.14  62.0743150401
0.1  0.16  62.3958852428
0.1  0.18  62.5637128631
0.1  0.2  84.6349043699
0.1  0.22  71.3265192132
0.1  0.24  60.1108063032
0.1  0.26  50.6587041437
0.1  0.28  42.6928943953
0.1  0.3  35.9796655414
0.1  0.32  30.3220559488
0.1  0.34  25.5540751456
0.1  0.36  21.5358337724
0.1  0.38  18.1494393214
0.1  0.4  15.2955372504
0.1  0.42  12.890395986
0.1  0.44  10.8634502964
0.1  0.46  9.1552309541
0.1  0.48  7.71561994913
0.1  0.5  6.50238005986
0.1  0.52  5.47991564148
0.1  0.54  4.61822827353
0.1  0.56  3.89203662644
0.1  0.58  3.28003472422
0.1  0.6  2.76426684142
0.1  0.62  2.32960069422
0.1  0.64  1.9632834693
0.1  0.66  1.65456766492
0.1  0.68  1.39439576638
0.1  0.7  1.17513450464
0.1  0.72  0.990350901286
0.1  0.74  0.834623529314
0.1  0.76  0.703383452047
0.1  0.78  0.59278017362
0.1  0.8  0.499568668006
0.1  0.82  0.421014172133
0.1  0.84  0.354811949765
0.1  0.86  0.299019672089
0.1  0.88  0.252000431089
0.1  0.9  0.212374713762
0.1  0.92  0.178979928131
0.1  0.94  0.15083629358
0.1  0.96  0.127118094741
0.1  0.98  0.107129455564
0.12  -1  0.0934145436495
0.12  -0.98  0.110844200106
0.12  -0.96  0.131525951069
0.12  -0.94  0.156066585243
0.12  -0.92  0.18518610838
0.12  -0.9  0.219738867762
0.12  -0.88  0.260738618183
0.12  -0.86  0.309388264826
0.12  -0.84  0.367115155703
0.12  -0.82  0.435612959084
0.12  -0.8  0.516891354591
0.12  -0.78  0.613334995848
0.12  -0.76  0.727773474619
0.12  -0.74  0.863564339138
0.12  -0.72  1.02469160232
0.12  -0.7  1.21588263001
0.12  -0.68  1.44274683878
0.12  -0.66  1.71194027239
0.12  -0.64  2.03136088567
0.12  -0.62  2.41038026523
0.12  -0.6  2.86011858553
0.12  -0.58  3.39377086732
0.12  -0.56  4.02699411071
0.12  -0.54  4.77836666107
0.12  -0.52  5.66993328519
0.12  -0.5  6.72785195001
0.12  -0.48  7.98316127977
0.12  -0.46  9.47269120849
0.12  -0.44  11.2401435455
0.12  -0.42  13.3373741572
0.12  -0.4  15.8259143835
0.12  -0.38  18.7787763259
0.12  -0.36  22.2825949739
0.12  -0.34  26.4401700172
0.12  -0.32  31.3734819197
0.12  -0.3  37.2272707447
0.12  -0.28  44.1732827311
0.12  -0.26  52.415309213
0.12  -0.24  62.1951657209
0.12  -0.22  73.799786687
0.12  -0.2  64.730124822
0.12  -0.18  64.733127518
0.12  -0.16  64.5594804269
0.12  -0.14  64.2267596853
0.12  -0.12  63.769020131
0.12  -0.1  63.2339428431
0.12  -0.08  62.6785238207
0.12  -0.06  62.1634165354
0.12  -0.04  61.7462839914
0.12  -0.02  61.4748542046
0.12  6.17561557e-16  61.3806952807
0.12  0.02  61.4748542046
0.12  0.04  61.7462839914
0.12  0.06  62.1634165354
0.12  0.08  62.6785238207
0.12  0.1  63.2339428431
0.12  0.12  63.769020131
0.12  0.14  64.2267596853
0.12  0.16  64.5594804269
0.12  0.18  64.733127518
0.12  0.2  87.5696439091
0.12  0.22  73.799786687
0.12  0.24  62.1951657209
0.12  0.26  52.415309213
0.12  0.28  44.1732827311
0.12  0.3  37.2272707447
0.12  0.32  31.3734819197
0.12  0.34  26.4401700172
0.12  0.36  22.2825949739
0.12  0.38  18.7787763259
0.12  0.4  15.8259143835
0.12  0.42  13.3373741572
0.12  0.44  11.2401435455
0.12  0.46  9.47269120849
0.12  0.48  7.98316127977
0.12  0.5  6.72785195001
0.12  0.52  5.66993328519
0.12  0.54  4.77836666107
0.12  0.56  4.02699411071
0.12  0.58  3.39377086732
0.12  0.6  2.86011858553
0.12  0.62  2.41038026523
0.12  0.64  2.03136088567
0.12  0.66  1.71194027239
0.12  0.68  1.44274683878
0.12  0.7  1.21588263001
0.12  0.72  1.02469160232
0.12  0.74  0.863564339137
0.12  0.76  0.727773474619
0.12  0.78  0.613334995847
0.12  0.8  0.516891354591
0.12  0.82  0.435612959084
0.12  0.84  0.367115155703
0.12  0.86  0.309388264826
0.12  0.88  0.260738618182
0.12  0.9  0.219738867762
0.12  0.92  0.18518610838
0.12  0.94  0.156066585243
0.12  0.96  0.131525951069
0.12  0.98  0.110844200106
0.14  -1  0.0948882306442
0.14  -0.98  0.112592853471
0.14  -0.96  0.133600875122
0.14  -0.94  0.158528656864
0.14  -0.92  0.1881075631
0.14  -0.9  0.223205419104
0.14  -0.88  0.264851972438
0.14  -0.86  0.31426910505
0.14  -0.84  0.372906682475
0.14  -0.82  0.442485091917
0.14  -0.8  0.525045717254
0.14  -0.78  0.623010831873
0.14  -0.76  0.739254666548
0.14  -0.74  0.877187737443
0.14  -0.72  1.04085690837
0.14  -0.7  1.23506412305
0.14  -0.68  1.46550729095
0.14  -0.66  1.7389474601
0.14  -0.64  2.06340718169
0.14  -0.62  2.44840588641
0.14  -0.6  2.90523917809
0.14  -0.58  3.44731023919
0.14  -0.56  4.09052307116
0.14  -0.54  4.85374910719
0.14  -0.52  5.75938088742
0.14  -0.5  6.83398904102
0.14  -0.48  8.10910185064
0.14  -0.46  9.62213027112
0.14  -0.44  11.4174655418
0.14  -0.42  13.5477815956
0.14  -0.4  16.0755804772
0.14  -0.38  19.0750261107
0.14  -0.36  22.6341202198
0.14  -0.34  26.8572842391
0.14  -0.32  31.8684229693
0.14  -0.3  37.8145598605
0.14  -0.28  44.8701505819
0.14  -0.26  53.2422014344
0.14  -0.24  63.1763427762
0.14  -0.22  74.964035653
0.14  -0.2  65.7512928263
0.14  -0.18  65.7543428922
0.14  -0.16  65.5779563834
0.14  -0.14  65.2399867136
0.14  -0.12  64.7750259622
0.14  -0.1  64.2315074144
0.14  -0.08  63.6673262254
0.14  -0.06  63.1440927226
0.14  -0.04  62.7203795887
0.14  -0.02  62.444667786
0.14  6.17561557e-16  62.3490234321
0.14  0.02  62.444667786
0.14  0.04  62.7203795887
0.14  0.06  63.1440927226
0.14  0.08  63.6673262254
0.14  0.1  64.2315074144
0.14  0.12  64.7750259622
0.14  0.14  65.2399867136
0.14  0.16  65.5779563834
0.14  0.18  65.7543428922
0.14  0.2  88.9511230698
0.14  0.22  74.964035653
0.14  0.24  63.1763427762
0.14  0.26  53.2422014344
0.14  0.28  44.8701505819
0.14  0.3  37.8145598605
0.14  0.32  31.8684229693
0.14  0.34  26.8572842391
0.14  0.36  22.6341202198
0.14  0.38  19.0750261107
0.14  0.4  16.0755804771
0.14  0.42  13.5477815956
0.14  0.44  11.4174655418
0.14  0.46  9.62213027111
0.14  0.48  8.10910185064
0.14  0.5  6.83398904102
0.14  0.52  5.75938088742
0.14  0.54  4.85374910719
0.14  0.56  4.09052307116
0.14  0.58  3.44731023919
0.14  0.6  2.90523917809
0.14  0.62  2.44840588641
0.14  0.64  2.06340718169
0.14  0.66  1.7389474601
0.14  0.68  1.46550729095
0.14  0.7  1.23506412305
0.14  0.72  1.04085690837
0.14  0.74  0.877187737443
0.14  0.76  0.739254666548
0.14  0.78  0.623010831873
0.14  0.8  0.525045717254
0.14  0.82  0.442485091917
0.14  0.84  0.372906682475
0.14  0.86  0.31426910505
0.14  0.88  0.264851972438
0.14  0.9  0.223205419104
0.14  0.92  0.1881075631
0.14  0.94  0.158528656864
0.14  0.96  0.133600875122
0.14  0.98  0.112592853471
0.16  -1  0.0946788443447
0.16  -0.98  0.112344399045
0.16  -0.96  0.133306063082
0.16  -0.94  0.158178837623
0.16  -0.92  0.187692473196
0.16  -0.9  0.222712880078
0.16  -0.88  0.264267533524
0.16  -0.86  0.313575619203
0.16  -0.84  0.372083803286
0.16  -0.82  0.441508676662
0.16  -0.8  0.523887118563
0.16  -0.78  0.621636057238
0.16  -0.76  0.737623381003
0.16  -0.74  0.875252080164
0.16  -0.72  1.03856008847
0.16  -0.7  1.23233875338
0.16  -0.68  1.46227341098
0.16  -0.66  1.73511018996
0.16  -0.64  2.05885393846
0.16  -0.62  2.44300308097
0.16  -0.6  2.89882829576
0.16  -0.58  3.43970318898
0.16  -0.56  4.08149666732
0.16  -0.54  4.84303852109
0.16  -0.52  5.74667187764
0.16  -0.5  6.81890873373
0.16  -0.48  8.09120779974
0.16  -0.46  9.60089747715
0.16  -0.44  11.3922710488
0.16  -0.42  13.5178862141
0.16  -0.4  16.0401070967
0.16  -0.38  19.032933966
0.16  -0.36  22.5841743556
0.16  -0.34  26.7980192774
0.16  -0.32  31.7981001157
0.16  -0.3  37.7311158896
0.16  -0.28  44.7711373036
0.16  -0.26  53.1247138655
0.16  -0.24  63.0369339102
0.16  -0.22  74.7986153273
0.16  -0.2  65.6062019146
0.16  -0.18  65.6092452501
0.16  -0.16  65.4332479667
0.16  -0.14  65.0960240819
0.16  -0.12  64.632089342
0.16  -0.1  64.0897701561
0.16  -0.08  63.5268339247
0.16  -0.06  63.0047550216
0.16  -0.04  62.5819768795
0.16  -0.02  62.3068734798
0.16  6.17561557e-16  62.2114401806
0.16  0.02  62.3068734798
0.16  0.04  62.5819768795
0.16  0.06  63.0047550216
0.16  0.08  63.5268339247
0.16  0.1  64.0897701561
0.16  0.12  64.632089342
0.16  0.14  65.0960240819
0.16  0.16  65.4332479667
0.16  0.18  65.6092452501
0.16  0.2  88.7548379629
0.16  0.22  74.7986153272
0.16  0.24  63.0369339102
0.16  0.26  53.1247138655
0.16  0.28  44.7711373036
0.16  0.3  37.7311158896
0.16  0.32  31.7981001156
0.16  0.34  26.7980192774
0.16  0.36  22.5841743556
0.16  0.38  19.032933966
0.16  0.4  16.0401070967
0.16  0.42  13.5178862141
0.16  0.44  11.3922710488
0.16  0.46  9.60089747715
0.16  0.48  8.09120779974
0.16  0.5  6.81890873373
0.16  0.52  5.74667187764
0.16  0.54  4.84303852109
0.16  0.56  4.08149666732
0.16  0.58  3.43970318898
0.16  0.6  2.89882829576
0.16  0.62  2.44300308097
0.16  0.64  2.05885393846
0.16  0.66  1.73511018996
0.16  0.68  1.46227341098
0.16  0.7  1.23233875338
0.16  0.72  1.03856008847
0.16  0.74  0.875252080164
0.16  0.76  0.737623381003
0.16  0.78  0.621636057238
0.16  0.8  0.523887118563
0.16  0.82  0.441508676662
0.16  0.84  0.372083803286
0.16  0.86  0.313575619203
0.16  0.88  0.264267533524
0.16  0.9  0.222712880078
0.16  0.92  0.187692473196
0.16  0.94  0.158178837623
0.16  0.96  0.133306063082
0.16  0.98  0.112344399045
0.18  -1  0.0927900987257
0.18  -0.98  0.110103243769
0.18  -0.96  0.130646744156
0.18  -0.94  0.155023332414
0.18  -0.92  0.183948201296
0.18  -0.9  0.218269987059
0.18  -0.88  0.258995667886
0.18  -0.86  0.307320107942
0.18  -0.84  0.364661113896
0.18  -0.82  0.432701032414
0.18  -0.8  0.513436109081
0.18  -0.78  0.609235056911
0.18  -0.76  0.722908552797
0.18  -0.74  0.857791700886
0.18  -0.72  1.0178418823
0.18  -0.7  1.20775486204
0.18  -0.68  1.43310255959
0.18  -0.66  1.70049652529
0.18  -0.64  2.0177819188
0.18  -0.62  2.39426768081
0.18  -0.6  2.84099965113
0.18  -0.58  3.37108464623
0.18  -0.56  4.00007500441
0.18  -0.54  4.74642488103
0.18  -0.52  5.63203168101
0.18  -0.5  6.68287851403
0.18  -0.48  7.92979652154
0.18  -0.46  9.40936944179
0.18  -0.44  11.1650069521
0.18  -0.42  13.2482182799
0.18  -0.4  15.7201234486
0.18  -0.38  18.6532464984
0.18  -0.36  22.1336432928
0.18  -0.34  26.26342634
0.18  -0.32  31.1637607054
0.18  -0.3  36.9784189135
0.18  -0.28  43.8779991372
0.18  -0.26  52.0649304338
0.18  -0.24  61.7794118779
0.18  -0.22  73.3064598412
0.18  -0.2  64.2974256267
0.18  -0.18  64.3004082508
0.18  -0.16  64.1279219323
0.18  -0.14  63.7974253174
0.18  -0.12  63.3427455986
0.18  -0.1  62.811245123
0.18  -0.08  62.2595388907
0.18  -0.06  61.7478749251
0.18  -0.04  61.3335307723
0.18  -0.02  61.0639154026
0.18  6.17561557e-16  60.9703858997
0.18  0.02  61.0639154026
0.18  0.04  61.3335307723
0.18  0.06  61.747874925
0.18  0.08  62.2595388907
0.18  0.1  62.811245123
0.18  0.12  63.3427455986
0.18  0.14  63.7974253174
0.18  0.16  64.1279219323
0.18  0.18  64.3004082508
0.18  0.2  86.9842701816
0.18  0.22  73.3064598412
0.18  0.24  61.7794118779
0.18  0.26  52.0649304338
0.18  0.28  43.8779991372
0.18  0.3  36.9784189135
0.18  0.32  31.1637607054
0.18  0.34  26.26342634
0.18  0.36  22.1336432928
0.18  0.38  18.6532464984
0.18  0.4  15.7201234486
0.18  0.42  13.2482182799
0.18  0.44  11.1650069521
0.18  0.46  9.40936944178
0.18  0.48  7.92979652154
0.18  0.5  6.68287851403
0.18  0.52  5.63203168101
0.18  0.54  4.74642488103
0.18  0.56  4.00007500441
0.18  0.58  3.37108464623
0.18  0.6  2.84099965113
0.18  0.62  2.39426768081
0.18  0.64  2.0177819188
0.18  0.66  1.70049652529
0.18  0.68  1.43310255959
0.18  0.7  1.20775486204
0.18  0.72  1.0178418823
0.18  0.74  0.857791700886
0.18  0.76  0.722908552797
0.18  0.78  0.609235056911
0.18  0.8  0.513436109081
0.18  0.82  0.432701032414
0.18  0.84  0.364661113896
0.18  0.86  0.307320107942
0.18  0.88  0.258995667886
0.18  0.9  0.218269987059
0.18  0.92  0.183948201295
0.18  0.94  0.155023332414
0.18  0.96  0.130646744156
0.18  0.98  0.110103243769
0.2  -1  0.0892554952794
0.2  -0.98  0.105909139977
0.2  -0.96  0.125670087827
0.2  -0.94  0.149118111786
0.2  -0.92  0.176941161157
0.2  -0.9  0.20995554555
0.2  -0.88  0.249129884867
0.2  -0.86  0.295613527956
0.2  -0.84  0.350770273735
0.2  -0.82  0.416218384142
0.2  -0.8  0.49387806285
0.2  -0.78  0.586027792759
0.2  -0.76  0.695371185156
0.2  -0.74  0.825116301853
0.2  -0.72  0.979069777576
0.2  -0.7  1.16174850407
0.2  -0.68  1.37851215268
0.2  -0.66  1.63572042351
0.2  -0.64  1.94091963476
0.2  -0.62  2.30306412663
0.2  -0.6  2.7327789757
0.2  -0.58  3.24267172748
0.2  -0.56  3.84770229342
0.2  -0.54  4.56562186462
0.2  -0.52  5.41749371992
0.2  -0.5  6.42831120834
0.2  -0.48  7.6277310372
0.2  -0.46  9.05094338002
0.2  -0.44  10.7397043326
0.2  -0.42  12.743561009
0.2  -0.4  15.1213052204
0.2  -0.38  17.9426983875
0.2  -0.36  21.2905182941
0.2  -0.34  25.2629877315
0.2  -0.32  29.9766562891
0.2  -0.3  35.5698198418
0.2  -0.28  42.2065780578
0.2  -0.26  50.081648973
0.2  -0.24  59.4260818876
0.2  -0.22  70.5140361974
0.2  -0.2  61.8481782897
0.2  -0.18  61.8510472982
0.2  -0.16  61.6851314085
0.2  -0.14  61.3672242238
0.2  -0.12  60.9298643756
0.2  -0.1  60.4186100625
0.2  -0.08  59.8879196797
0.2  -0.06  59.395746255
0.2  -0.04  58.9971854917
0.2  -0.02  58.7378404357
0.2  6.17561557e-16  58.6478737019
0.2  0.02  58.7378404357
0.2  0.04  58.9971854917
0.2  0.06  59.395746255
0.2  0.08  59.8879196797
0.2  0.1  60.4186100625
0.2  0.12  60.9298643756
0.2  0.14  61.3672242238
0.2  0.16  61.6851314085
0.2  0.18  61.8510472982
0.2  0.2  83.670825047
0.2  0.22  70.5140361974
0.2  0.24  59.4260818876
0.2  0.26  50.081648973
0.2  0.28  42.2065780578
0.2  0.3  35.5698198418
0.2  0.32  29.9766562891
0.2  0.34  25.2629877314
0.2  0.36  21.2905182941
0.2  0.38  17.9426983875
0.2  0.4  15.1213052204
0.2  0.42  12.743561009
0.2  0.44  10.7397043326
0.2  0.46  9.05094338002
0.2  0.48  7.6277310372
0.2  0.5  6.42831120834
0.2  0.52  5.41749371992
0.2  0.54  4.56562186462
0.2  0.56  3.84770229342
0.2  0.58  3.24267172748
0.2  0.6  2.73277897569
0.2  0.62  2.30306412663
0.2  0.64  1.94091963476
0.2  0.66  1.63572042351
0.2  0.68  1.37851215268
0.2  0.7  1.16174850407
0.2  0.72  0.979069777576
0.2  0.74  0.825116301853
0.2  0.76  0.695371185155
0.2  0.78  0.586027792759
0.2  0.8  0.49387806285
0.2  0.82  0.416218384142
0.2  0.84  0.350770273735
0.2  0.86  0.295613527956
0.2  0.88  0.249129884867
0.2  0.9  0.20995554555
0.2  0.92  0.176941161157
0.2  0.94  0.149118111786
0.2  0.96  0.125670087827
0.2  0.98  0.105909139977
0.22  -1  0.0841377287849
0.22  -0.98  0.0998364802903
0.22  -0.96  0.118464367184
0.22  -0.94  0.140567919175
0.22  -0.92  0.16679563966
0.22  -0.9  0.19791703237
0.22  -0.88  0.234845178099
0.22  -0.86  0.278663523881
0.22  -0.84  0.3306576706
0.22  -0.82  0.392353091657
0.22  -0.8  0.465559889336
0.22  -0.78  0.552425901994
0.22  -0.76  0.655499720194
0.22  -0.74  0.777805460649
0.22  -0.72  0.922931491773
0.22  -0.7  1.09513571401
0.22  -0.68  1.29947048376
0.22  -0.66  1.54193084617
0.22  -0.64  1.82963042568
0.22  -0.62  2.17101013505
0.22  -0.6  2.57608582605
0.22  -0.58  3.05674214782
0.22  -0.56  3.62708123455
0.22  -0.54  4.30383645262
0.22  -0.52  5.10686334633
0.22  -0.5  6.05972218629
0.22  -0.48  7.19036921193
0.22  -0.46  8.53197684884
0.22  -0.44  10.1239069655
0.22  -0.42  12.0128657241
0.22  -0.4  14.254273908
0.22  -0.38  16.9138929303
0.22  -0.36  20.0697542299
0.22  -0.34  23.814448661
0.22  -0.32  28.2578430474
0.22  -0.3  33.530303601
0.22  -0.28  39.7865207789
0.22  -0.26  47.2100477982
0.22  -0.24  56.0186859639
0.22  -0.22  66.4708748132
0.22  -0.2  58.3019032552
0.22  -0.18  58.3046077594
0.22  -0.16  58.1482052199
0.22  -0.14  57.8485263217
0.22  -0.12  57.4362439835
0.22  -0.1  56.9543041701
0.22  -0.08  56.45404272
0.22  -0.06  55.9900897276
0.22  -0.04  55.6143817973
0.22  -0.02  55.3699071695
0.22  6.17561557e-16  55.2850989835
0.22  0.02  55.3699071695
0.22  0.04  55.6143817973
0.22  0.06  55.9900897276
0.22  0.08  56.45404272
0.22  0.1  56.9543041701
0.22  0.12  57.4362439835
0.22  0.14  57.8485263217
0.22  0.16  58.1482052199
0.22  0.18  58.3046077594
0.22  0.2  78.8732745583
0.22  0.22  66.4708748131
0.22  0.24  56.0186859638
0.22  0.26  47.2100477982
0.22  0.28  39.7865207789
0.22  0.3  33.530303601
0.22  0.32  28.2578430474
0.22  0.34  23.814448661
0.22  0.36  20.0697542299
0.22  0.38  16.9138929303
0.22  0.4  14.254273908
0.22  0.42  12.0128657241
0.22  0.44  10.1239069655
0.22  0.46  8.53197684884
0.22  0.48  7.19036921192
0.22  0.5  6.05972218628
0.22  0.52  5.10686334633
0.22  0.54  4.30383645262
0.22  0.56  3.62708123455
0.22  0.58  3.05674214782
0.22  0.6  2.57608582605
0.22  0.62  2.17101013505
0.22  0.64  1.82963042568
0.22  0.66  1.54193084617
0.22  0.68  1.29947048376
0.22  0.7  1.09513571401
0.22  0.72  0.922931491773
0.22  0.74  0.777805460649
0.22  0.76  0.655499720194
0.22  0.78  0.552425901993
0.22  0.8  0.465559889336
0.22  0.82  0.392353091657
0.22  0.84  0.3306576706
0.22  0.86  0.278663523881
0.22  0.88  0.234845178099
0.22  0.9  0.19791703237
0.22  0.92  0.16679563966
0.22  0.94  0.140567919175
0.22  0.96  0.118464367184
0.22  0.98  0.0998364802903
0.24  -1  0.0775275752642
0.24  -0.98  0.0919929780802
0.24  -0.96  0.109157393188
0.24  -0.94  0.129524413019
0.24  -0.92  0.153691592277
0.24  -0.9  0.182367979796
0.24  -0.88  0.216394921558
0.24  -0.86  0.256770745218
0.24  -0.84  0.304680050369
0.24  -0.82  0.361528463899
0.24  -0.8  0.428983880142
0.24  -0.78  0.509025395779
0.24  -0.76  0.604001375209
0.24  -0.74  0.716698349982
0.24  -0.72  0.850422773773
0.24  -0.7  1.00909803151
0.24  -0.68  1.19737954885
0.24  -0.66  1.42079137927
0.24  -0.64  1.68588827606
0.24  -0.62  2.00044800443
0.24  -0.6  2.37369953587
0.24  -0.58  2.81659382005
0.24  -0.56  3.34212507828
0.24  -0.54  3.96571204529
0.24  -0.52  4.70565034455
0.24  -0.5  5.58364926962
0.24  -0.48  6.62546872022
0.24  -0.46  7.86167498046
0.24  -0.44  9.32853751309
0.24  -0.42  11.0690930812
0.24  -0.4  13.1344084182
0.24  -0.38  15.585078491
0.24  -0.36  18.4930043164
0.24  -0.34  21.9435024882
0.24  -0.32  26.0378083091
0.24  -0.3  30.8960459665
0.24  -0.28  36.6607528957
0.24  -0.26  43.5010617325
0.24  -0.24  51.6176625515
0.24  -0.22  61.2486909782
0.24  -0.2  53.7215023265
0.24  -0.18  53.7239943554
0.24  -0.16  53.5798793451
0.24  -0.14  53.3037442667
0.24  -0.12  52.9238522674
0.24  -0.1  52.4797753272
0.24  -0.08  52.0188161619
0.24  -0.06  51.5913129353
0.24  -0.04  51.2451219308
0.24  -0.02  51.0198540827
0.24  6.17561557e-16  50.9417087237
0.24  0.02  51.0198540827
0.24  0.04  51.2451219308
0.24  0.06  51.5913129353
0.24  0.08  52.0188161619
0.24  0.1  52.4797753272
0.24  0.12  52.9238522674
0.24  0.14  53.3037442667
0.24  0.16  53.5798793451
0.24  0.18  53.7239943554
0.24  0.2  72.6767149288
0.24  0.22  61.2486909782
0.24  0.24  51.6176625514
0.24  0.26  43.5010617325
0.24  0.28  36.6607528957
0.24  0.3  30.8960459665
0.24  0.32  26.0378083091
0.24  0.34  21.9435024882
0.24  0.36  18.4930043164
0.24  0.38  15.585078491
0.24  0.4  13.1344084182
0.24  0.42  11.0690930812
0.24  0.44  9.32853751309
0.24  0.46  7.86167498046
0.24  0.48  6.62546872022
0.24  0.5  5.58364926962
0.24  0.52  4.70565034455
0.24  0.54  3.96571204529
0.24  0.56  3.34212507827
0.24  0.58  2.81659382005
0.24  0.6  2.37369953587
0.24  0.62  2.00044800443
0.24  0.64  1.68588827606
0.24  0.66  1.42079137927
0.24  0.68  1.19737954885
0.24  0.7  1.00909803151
0.24  0.72  0.850422773772
0.24  0.74  0.716698349982
0.24  0.76  0.604001375209
0.24  0.78  0.509025395779
0.24  0.8  0.428983880142
0.24  0.82  0.361528463899
0.24  0.84  0.304680050369
0.24  0.86  0.256770745218
0.24  0.88  0.216394921558
0.24  0.9  0.182367979796
0.24  0.92  0.153691592277
0.24  0.94  0.129524413019
0.24  0.96  0.109157393188
0.24  0.98  0.0919929780801
0.26  -1  0.0695422818489
0.26  -0.98  0.0825177569138
0.26  -0.96  0.0979142476355
0.26  -0.94  0.116183476728
0.26  -0.92  0.137861451122
0.26  -0.9  0.163584188051
0.26  -0.88  0.194106375369
0.26  -0.86  0.230323513584
0.26  -0.84  0.273298189248
0.26  -0.82  0.324291250529
0.26  -0.8  0.38479879965
0.26  -0.78  0.456596087533
0.26  -0.76  0.541789598459
0.26  -0.74  0.642878852915
0.26  -0.72  0.762829741842
0.26  -0.7  0.90516154389
0.26  -0.68  1.07405017869
0.26  -0.66  1.27445072555
0.26  -0.64  1.51224280213
0.26  -0.62  1.79440306851
0.26  -0.6  2.12920991771
0.26  -0.58  2.52648635818
0.26  -0.56  2.9978882143
0.26  -0.54  3.55724610044
0.26  -0.52  4.2209712019
0.26  -0.5  5.00853676811
0.26  -0.48  5.9430494447
0.26  -0.46  7.05192720697
0.26  -0.44  8.36770378492
0.26  -0.42  9.92898318107
0.26  -0.4  11.781572286
0.26  -0.38  13.9798248219
0.26  -0.36  16.588236044
0.26  -0.34  19.6833349887
0.26  -0.32  23.3559297835
0.26  -0.3  27.7137718973
0.26  -0.28  32.8847174954
0.26  -0.26  39.0204786544
0.26  -0.24  46.3010744926
0.26  -0.22  54.9401128098
0.26  -0.2  48.1882200418
0.26  -0.18  48.1904553932
0.26  -0.16  48.0611841419
0.26  -0.14  47.8134908097
0.26  -0.12  47.4727274568
0.26  -0.1  47.0743901732
0.26  -0.08  46.6609095235
0.26  -0.06  46.2774388709
0.26  -0.04  45.9669053308
0.26  -0.02  45.7648399349
0.26  6.17561557e-16  45.6947435006
0.26  0.02  45.7648399349
0.26  0.04  45.9669053308
0.26  0.06  46.2774388709
0.26  0.08  46.6609095235
0.26  0.1  47.0743901732
0.26  0.12  47.4727274568
0.26  0.14  47.8134908097
0.26  0.16  48.0611841419
0.26  0.18  48.1904553932
0.26  0.2  65.1910571975
0.26  0.22  54.9401128097
0.26  0.24  46.3010744925
0.26  0.26  39.0204786544
0.26  0.28  32.8847174954
0.26  0.3  27.7137718973
0.26  0.32  23.3559297835
0.26  0.34  19.6833349887
0.26  0.36  16.588236044
0.26  0.38  13.9798248219
0.26  0.4  11.781572286
0.26  0.42  9.92898318107
0.26  0.44  8.36770378491
0.26  0.46  7.05192720696
0.26  0.48  5.9430494447
0.26  0.5  5.00853676811
0.26  0.52  4.2209712019
0.26  0.54  3.55724610043
0.26  0.56  2.9978882143
0.26  0.58  2.52648635818
0.26  0.6  2.1292099177
0.26  0.62  1.79440306851
0.26  0.64  1.51224280213
0.26  0.66  1.27445072555
0.26  0.68  1.07405017869
0.26  0.7  0.905161543889
0.26  0.72  0.762829741842
0.26  0.74  0.642878852915
0.26  0.76  0.541789598459
0.26  0.78  0.456596087533
0.26  0.8  0.38479879965
0.26  0.82  0.324291250529
0.26  0.84  0.273298189248
0.26  0.86  0.230323513584
0.26  0.88  0.194106375369
0.26  0.9  0.163584188051
0.26  0.92  0.137861451122
0.26  0.94  0.116183476728
0.26  0.96  0.0979142476355
0.26  0.98  0.0825177569138
0.28  -1  0.0603234871173
0.28  -0.98  0.071578882858
0.28  -0.96  0.0849343550256
0.28  -0.94  0.100781744218
0.28  -0.92  0.119586002208
0.28  -0.9  0.141898833316
0.28  -0.88  0.168374881046
0.28  -0.86  0.199790934884
0.28  -0.84  0.237068720784
0.28  -0.82  0.281301943989
0.28  -0.8  0.333788377608
0.28  -0.78  0.396067938408
0.28  -0.76  0.469967866944
0.28  -0.74  0.557656337566
0.28  -0.72  0.661706071203
0.28  -0.7  0.785169817271
0.28  -0.68  0.931669919294
0.28  -0.66  1.10550459203
0.28  -0.64  1.31177402822
0.28  -0.62  1.5565300348
0.28  -0.6  1.8469535889
0.28  -0.58  2.19156552284
0.28  -0.56  2.6004765197
0.28  -0.54  3.08568375394
0.28  -0.52  3.66142288045
0.28  -0.5  4.34458569916
0.28  -0.48  5.15521574909
0.28  -0.46  6.11709637234
0.28  -0.44  7.25844850141
0.28  -0.42  8.61275864247
0.28  -0.4  10.2197613469
0.28  -0.38  12.1266049966
0.28  -0.36  14.3892351056
0.28  -0.34  17.074035724
0.28  -0.32  20.2597771018
0.28  -0.3  24.0399267549
0.28  -0.28  28.5253917394
0.28  -0.26  33.8477725902
0.28  -0.24  40.1632243926
0.28  -0.22  47.6570382678
0.28  -0.2  41.800202605
0.28  -0.18  41.8021416296
0.28  -0.16  41.6900070769
0.28  -0.14  41.475148934
0.28  -0.12  41.1795584935
0.28  -0.1  40.8340263459
0.28  -0.08  40.4753582955
0.28  -0.06  40.1427220007
0.28  -0.04  39.8733539916
0.28  -0.02  39.6980751687
0.28  6.17561557e-16  39.6372709898
0.28  0.02  39.6980751687
0.28  0.04  39.8733539916
0.28  0.06  40.1427220007
0.28  0.08  40.4753582955
0.28  0.1  40.8340263459
0.28  0.12  41.1795584935
0.28  0.14  41.475148934
0.28  0.16  41.6900070769
0.28  0.18  41.8021416296
0.28  0.2  56.5490776901
0.28  0.22  47.6570382678
0.28  0.24  40.1632243926
0.28  0.26  33.8477725901
0.28  0.28  28.5253917394
0.28  0.3  24.0399267549
0.28  0.32  20.2597771018
0.28  0.34  17.074035724
0.28  0.36  14.3892351056
0.28  0.38  12.1266049966
0.28  0.4  10.2197613469
0.28  0.42  8.61275864247
0.28  0.44  7.25844850141
0.28  0.46  6.11709637233
0.28  0.48  5.15521574909
0.28  0.5  4.34458569916
0.28  0.52  3.66142288045
0.28  0.54  3.08568375394
0.28  0.56  2.6004765197
0.28  0.58  2.19156552284
0.28  0.6  1.84695358889
0.28  0.62  1.5565300348
0.28  0.64  1.31177402822
0.28  0.66  1.10550459203
0.28  0.68  0.931669919294
0.28  0.7  0.785169817271
0.28  0.72  0.661706071203
0.28  0.74  0.557656337565
0.28  0.76  0.469967866944
0.28  0.78  0.396067938408
0.28  0.8  0.333788377608
0.28  0.82  0.281301943989
0.28  0.84  0.237068720784
0.28  0.86  0.199790934884
0.28  0.88  0.168374881046
0.28  0.9  0.141898833316
0.28  0.92  0.119586002208
0.28  0.94  0.100781744218
0.28  0.96  0.0849343550256
0.28  0.98  0.071578882858
0.3  -1  0.0500347087904
0.3  -0.98  0.0593703834193
0.3  -0.96  0.0704479452878
0.3  -0.94  0.0835924026331
0.3  -0.92  0.09918940502
0.3  -0.9  0.11769655804
0.3  -0.88  0.139656849153
0.3  -0.86  0.165714578576
0.3  -0.84  0.196634262616
0.3  -0.82  0.233323064071
0.3  -0.8  0.276857407775
0.3  -0.78  0.32851456218
0.3  -0.76  0.389810113558
0.3  -0.74  0.462542432286
0.3  -0.72  0.548845435827
0.3  -0.7  0.651251196434
0.3  -0.68  0.772764230457
0.3  -0.66  0.916949648836
0.3  -0.64  1.08803775506
0.3  -0.62  1.29104815946
0.3  -0.6  1.53193705115
0.3  -0.58  1.81777194871
0.3  -0.56  2.15693905637
0.3  -0.54  2.55938930963
0.3  -0.52  3.03693032907
0.3  -0.5  3.603572848
0.3  -0.48  4.27594177797
0.3  -0.46  5.07376397252
0.3  -0.44  6.02044699989
0.3  -0.42  7.14376590532
0.3  -0.4  8.47667811225
0.3  -0.38  10.0582903711
0.3  -0.36  11.9350061249
0.3  -0.34  14.1618869557
0.3  -0.32  16.8042680536
0.3  -0.3  19.9396751084
0.3  -0.28  23.6600988606
0.3  -0.26  28.0746940484
0.3  -0.24  33.3129819346
0.3  -0.22  39.5286503731
0.3  -0.2  34.6707570246
0.3  -0.18  34.672365329
0.3  -0.16  34.5793564538
0.3  -0.14  34.4011445313
0.3  -0.12  34.1559700177
0.3  -0.1  33.8693718581
0.3  -0.08  33.5718782564
0.3  -0.06  33.2959764321
0.3  -0.04  33.0725518501
0.3  -0.02  32.9271685959
0.3  6.17561557e-16  32.8767351822
0.3  0.02  32.9271685959
0.3  0.04  33.0725518501
0.3  0.06  33.2959764321
0.3  0.08  33.5718782564
0.3  0.1  33.8693718581
0.3  0.12  34.1559700177
0.3  0.14  34.4011445313
0.3  0.16  34.5793564538
0.3  0.18  34.672365329
0.3  0.2  46.9040629082
0.3  0.22  39.5286503731
0.3  0.24  33.3129819345
0.3  0.26  28.0746940484
0.3  0.28  23.6600988606
0.3  0.3  19.9396751084
0.3  0.32  16.8042680536
0.3  0.34  14.1618869557
0.3  0.36  11.9350061249
0.3  0.38  10.0582903711
0.3  0.4  8.47667811225
0.3  0.42  7.14376590531
0.3  0.44  6.02044699989
0.3  0.46  5.07376397252
0.3  0.48  4.27594177797
0.3  0.5  3.603572848
0.3  0.52  3.03693032907
0.3  0.54  2.55938930963
0.3  0.56  2.15693905637
0.3  0.58  1.81777194871
0.3  0.6  1.53193705115
0.3  0.62  1.29104815946
0.3  0.64  1.08803775506
0.3  0.66  0.916949648835
0.3  0.68  0.772764230457
0.3  0.7  0.651251196434
0.3  0.72  0.548845435827
0.3  0.74  0.462542432286
0.3  0.76  0.389810113558
0.3  0.78  0.328514562179
0.3  0.8  0.276857407775
0.3  0.82  0.233323064071
0.3  0.84  0.196634262616
0.3  0.86  0.165714578576
0.3  0.88  0.139656849153
0.3  0.9  0.11769655804
0.3  0.92  0.0991894050199
0.3  0.94  0.0835924026331
0.3  0.96  0.0704479452878
0.3  0.98  0.0593703834193
0.32  -1  0.0403495010359
0.32  -0.98  0.0478780711469
0.32  -0.96  0.0568113517613
0.32  -0.94  0.0674114393424
0.32  -0.92  0.0799893333519
0.32  -0.9  0.0949140607663
0.32  -0.88  0.11262350308
0.32  -0.86  0.133637243457
0.32  -0.84  0.158571810947
0.32  -0.82  0.188158769043
0.32  -0.8  0.223266179256
0.32  -0.78  0.264924069459
0.32  -0.76  0.31435465422
0.32  -0.74  0.373008193749
0.32  -0.72  0.442605543568
0.32  -0.7  0.525188643252
0.32  -0.68  0.623180425571
0.32  -0.66  0.739455903712
0.32  -0.64  0.877426522235
0.32  -0.62  1.04114024658
0.32  -0.6  1.23540032763
0.32  -0.58  1.46590622591
0.32  -0.56  1.73942082992
0.32  -0.54  2.06396887474
0.32  -0.52  2.44907238238
0.32  -0.5  2.90603003152
0.32  -0.48  3.44824865319
0.32  -0.46  4.09163657818
0.32  -0.44  4.85507037677
0.32  -0.42  5.76094868473
0.32  -0.4  6.83584936417
0.32  -0.38  8.11130928027
0.32  -0.36  9.62474957173
0.32  -0.34  11.4205735619
0.32  -0.32  13.5514695224
0.32  -0.3  16.079956512
0.32  -0.28  19.0802186435
0.32  -0.26  22.640281596
0.32  -0.24  26.8645952294
0.32  -0.22  31.8770980732
0.32  -0.2  27.9595460891
0.32  -0.18  27.9608430744
0.32  -0.16  27.885837907
0.32  -0.14  27.7421224278
0.32  -0.12  27.5444062917
0.32  -0.1  27.3132848759
0.32  -0.08  27.0733770463
0.32  -0.06  26.8508814784
0.32  -0.04  26.6707051444
0.32  -0.02  26.5534636953
0.32  6.17561557e-16  26.5127926665
0.32  0.02  26.5534636953
0.32  0.04  26.6707051444
0.32  0.06  26.8508814784
0.32  0.08  27.0733770463
0.32  0.1  27.3132848759
0.32  0.12  27.5444062917
0.32  0.14  27.7421224278
0.32  0.16  27.885837907
0.32  0.18  27.9608430744
0.32  0.2  37.8248535997
0.32  0.22  31.8770980732
0.32  0.24  26.8645952294
0.32  0.26  22.640281596
0.32  0.28  19.0802186435
0.32  0.3  16.079956512
0.32  0.32  13.5514695224
0.32  0.34  11.4205735619
0.32  0.36  9.62474957173
0.32  0.38  8.11130928026
0.32  0.4  6.83584936416
0.32  0.42  5.76094868472
0.32  0.44  4.85507037677
0.32  0.46  4.09163657817
0.32  0.48  3.44824865319
0.32  0.5  2.90603003152
0.32  0.52  2.44907238238
0.32  0.54  2.06396887474
0.32  0.56  1.73942082992
0.32  0.58  1.46590622591
0.32  0.6  1.23540032763
0.32  0.62  1.04114024658
0.32  0.64  0.877426522235
0.32  0.66  0.739455903711
0.32  0.68  0.623180425571
0.32  0.7  0.525188643252
0.32  0.72  0.442605543568
0.32  0.74  0.373008193749
0.32  0.76  0.31435465422
0.32  0.78  0.264924069459
0.32  0.8  0.223266179256
0.32  0.82  0.188158769043
0.32  0.84  0.158571810947
0.32  0.86  0.133637243457
0.32  0.88  0.11262350308
0.32  0.9  0.0949140607663
0.32  0.92  0.0799893333519
0.32  0.94  0.0674114393423
0.32  0.96  0.0568113517613
0.32  0.98  0.0478780711468
0.34  -1  0.0325390568508
0.34  -0.98  0.0386103232744
0.34  -0.96  0.0458143906932
0.34  -0.94  0.0543626216147
0.34  -0.92  0.0645058154023
0.34  -0.9  0.0765415665604
0.34  -0.88  0.0908229959575
0.34  -0.86  0.107769111156
0.34  -0.84  0.127877099813
0.34  -0.82  0.151736916832
0.34  -0.8  0.180048593245
0.34  -0.78  0.213642774656
0.34  -0.76  0.25350509182
0.34  -0.74  0.300805078393
0.34  -0.72  0.356930484266
0.34  -0.7  0.423527991213
0.34  -0.68  0.502551525431
0.34  -0.66  0.596319584427
0.34  -0.64  0.707583260176
0.34  -0.62  0.839606954318
0.34  -0.6  0.996264153514
0.34  -0.58  1.18215107494
0.34  -0.56  1.40272151624
0.34  -0.54  1.66444686624
0.34  -0.52  1.97500597123
0.34  -0.5  2.3435104271
0.34  -0.48  2.78077190749
0.34  -0.46  3.29961937105
