0.46  -0.88  0.00961206795255
0.46  -0.86  0.0116443181893
0.46  -0.84  0.0141062409009
0.46  -0.82  0.0170886804292
0.46  -0.8  0.0207016880588
0.46  -0.78  0.0250785828817
0.46  -0.76  0.0303808712395
0.46  -0.74  0.0368042062674
0.46  -0.72  0.0445856074467
0.46  -0.7  0.0540122065654
0.46  -0.68  0.0654318428105
0.46  -0.66  0.0792658979484
0.46  -0.64  0.0960248452081
0.46  -0.62  0.116327085618
0.46  -0.6  0.140921766852
0.46  -0.58  0.170716426593
0.46  -0.56  0.206810480451
0.46  -0.54  0.250535790128
0.46  -0.52  0.303505808788
0.46  -0.5  0.36767511708
0.46  -0.48  0.445411546685
0.46  -0.46  0.539583552717
0.46  -0.44  0.653666059019
0.46  -0.42  0.791868681989
0.46  -0.4  0.959291064396
0.46  -0.38  1.16211105094
0.46  -0.36  1.40781264919
0.46  -0.34  1.70546218764
0.46  -0.32  2.06604286099
0.46  -0.3  2.50286000733
0.46  -0.28  3.03203207182
0.46  -0.26  3.67308537339
0.46  -0.24  4.44967462105
0.46  -0.22  5.39045576688
0.46  -0.2  4.78676438774
0.46  -0.18  4.78880001076
0.46  -0.16  4.81489893098
0.46  -0.14  4.8619287886
0.46  -0.12  4.92437053582
0.46  -0.1  4.99513538501
0.46  -0.08  5.066501017
0.46  -0.06  5.13099395167
0.46  -0.04  5.18211522737
0.46  -0.02  5.21487564646
0.46  6.17561557e-16  5.22615006951
0.46  0.02  5.21487564646
0.46  0.04  5.18211522737
0.46  0.06  5.13099395167
0.46  0.08  5.066501017
0.46  0.1  4.99513538501
0.46  0.12  4.92437053582
0.46  0.14  4.8619287886
0.46  0.16  4.81489893098
0.46  0.18  4.78880001076
0.46  0.2  6.53014340358
0.46  0.22  5.39045576688
0.46  0.24  4.44967462105
0.46  0.26  3.67308537339
0.46  0.28  3.03203207182
0.46  0.3  2.50286000733
0.46  0.32  2.06604286099
0.46  0.34  1.70546218764
0.46  0.36  1.40781264918
0.46  0.38  1.16211105094
0.46  0.4  0.959291064396
0.46  0.42  0.791868681989
0.46  0.44  0.653666059019
0.46  0.46  0.539583552717
0.46  0.48  0.445411546684
0.46  0.5  0.36767511708
0.46  0.52  0.303505808788
0.46  0.54  0.250535790128
0.46  0.56  0.206810480451
0.46  0.58  0.170716426593
0.46  0.6  0.140921766852
0.46  0.62  0.116327085618
0.46  0.64  0.0960248452081
0.46  0.66  0.0792658979484
0.46  0.68  0.0654318428105
0.46  0.7  0.0540122065654
0.46  0.72  0.0445856074467
0.46  0.74  0.0368042062674
0.46  0.76  0.0303808712395
0.46  0.78  0.0250785828817
0.46  0.8  0.0207016880588
0.46  0.82  0.0170886804292
0.46  0.84  0.0141062409009
0.46  0.86  0.0116443181893
0.46  0.88  0.00961206795255
0.46  0.9  0.00793450065708
0.46  0.92  0.00654971448266
0.46  0.94  0.00540661116036
0.46  0.96  0.00446301045895
0.46  0.98  0.00368409374486
0.48  -1  0.00241826833775
0.48  -0.98  0.00292955544332
0.48  -0.96  0.00354894242359
0.48  -0.94  0.00429928450568
0.48  -0.92  0.00520826912769
0.48  -0.9  0.00630943759843
0.48  -0.88  0.00764342276339
0.48  -0.86  0.00925944834679
0.48  -0.84  0.0112171452948
0.48  -0.82  0.013588752143
0.48  -0.8  0.0164617806002
0.48  -0.78  0.0199422447093
0.48  -0.76  0.024158572739
0.48  -0.74  0.0292663461559
0.48  -0.72  0.0354540405416
0.48  -0.7  0.0429499802957
0.48  -0.68  0.0520307637501
0.48  -0.66  0.0630314695787
0.48  -0.64  0.0763580211187
0.48  -0.62  0.0925021648414
0.48  -0.6  0.112059615676
0.48  -0.58  0.135752038744
0.48  -0.56  0.164453678625
0.48  -0.54  0.199223618764
0.48  -0.52  0.241344861394
0.48  -0.5  0.292371669998
0.48  -0.48  0.354186921255
0.48  -0.46  0.429071582718
0.48  -0.44  0.519788879961
0.48  -0.42  0.629686258921
0.48  -0.4  0.76281890583
0.48  -0.38  0.924099382585
0.48  -0.36  1.11947889908
0.48  -0.34  1.35616691137
0.48  -0.32  1.64289714885
0.48  -0.3  1.99024988671
0.48  -0.28  2.41104235545
0.48  -0.26  2.9208016936
0.48  -0.24  3.53833789525
0.48  -0.22  4.28643789423
0.48  -0.2  3.80638839268
0.48  -0.18  3.80800710027
0.48  -0.16  3.82876070728
0.48  -0.14  3.86615839174
0.48  -0.12  3.91581146062
0.48  -0.1  3.97208297907
0.48  -0.08  4.02883223415
0.48  -0.06  4.0801163873
0.48  -0.04  4.12076752754
0.48  -0.02  4.14681829354
0.48  6.17561557e-16  4.15578360488
0.48  0.02  4.14681829354
0.48  0.04  4.12076752754
0.48  0.06  4.0801163873
0.48  0.08  4.02883223415
0.48  0.1  3.97208297907
0.48  0.12  3.91581146062
0.48  0.14  3.86615839174
0.48  0.16  3.82876070728
0.48  0.18  3.80800710027
0.48  0.2  5.19270639633
0.48  0.22  4.28643789422
0.48  0.24  3.53833789525
0.48  0.26  2.9208016936
0.48  0.28  2.41104235545
0.48  0.3  1.99024988671
0.48  0.32  1.64289714885
0.48  0.34  1.35616691137
0.48  0.36  1.11947889908
0.48  0.38  0.924099382584
0.48  0.4  0.762818905829
0.48  0.42  0.629686258921
0.48  0.44  0.519788879961
0.48  0.46  0.429071582718
0.48  0.48  0.354186921255
0.48  0.5  0.292371669998
0.48  0.52  0.241344861394
0.48  0.54  0.199223618764
0.48  0.56  0.164453678625
0.48  0.58  0.135752038744
0.48  0.6  0.112059615676
0.48  0.62  0.0925021648414
0.48  0.64  0.0763580211187
0.48  0.66  0.0630314695787
0.48  0.68  0.0520307637501
0.48  0.7  0.0429499802957
0.48  0.72  0.0354540405416
0.48  0.74  0.0292663461559
0.48  0.76  0.024158572739
0.48  0.78  0.0199422447093
0.48  0.8  0.0164617806002
0.48  0.82  0.013588752143
0.48  0.84  0.0112171452948
0.48  0.86  0.00925944834679
0.48  0.88  0.00764342276339
0.48  0.9  0.00630943759843
0.48  0.92  0.00520826912769
0.48  0.94  0.00429928450567
0.48  0.96  0.00354894242359
0.48  0.98  0.00292955544332
0.5  -1  0.00192298341543
0.5  -0.98  0.00232955393913
0.5  -0.96  0.00282208442974
0.5  -0.94  0.0034187491411
0.5  -0.92  0.0041415648542
0.5  -0.9  0.00501720329092
0.5  -0.88  0.00607797529401
0.5  -0.86  0.00736302308928
0.5  -0.84  0.00891976462403
0.5  -0.82  0.0108056432777
0.5  -0.8  0.0130902475083
0.5  -0.78  0.0158578786497
0.5  -0.76  0.0192106616096
0.5  -0.74  0.0232723132539
0.5  -0.72  0.0281927075284
0.5  -0.7  0.0341534057708
0.5  -0.68  0.0413743562787
0.5  -0.66  0.0501220103485
0.5  -0.64  0.0607191542619
0.5  -0.62  0.0735568200207
0.5  -0.6  0.0891087143312
0.5  -0.58  0.107948698265
0.5  -0.56  0.130771962592
0.5  -0.54  0.158420680147
0.5  -0.52  0.191915081802
0.5  -0.5  0.232491102734
0.5  -0.48  0.281645988125
0.5  -0.46  0.341193541146
0.5  -0.44  0.413331051847
0.5  -0.42  0.500720376613
0.5  -0.4  0.606586160018
0.5  -0.38  0.734834823407
0.5  -0.36  0.89019871089
0.5  -0.34  1.07841071167
0.5  -0.32  1.30641580225
0.5  -0.3  1.58262731433
0.5  -0.28  1.91723738473
0.5  -0.26  2.32259304267
0.5  -0.24  2.81365181215
0.5  -0.22  3.40853364087
0.5  -0.2  3.02680295547
0.5  -0.18  3.02809013597
0.5  -0.16  3.04459320202
0.5  -0.14  3.07433147625
0.5  -0.12  3.11381511274
0.5  -0.1  3.15856167582
0.5  -0.08  3.20368813042
0.5  -0.06  3.24446878923
0.5  -0.04  3.27679417979
0.5  -0.02  3.29750949504
0.5  6.17561557e-16  3.30463862325
0.5  0.02  3.29750949504
0.5  0.04  3.27679417979
0.5  0.06  3.24446878923
0.5  0.08  3.20368813042
0.5  0.1  3.15856167582
0.5  0.12  3.11381511274
0.5  0.14  3.07433147625
0.5  0.16  3.04459320202
0.5  0.18  3.02809013597
0.5  0.2  4.12918952188
0.5  0.22  3.40853364087
0.5  0.24  2.81365181214
0.5  0.26  2.32259304267
0.5  0.28  1.91723738473
0.5  0.3  1.58262731433
0.5  0.32  1.30641580224
0.5  0.34  1.07841071167
0.5  0.36  0.89019871089
0.5  0.38  0.734834823407
0.5  0.4  0.606586160017
0.5  0.42  0.500720376613
0.5  0.44  0.413331051847
0.5  0.46  0.341193541146
0.5  0.48  0.281645988124
0.5  0.5  0.232491102733
0.5  0.52  0.191915081802
0.5  0.54  0.158420680147
0.5  0.56  0.130771962592
0.5  0.58  0.107948698265
0.5  0.6  0.0891087143311
0.5  0.62  0.0735568200206
0.5  0.64  0.0607191542619
0.5  0.66  0.0501220103485
0.5  0.68  0.0413743562787
0.5  0.7  0.0341534057708
0.5  0.72  0.0281927075284
0.5  0.74  0.0232723132539
0.5  0.76  0.0192106616096
0.5  0.78  0.0158578786497
0.5  0.8  0.0130902475083
0.5  0.82  0.0108056432777
0.5  0.84  0.00891976462403
0.5  0.86  0.00736302308928
0.5  0.88  0.00607797529401
0.5  0.9  0.00501720329092
0.5  0.92  0.0041415648542
0.5  0.94  0.0034187491411
0.5  0.96  0.00282208442974
0.5  0.98  0.00232955393913
0.52  -1  0.0015291376719
0.52  -0.98  0.0018524385902
0.52  -0.96  0.00224409403647
0.52  -0.94  0.00271855600027
0.52  -0.92  0.00329333201127
0.52  -0.9  0.00398963116279
0.52  -0.88  0.00483314672211
0.52  -0.86  0.00585500420574
0.52  -0.84  0.00709290990326
0.52  -0.82  0.00859254223019
0.52  -0.8  0.0104092372502
0.52  -0.78  0.0126100305625
0.52  -0.76  0.0152761308983
0.52  -0.74  0.0185059167038
0.52  -0.72  0.0224185662803
0.52  -0.7  0.0271584554338
0.52  -0.68  0.0329004849074
0.52  -0.66  0.0398565341751
0.52  -0.64  0.0482832797427
0.52  -0.62  0.0584916664472
0.52  -0.6  0.0708583812451
0.52  -0.58  0.0858397528681
0.52  -0.56  0.103988590241
0.52  -0.54  0.125974580996
0.52  -0.52  0.152609002779
0.52  -0.5  0.184874659198
0.52  -0.48  0.223962145032
0.52  -0.46  0.271313778887
0.52  -0.44  0.328676824394
0.52  -0.42  0.398167963813
0.52  -0.4  0.482351403083
0.52  -0.38  0.584333490388
0.52  -0.36  0.707877339647
0.52  -0.34  0.857541688486
0.52  -0.32  1.03884911453
0.52  -0.3  1.25848981718
0.52  -0.28  1.52456848429
0.52  -0.26  1.84690335317
0.52  -0.24  2.23738850114
0.52  -0.22  2.71043273404
0.52  -0.2  2.40688421309
0.52  -0.18  2.40790776648
0.52  -0.16  2.42103084377
0.52  -0.14  2.44467842963
0.52  -0.12  2.47607543259
0.52  -0.1  2.51165746349
0.52  -0.08  2.54754158041
0.52  -0.06  2.57996996288
0.52  -0.04  2.60567479843
0.52  -0.02  2.62214741524
0.52  6.17561557e-16  2.62781642852
0.52  0.02  2.62214741524
0.52  0.04  2.60567479843
0.52  0.06  2.57996996288
0.52  0.08  2.54754158041
0.52  0.1  2.51165746349
0.52  0.12  2.47607543259
0.52  0.14  2.44467842963
0.52  0.16  2.42103084377
0.52  0.18  2.40790776648
0.52  0.2  3.28349126762
0.52  0.22  2.71043273404
0.52  0.24  2.23738850114
0.52  0.26  1.84690335317
0.52  0.28  1.52456848428
0.52  0.3  1.25848981718
0.52  0.32  1.03884911453
0.52  0.34  0.857541688485
0.52  0.36  0.707877339647
0.52  0.38  0.584333490388
0.52  0.4  0.482351403083
0.52  0.42  0.398167963813
0.52  0.44  0.328676824394
0.52  0.46  0.271313778887
0.52  0.48  0.223962145032
0.52  0.5  0.184874659198
0.52  0.52  0.152609002779
0.52  0.54  0.125974580996
0.52  0.56  0.103988590241
0.52  0.58  0.0858397528681
0.52  0.6  0.0708583812451
0.52  0.62  0.0584916664472
0.52  0.64  0.0482832797427
0.52  0.66  0.0398565341751
0.52  0.68  0.0329004849074
0.52  0.7  0.0271584554338
0.52  0.72  0.0224185662802
0.52  0.74  0.0185059167038
0.52  0.76  0.0152761308983
0.52  0.78  0.0126100305625
0.52  0.8  0.0104092372502
0.52  0.82  0.00859254223019
0.52  0.84  0.00709290990326
0.52  0.86  0.00585500420573
0.52  0.88  0.00483314672211
0.52  0.9  0.00398963116279
0.52  0.92  0.00329333201127
0.52  0.94  0.00271855600027
0.52  0.96  0.00224409403647
0.52  0.98  0.0018524385902
0.54  -1  0.00121595537479
0.54  -0.98  0.00147304111436
0.54  -0.96  0.00178448170843
0.54  -0.94  0.00216176923828
0.54  -0.92  0.00261882552086
0.54  -0.9  0.0031725158205
0.54  -0.88  0.00384327117297
0.54  -0.86  0.00465584228564
0.54  -0.84  0.00564021283254
0.54  -0.82  0.00683270584456
0.54  -0.8  0.00827732402027
0.54  -0.78  0.0100273734147
0.54  -0.76  0.0121474304199
0.54  -0.74  0.0147157246172
0.54  -0.72  0.0178270254304
0.54  -0.7  0.0215961390937
0.54  -0.68  0.0261621449733
0.54  -0.66  0.0316935275622
0.54  -0.64  0.0383943935164
0.54  -0.62  0.0465120031401
0.54  -0.6  0.05634589423
0.54  -0.58  0.0682589349467
0.54  -0.56  0.08269071356
0.54  -0.54  0.100173759148
0.54  -0.52  0.12135319179
0.54  -0.5  0.147010527336
0.54  -0.48  0.178092515152
0.54  -0.46  0.215746072937
0.54  -0.44  0.261360607704
0.54  -0.42  0.316619284559
0.54  -0.4  0.383561135073
0.54  -0.38  0.464656297052
0.54  -0.36  0.562897162011
0.54  -0.34  0.681908793684
0.54  -0.32  0.826082691982
0.54  -0.3  1.00073883826
0.54  -0.28  1.21232200133
0.54  -0.26  1.46863954781
0.54  -0.24  1.77914953209
0.54  -0.22  2.15530969613
0.54  -0.2  1.91393087044
0.54  -0.18  1.91474479012
0.54  -0.16  1.9251801333
0.54  -0.14  1.94398446312
0.54  -0.12  1.9689510539
0.54  -0.1  1.99724553811
0.54  -0.08  2.02578023819
0.54  -0.06  2.0515669719
0.54  -0.04  2.07200720663
0.54  -0.02  2.08510607099
0.54  6.17561557e-16  2.0896140151
0.54  0.02  2.08510607099
0.54  0.04  2.07200720663
0.54  0.06  2.0515669719
0.54  0.08  2.02578023819
0.54  0.1  1.99724553811
0.54  0.12  1.9689510539
0.54  0.14  1.94398446312
0.54  0.16  1.9251801333
0.54  0.18  1.91474479012
0.54  0.2  2.61100025741
0.54  0.22  2.15530969613
0.54  0.24  1.77914953209
0.54  0.26  1.46863954781
0.54  0.28  1.21232200133
0.54  0.3  1.00073883826
0.54  0.32  0.826082691981
0.54  0.34  0.681908793684
0.54  0.36  0.562897162011
0.54  0.38  0.464656297052
0.54  0.4  0.383561135073
0.54  0.42  0.316619284558
0.54  0.44  0.261360607704
0.54  0.46  0.215746072937
0.54  0.48  0.178092515152
0.54  0.5  0.147010527336
0.54  0.52  0.12135319179
0.54  0.54  0.100173759148
0.54  0.56  0.08269071356
0.54  0.58  0.0682589349467
0.54  0.6  0.05634589423
0.54  0.62  0.0465120031401
0.54  0.64  0.0383943935164
0.54  0.66  0.0316935275622
0.54  0.68  0.0261621449733
0.54  0.7  0.0215961390937
0.54  0.72  0.0178270254304
0.54  0.74  0.0147157246172
0.54  0.76  0.0121474304199
0.54  0.78  0.0100273734147
0.54  0.8  0.00827732402027
0.54  0.82  0.00683270584456
0.54  0.84  0.00564021283254
0.54  0.86  0.00465584228563
0.54  0.88  0.00384327117297
0.54  0.9  0.0031725158205
0.54  0.92  0.00261882552086
0.54  0.94  0.00216176923828
0.54  0.96  0.00178448170843
0.54  0.98  0.00147304111436
0.56  -1  0.000966915864187
0.56  -0.98  0.00117134793891
0.56  -0.96  0.00141900246424
0.56  -0.94  0.00171901783119
0.56  -0.92  0.00208246453295
0.56  -0.9  0.00252275366335
0.56  -0.88  0.00305613178292
0.56  -0.86  0.00370228041296
0.56  -0.84  0.00448504227888
0.56  -0.82  0.00543330110083
0.56  -0.8  0.00658204739592
0.56  -0.78  0.00797366961966
0.56  -0.76  0.00965951828953
0.56  -0.74  0.0117018008065
0.56  -0.72  0.0141758768926
0.56  -0.7  0.0171730393465
0.56  -0.68  0.0208038827248
0.56  -0.66  0.0252023842546
0.56  -0.64  0.0305308475594
0.56  -0.62  0.0369858916236
0.56  -0.6  0.0448057059841
0.56  -0.58  0.0542788398659
0.56  -0.56  0.0657548495772
0.56  -0.54  0.0796571970515
0.56  -0.52  0.0964988754882
0.56  -0.5  0.116901338676
0.56  -0.48  0.141617432484
0.56  -0.46  0.171559174689
0.56  -0.44  0.207831408209
0.56  -0.42  0.251772569531
0.56  -0.4  0.305004076692
0.56  -0.38  0.369490159202
0.56  -0.36  0.44761033763
0.56  -0.34  0.542247227332
0.56  -0.32  0.656892906241
0.56  -0.3  0.795777771687
0.56  -0.28  0.964026641016
0.56  -0.26  1.16784785609
0.56  -0.24  1.41476236957
0.56  -0.22  1.71388126623
0.56  -0.2  1.52193917635
0.56  -0.18  1.52258639735
0.56  -0.16  1.53088448054
0.56  -0.14  1.54583750036
0.56  -0.12  1.56569069005
0.56  -0.1  1.58819018815
0.56  -0.08  1.61088070358
0.56  -0.06  1.63138606292
0.56  -0.04  1.64763993839
0.56  -0.02  1.65805602767
0.56  6.17561557e-16  1.6616407009
0.56  0.02  1.65805602767
0.56  0.04  1.64763993839
0.56  0.06  1.63138606292
0.56  0.08  1.61088070358
0.56  0.1  1.58819018815
0.56  0.12  1.56569069005
0.56  0.14  1.54583750036
0.56  0.16  1.53088448054
0.56  0.18  1.52258639735
0.56  0.2  2.07624195971
0.56  0.22  1.71388126623
0.56  0.24  1.41476236957
0.56  0.26  1.16784785609
0.56  0.28  0.964026641016
0.56  0.3  0.795777771687
0.56  0.32  0.656892906241
0.56  0.34  0.542247227332
0.56  0.36  0.44761033763
0.56  0.38  0.369490159201
0.56  0.4  0.305004076692
0.56  0.42  0.251772569531
0.56  0.44  0.207831408209
0.56  0.46  0.171559174689
0.56  0.48  0.141617432484
0.56  0.5  0.116901338676
0.56  0.52  0.0964988754882
0.56  0.54  0.0796571970515
0.56  0.56  0.0657548495772
0.56  0.58  0.0542788398659
0.56  0.6  0.0448057059841
0.56  0.62  0.0369858916236
0.56  0.64  0.0305308475594
0.56  0.66  0.0252023842546
0.56  0.68  0.0208038827248
0.56  0.7  0.0171730393465
0.56  0.72  0.0141758768926
0.56  0.74  0.0117018008065
0.56  0.76  0.00965951828953
0.56  0.78  0.00797366961966
0.56  0.8  0.00658204739592
0.56  0.82  0.00543330110083
0.56  0.84  0.00448504227888
0.56  0.86  0.00370228041296
0.56  0.88  0.00305613178292
0.56  0.9  0.00252275366335
0.56  0.92  0.00208246453295
0.56  0.94  0.00171901783119
0.56  0.96  0.00141900246424
0.56  0.98  0.00117134793891
0.58  -1  0.000768882072318
0.58  -0.98  0.000931444465887
0.58  -0.96  0.00112837693096
0.58  -0.94  0.00136694622702
0.58  -0.92  0.00165595550236
0.58  -0.9  0.00200606912811
0.58  -0.88  0.00243020621086
0.58  -0.86  0.00294401730456
0.58  -0.84  0.00356646191209
0.58  -0.82  0.00432050808624
0.58  -0.8  0.00523397994522
0.58  -0.78  0.00634058437576
0.58  -0.76  0.00768115480894
0.58  -0.74  0.00930515796376
0.58  -0.72  0.0112725191568
0.58  -0.7  0.0136558335319
0.58  -0.68  0.0165430448027
0.58  -0.66  0.0200406903545
0.58  -0.64  0.024277832447
0.58  -0.62  0.0294108205805
0.58  -0.6  0.0356290607536
0.58  -0.58  0.0431620044979
0.58  -0.56  0.0522876155832
0.58  -0.54  0.0633426268122
0.58  -0.52  0.0767349653779
0.58  -0.5  0.0929588052766
0.58  -0.48  0.112612802207
0.58  -0.46  0.136422183818
0.58  -0.44  0.165265510429
0.58  -0.42  0.200207093693
0.58  -0.4  0.24253626943
0.58  -0.38  0.293814973805
0.58  -0.36  0.355935378387
0.58  -0.34  0.431189710814
0.58  -0.32  0.522354837425
0.58  -0.3  0.632794728953
0.58  -0.28  0.766584590209
0.58  -0.26  0.928661234137
0.58  -0.24  1.125005249
0.58  -0.22  1.36286168062
0.58  -0.2  1.21023120128
0.58  -0.18  1.21074586511
0.58  -0.16  1.21734442
0.58  -0.14  1.22923491564
0.58  -0.12  1.2450219786
0.58  -0.1  1.26291336023
0.58  -0.08  1.28095663697
0.58  -0.06  1.29726229889
0.58  -0.04  1.31018722226
0.58  -0.02  1.31846999495
0.58  6.17561557e-16  1.32132049217
0.58  0.02  1.31846999495
0.58  0.04  1.31018722226
0.58  0.06  1.29726229889
0.58  0.08  1.28095663697
0.58  0.1  1.26291336023
0.58  0.12  1.2450219786
0.58  0.14  1.22923491564
0.58  0.16  1.21734442
0.58  0.18  1.21074586511
0.58  0.2  1.65100737276
0.58  0.22  1.36286168062
0.58  0.24  1.125005249
0.58  0.26  0.928661234137
0.58  0.28  0.766584590208
0.58  0.3  0.632794728953
0.58  0.32  0.522354837425
0.58  0.34  0.431189710813
0.58  0.36  0.355935378387
0.58  0.38  0.293814973805
0.58  0.4  0.24253626943
0.58  0.42  0.200207093692
0.58  0.44  0.165265510429
0.58  0.46  0.136422183818
0.58  0.48  0.112612802207
0.58  0.5  0.0929588052766
0.58  0.52  0.0767349653778
0.58  0.54  0.0633426268122
0.58  0.56  0.0522876155832
0.58  0.58  0.0431620044978
0.58  0.6  0.0356290607536
0.58  0.62  0.0294108205805
0.58  0.64  0.024277832447
0.58  0.66  0.0200406903545
0.58  0.68  0.0165430448027
0.58  0.7  0.0136558335319
0.58  0.72  0.0112725191568
0.58  0.74  0.00930515796375
0.58  0.76  0.00768115480894
0.58  0.78  0.00634058437576
0.58  0.8  0.00523397994522
0.58  0.82  0.00432050808624
0.58  0.84  0.00356646191209
0.58  0.86  0.00294401730456
0.58  0.88  0.00243020621086
0.58  0.9  0.00200606912811
0.58  0.92  0.00165595550236
0.58  0.94  0.00136694622702
0.58  0.96  0.00112837693096
0.58  0.98  0.000931444465887
0.6  -1  0.000611407530922
0.6  -0.98  0.000740675562069
0.6  -0.96  0.000897274339129
0.6  -0.94  0.00108698231843
0.6  -0.92  0.0013167996777
0.6  -0.9  0.00159520662093
0.6  -0.88  0.00193247629579
0.6  -0.86  0.00234105387026
0.6  -0.84  0.00283601575626
0.6  -0.82  0.00343562592554
0.6  -0.8  0.00416200984574
0.6  -0.78  0.00504197090472
0.6  -0.76  0.00610797944892
0.6  -0.74  0.00739937093123
0.6  -0.72  0.00896379737945
0.6  -0.7  0.0108589857444
0.6  -0.68  0.0131548680102
0.6  -0.66  0.0159361616674
0.6  -0.64  0.0193054957672
0.6  -0.62  0.0233871979084
0.6  -0.6  0.0283318818954
0.6  -0.58  0.0343220053501
0.6  -0.56  0.0415786023533
0.6  -0.54  0.0503694395482
0.6  -0.52  0.0610188966633
0.6  -0.5  0.0739199360447
0.6  -0.48  0.0895486028696
0.6  -0.46  0.108481591097
0.6  -0.44  0.131417523331
0.6  -0.42  0.159202729826
0.6  -0.4  0.192862477862
0.6  -0.38  0.233638803855
0.6  -0.36  0.283036344197
0.6  -0.34  0.342877855966
0.6  -0.32  0.415371476217
0.6  -0.3  0.50319220169
0.6  -0.28  0.609580595538
0.6  -0.26  0.738462363304
0.6  -0.24  0.894593210494
0.6  -0.22  1.08373432693
0.6  -0.2  0.962364057193
0.6  -0.18  0.962773312855
0.6  -0.16  0.968020419401
0.6  -0.14  0.977475625657
0.6  -0.12  0.990029344272
0.6  -0.1  1.00425639659
0.6  -0.08  1.01860423441
0.6  -0.06  1.03157033787
0.6  -0.04  1.04184811098
0.6  -0.02  1.0484344911
0.6  6.17561557e-16  1.05070117871
0.6  0.02  1.0484344911
0.6  0.04  1.04184811098
0.6  0.06  1.03157033787
0.6  0.08  1.01860423441
0.6  0.1  1.00425639659
0.6  0.12  0.990029344272
0.6  0.14  0.977475625657
0.6  0.16  0.968020419401
0.6  0.18  0.962773312855
0.6  0.2  1.31286497326
0.6  0.22  1.08373432693
0.6  0.24  0.894593210494
0.6  0.26  0.738462363304
0.6  0.28  0.609580595538
0.6  0.3  0.50319220169
0.6  0.32  0.415371476217
0.6  0.34  0.342877855966
0.6  0.36  0.283036344197
0.6  0.38  0.233638803855
0.6  0.4  0.192862477862
0.6  0.42  0.159202729826
0.6  0.44  0.131417523331
0.6  0.46  0.108481591097
0.6  0.48  0.0895486028696
0.6  0.5  0.0739199360446
0.6  0.52  0.0610188966633
0.6  0.54  0.0503694395482
0.6  0.56  0.0415786023533
0.6  0.58  0.0343220053501
0.6  0.6  0.0283318818954
0.6  0.62  0.0233871979084
0.6  0.64  0.0193054957671
0.6  0.66  0.0159361616674
0.6  0.68  0.0131548680102
0.6  0.7  0.0108589857444
0.6  0.72  0.00896379737945
0.6  0.74  0.00739937093123
0.6  0.76  0.00610797944892
0.6  0.78  0.00504197090471
0.6  0.8  0.00416200984574
0.6  0.82  0.00343562592553
0.6  0.84  0.00283601575626
0.6  0.86  0.00234105387026
0.6  0.88  0.00193247629579
0.6  0.9  0.00159520662093
0.6  0.92  0.0013167996777
0.6  0.94  0.00108698231843
0.6  0.96  0.000897274339129
0.6  0.98  0.000740675562069
0.62  -1  0.00048618531024
0.62  -0.98  0.000588977988853
0.62  -0.96  0.000713503810269
0.62  -0.94  0.000864357746646
0.62  -0.92  0.0010471062711
0.62  -0.9  0.0012684927592
0.62  -0.88  0.00153668631785
0.62  -0.86  0.00186158322336
0.62  -0.84  0.00225517209155
0.62  -0.82  0.00273197625479
0.62  -0.8  0.0033095896693
0.62  -0.78  0.00400932612792
0.62  -0.76  0.0048570057337
0.62  -0.74  0.00588390765544
0.62  -0.72  0.00712792432125
0.62  -0.7  0.00863495963989
0.62  -0.68  0.0104606228436
0.62  -0.66  0.0126722804552
0.62  -0.64  0.0153515420962
0.62  -0.62  0.0185972718615
0.62  -0.6  0.0225292363806
0.62  -0.58  0.0272925241762
0.62  -0.56  0.0330628993954
0.62  -0.54  0.0400532874635
0.62  -0.52  0.0485216319793
0.62  -0.5  0.0587804127708
0.62  -0.48  0.071208176324
0.62  -0.46  0.0862635040547
0.62  -0.44  0.10450193385
0.62  -0.42  0.12659645928
0.62  -0.4  0.153362362893
0.62  -0.38  0.185787299946
0.62  -0.36  0.225067742632
0.62  -0.34  0.272653129617
0.62  -0.32  0.330299349968
0.62  -0.3  0.400133535026
0.62  -0.28  0.484732549027
0.62  -0.26  0.587218074763
0.62  -0.24  0.711371802907
0.62  -0.22  0.861774975464
0.62  -0.2  0.765262519755
0.62  -0.18  0.765587955869
0.62  -0.16  0.769760403859
0.62  -0.14  0.77727909173
0.62  -0.12  0.787261686433
0.62  -0.1  0.798574899788
0.62  -0.08  0.809984160603
0.62  -0.06  0.820294679713
0.62  -0.04  0.828467464727
0.62  -0.02  0.833704890017
0.62  6.17561557e-16  0.835507337912
0.62  0.02  0.833704890017
0.62  0.04  0.828467464727
0.62  0.06  0.820294679713
0.62  0.08  0.809984160603
0.62  0.1  0.798574899788
0.62  0.12  0.787261686433
0.62  0.14  0.77727909173
0.62  0.16  0.769760403859
0.62  0.18  0.765587955869
0.62  0.2  1.04397743248
0.62  0.22  0.861774975463
0.62  0.24  0.711371802907
0.62  0.26  0.587218074763
0.62  0.28  0.484732549027
0.62  0.3  0.400133535026
0.62  0.32  0.330299349968
0.62  0.34  0.272653129617
0.62  0.36  0.225067742632
0.62  0.38  0.185787299946
0.62  0.4  0.153362362893
0.62  0.42  0.12659645928
0.62  0.44  0.10450193385
0.62  0.46  0.0862635040547
0.62  0.48  0.071208176324
0.62  0.5  0.0587804127708
0.62  0.52  0.0485216319793
0.62  0.54  0.0400532874635
0.62  0.56  0.0330628993954
0.62  0.58  0.0272925241762
0.62  0.6  0.0225292363806
0.62  0.62  0.0185972718615
0.62  0.64  0.0153515420962
0.62  0.66  0.0126722804552
0.62  0.68  0.0104606228436
0.62  0.7  0.00863495963988
0.62  0.72  0.00712792432125
0.62  0.74  0.00588390765544
0.62  0.76  0.0048570057337
0.62  0.78  0.00400932612792
0.62  0.8  0.0033095896693
0.62  0.82  0.00273197625478
0.62  0.84  0.00225517209155
0.62  0.86  0.00186158322336
0.62  0.88  0.00153668631785
0.62  0.9  0.0012684927592
0.62  0.92  0.0010471062711
0.62  0.94  0.000864357746645
0.62  0.96  0.000713503810269
0.62  0.98  0.000588977988853
0.64  -1  0.000386609820682
0.64  -0.98  0.000468349556969
0.64  -0.96  0.000567371276618
0.64  -0.94  0.000687328856708
0.64  -0.92  0.000832648702415
0.64  -0.9  0.00100869308027
0.64  -0.88  0.00122195798449
0.64  -0.86  0.00148031283753
0.64  -0.84  0.00179329086988
0.64  -0.82  0.00217244089388
0.64  -0.8  0.00263175345209
0.64  -0.78  0.00318817706484
0.64  -0.76  0.00386224362647
0.64  -0.74  0.00467882602717
0.64  -0.72  0.00566805595651
0.64  -0.7  0.00686643575538
0.64  -0.68  0.00831818534335
0.64  -0.66  0.0100768739229
0.64  -0.64  0.0122073966695
0.64  -0.62  0.0147883693483
0.64  -0.6  0.0179150292157
0.64  -0.58  0.0217027492511
0.64  -0.56  0.0262912953914
0.64  -0.54  0.0318499838597
0.64  -0.52  0.0385839288921
0.64  -0.5  0.0467416114027
0.64  -0.48  0.0566240478679
0.64  -0.46  0.0685958977607
0.64  -0.44  0.0830989193949
0.64  -0.42  0.100668270699
0.64  -0.4  0.121952256411
0.64  -0.38  0.147736250364
0.64  -0.36  0.178971675588
0.64  -0.34  0.216811111585
0.64  -0.32  0.262650824229
0.64  -0.3  0.318182287632
0.64  -0.28  0.385454599123
0.64  -0.26  0.466950090436
0.64  -0.24  0.565675925141
0.64  -0.22  0.685275062234
0.64  -0.2  0.608529297997
0.64  -0.18  0.608788081624
0.64  -0.16  0.612105971604
0.64  -0.14  0.618084758927
0.64  -0.12  0.626022820951
0.64  -0.1  0.635018977961
0.64  -0.08  0.644091510974
0.64  -0.06  0.652290335291
0.64  -0.04  0.658789254288
0.64  -0.02  0.662954003838
0.64  6.17561557e-16  0.664387292839
0.64  0.02  0.662954003838
0.64  0.04  0.658789254288
0.64  0.06  0.652290335291
0.64  0.08  0.644091510974
0.64  0.1  0.635018977961
0.64  0.12  0.626022820951
0.64  0.14  0.618084758927
0.64  0.16  0.612105971604
0.64  0.18  0.608788081624
0.64  0.2  0.830160680433
0.64  0.22  0.685275062234
0.64  0.24  0.565675925141
0.64  0.26  0.466950090436
0.64  0.28  0.385454599123
0.64  0.3  0.318182287631
0.64  0.32  0.262650824229
0.64  0.34  0.216811111585
0.64  0.36  0.178971675588
0.64  0.38  0.147736250364
0.64  0.4  0.121952256411
0.64  0.42  0.100668270699
0.64  0.44  0.0830989193949
0.64  0.46  0.0685958977606
0.64  0.48  0.0566240478679
0.64  0.5  0.0467416114027
0.64  0.52  0.0385839288921
0.64  0.54  0.0318499838597
0.64  0.56  0.0262912953914
0.64  0.58  0.0217027492511
0.64  0.6  0.0179150292157
0.64  0.62  0.0147883693483
0.64  0.64  0.0122073966695
0.64  0.66  0.0100768739229
0.64  0.68  0.00831818534335
0.64  0.7  0.00686643575537
0.64  0.72  0.00566805595651
0.64  0.74  0.00467882602716
0.64  0.76  0.00386224362647
0.64  0.78  0.00318817706484
0.64  0.8  0.00263175345209
0.64  0.82  0.00217244089388
0.64  0.84  0.00179329086988
0.64  0.86  0.00148031283753
0.64  0.88  0.00122195798449
0.64  0.9  0.00100869308027
0.64  0.92  0.000832648702415
0.64  0.94  0.000687328856708
0.64  0.96  0.000567371276618
0.64  0.98  0.000468349556969
0.66  -1  0.000307428361778
0.66  -0.98  0.000372427003496
0.66  -0.96  0.000451168109964
0.66  -0.94  0.000546557208629
0.66  -0.92  0.00066211413375
0.66  -0.9  0.000802102907418
0.66  -0.88  0.00097168908092
0.66  -0.86  0.00117713034231
0.66  -0.84  0.00142600742357
0.66  -0.82  0.00172750382773
0.66  -0.8  0.00209274469788
0.66  -0.78  0.00253520733222
0.66  -0.76  0.00307121849305
0.66  -0.74  0.00372055686024
0.66  -0.72  0.00450718285972
0.66  -0.7  0.00546012279721
0.66  -0.68  0.00661453992183
0.66  -0.66  0.00801303194131
0.66  -0.64  0.0097072028669
0.66  -0.62  0.0117595671887
0.66  -0.6  0.014245856645
0.66  -0.58  0.0172578147047
0.66  -0.56  0.0209065818787
0.66  -0.54  0.0253267967776
0.66  -0.52  0.0306815642431
0.66  -0.5  0.0371684738765
0.66  -0.48  0.0450268910463
0.66  -0.46  0.0545467894118
0.66  -0.44  0.0660794508791
0.66  -0.42  0.0800504278174
0.66  -0.4  0.0969752458367
0.66  -0.38  0.117478426556
0.66  -0.36  0.142316532295
0.66  -0.34  0.172406083044
0.66  -0.32  0.208857375816
0.66  -0.3  0.253015454343
0.66  -0.28  0.306509740852
0.66  -0.26  0.371314161347
0.66  -0.24  0.449819982991
0.66  -0.22  0.544924051278
0.66  -0.2  0.483896567468
0.66  -0.18  0.484102349685
0.66  -0.16  0.486740703464
0.66  -0.14  0.491494976878
0.66  -0.12  0.497807246441
0.66  -0.1  0.504960902825
0.66  -0.08  0.512175292662
0.66  -0.06  0.518694917859
0.66  -0.04  0.523862794912
0.66  -0.02  0.527174563167
0.66  6.17561557e-16  0.528314300613
0.66  0.02  0.527174563167
0.66  0.04  0.523862794912
0.66  0.06  0.518694917859
0.66  0.08  0.512175292662
0.66  0.1  0.504960902825
0.66  0.12  0.497807246441
0.66  0.14  0.491494976878
0.66  0.16  0.486740703464
0.66  0.18  0.484102349685
0.66  0.2  0.660135682917
0.66  0.22  0.544924051278
0.66  0.24  0.449819982991
0.66  0.26  0.371314161347
0.66  0.28  0.306509740852
0.66  0.3  0.253015454343
0.66  0.32  0.208857375816
0.66  0.34  0.172406083044
0.66  0.36  0.142316532295
0.66  0.38  0.117478426556
0.66  0.4  0.0969752458367
0.66  0.42  0.0800504278174
0.66  0.44  0.066079450879
0.66  0.46  0.0545467894117
0.66  0.48  0.0450268910463
0.66  0.5  0.0371684738764
0.66  0.52  0.0306815642431
0.66  0.54  0.0253267967776
0.66  0.56  0.0209065818787
0.66  0.58  0.0172578147047
0.66  0.6  0.014245856645
0.66  0.62  0.0117595671887
0.66  0.64  0.00970720286689
0.66  0.66  0.0080130319413
0.66  0.68  0.00661453992183
0.66  0.7  0.00546012279721
0.66  0.72  0.00450718285972
0.66  0.74  0.00372055686024
0.66  0.76  0.00307121849305
0.66  0.78  0.00253520733222
0.66  0.8  0.00209274469788
0.66  0.82  0.00172750382773
0.66  0.84  0.00142600742357
0.66  0.86  0.00117713034231
0.66  0.88  0.00097168908092
0.66  0.9  0.000802102907418
0.66  0.92  0.00066211413375
0.66  0.94  0.000546557208629
0.66  0.96  0.000451168109964
0.66  0.98  0.000372427003496
0.68  -1  0.000244464037304
0.68  -0.98  0.000296150323767
0.68  -0.96  0.000358764484276
0.68  -0.94  0.000434616965939
0.68  -0.92  0.000526506706658
0.68  -0.9  0.000637824415246
0.68  -0.88  0.000772677687747
0.68  -0.86  0.000936042576721
0.68  -0.84  0.00113394720636
0.68  -0.82  0.00137369420877
0.68  -0.8  0.00166413018933
0.68  -0.78  0.00201597216423
0.68  -0.76  0.00244220301573
0.68  -0.74  0.00295855055733
0.68  -0.72  0.0035840678862
0.68  -0.7  0.00434183643781
0.68  -0.68  0.00525981768517
0.68  -0.66  0.00637188491034
0.68  -0.64  0.00771907312016
0.68  -0.62  0.00935109322797
0.68  -0.6  0.011328166374
0.68  -0.58  0.0137232460706
0.68  -0.56  0.0166247101691
0.68  -0.54  0.0201396219804
0.68  -0.52  0.0243976808851
0.68  -0.5  0.0295560082087
0.68  -0.48  0.0358049449595
0.68  -0.46  0.0433750753655
0.68  -0.44  0.052545735375
0.68  -0.42  0.0636553200851
0.68  -0.4  0.0771137704366
0.68  -0.38  0.0934176999346
0.68  -0.36  0.113168719564
0.68  -0.34  0.137095637088
0.68  -0.32  0.166081349872
0.68  -0.3  0.201195423582
0.68  -0.28  0.243733558897
0.68  -0.26  0.295265402536
0.68  -0.24  0.357692466844
0.68  -0.22  0.433318295129
0.68  -0.2  0.384789834734
0.68  -0.18  0.384953470748
0.68  -0.16  0.387051463961
0.68  -0.14  0.390832015848
0.68  -0.12  0.39585147109
0.68  -0.1  0.401539988931
0.68  -0.08  0.407276801424
0.68  -0.06  0.412461143845
0.68  -0.04  0.416570589314
0.68  -0.02  0.419204075157
0.68  6.17561557e-16  0.420110383267
0.68  0.02  0.419204075157
0.68  0.04  0.416570589314
0.68  0.06  0.412461143845
0.68  0.08  0.407276801424
0.68  0.1  0.401539988931
0.68  0.12  0.39585147109
0.68  0.14  0.390832015848
0.68  0.16  0.387051463961
0.68  0.18  0.384953470748
0.68  0.2  0.524933461836
0.68  0.22  0.433318295129
0.68  0.24  0.357692466844
0.68  0.26  0.295265402535
0.68  0.28  0.243733558897
0.68  0.3  0.201195423582
0.68  0.32  0.166081349871
0.68  0.34  0.137095637088
0.68  0.36  0.113168719564
0.68  0.38  0.0934176999346
0.68  0.4  0.0771137704366
0.68  0.42  0.0636553200851
0.68  0.44  0.052545735375
0.68  0.46  0.0433750753655
0.68  0.48  0.0358049449595
0.68  0.5  0.0295560082087
0.68  0.52  0.0243976808851
0.68  0.54  0.0201396219804
0.68  0.56  0.0166247101691
0.68  0.58  0.0137232460706
0.68  0.6  0.011328166374
0.68  0.62  0.00935109322797
0.68  0.64  0.00771907312016
0.68  0.66  0.00637188491033
0.68  0.68  0.00525981768517
0.68  0.7  0.00434183643781
0.68  0.72  0.0035840678862
0.68  0.74  0.00295855055733
0.68  0.76  0.00244220301573
0.68  0.78  0.00201597216423
0.68  0.8  0.00166413018933
0.68  0.82  0.00137369420877
0.68  0.84  0.00113394720636
0.68  0.86  0.000936042576721
0.68  0.88  0.000772677687747
0.68  0.9  0.000637824415246
0.68  0.92  0.000526506706658
0.68  0.94  0.000434616965939
0.68  0.96  0.000358764484275
0.68  0.98  0.000296150323767
0.7  -1  0.000194395420089
0.7  -0.98  0.000235495851386
0.7  -0.96  0.000285286021629
0.7  -0.94  0.000345603175842
0.7  -0.92  0.000418673002169
0.7  -0.9  0.000507191759214
0.7  -0.88  0.000614425767322
0.7  -0.86  0.000744331934994
0.7  -0.84  0.00090170376784
0.7  -0.82  0.00109234824775
0.7  -0.8  0.00132330010911
0.7  -0.78  0.00160308141874
0.7  -0.76  0.00194201603811
0.7  -0.74  0.00235261057123
0.7  -0.72  0.0028500158553
0.7  -0.7  0.00345258602285
0.7  -0.68  0.00418255576475
0.7  -0.66  0.00506686078478
0.7  -0.64  0.00613813172048
0.7  -0.62  0.00743589820568
0.7  -0.6  0.00900804750423
0.7  -0.58  0.0109125915382
0.7  -0.56  0.0132198075137
0.7  -0.54  0.0160148311322
0.7  -0.52  0.0194007980772
0.7  -0.5  0.0235026496954
0.7  -0.48  0.0284717433019
0.7  -0.46  0.0344914372276
0.7  -0.44  0.0417838566963
0.7  -0.42  0.0506180901915
0.7  -0.4  0.0613201187545
0.7  -0.38  0.0742848446046
0.7  -0.36  0.0899906629345
0.7  -0.34  0.109017114574
0.7  -0.32  0.132066270905
0.7  -0.3  0.159988640123
0.7  -0.28  0.193814550778
0.7  -0.26  0.234792170647
0.7  -0.24  0.284433563815
0.7  -0.22  0.34457048547
0.7  -0.2  0.305981126688
0.7  -0.18  0.306111248452
0.7  -0.16  0.307779552209
0.7  -0.14  0.310785810228
0.7  -0.12  0.31477723212
0.7  -0.1  0.319300686071
0.7  -0.08  0.323862543458
0.7  -0.06  0.327985082028
0.7  -0.04  0.331252873018
0.7  -0.02  0.333346995296
0.7  6.17561557e-16  0.334067682672
0.7  0.02  0.333346995296
0.7  0.04  0.331252873018
0.7  0.06  0.327985082028
0.7  0.08  0.323862543458
0.7  0.1  0.319300686071
0.7  0.12  0.31477723212
0.7  0.14  0.310785810228
0.7  0.16  0.307779552209
0.7  0.18  0.306111248452
0.7  0.2  0.417421973219
0.7  0.22  0.34457048547
0.7  0.24  0.284433563815
0.7  0.26  0.234792170647
0.7  0.28  0.193814550778
0.7  0.3  0.159988640123
0.7  0.32  0.132066270905
0.7  0.34  0.109017114574
0.7  0.36  0.0899906629344
0.7  0.38  0.0742848446046
0.7  0.4  0.0613201187545
0.7  0.42  0.0506180901915
0.7  0.44  0.0417838566963
0.7  0.46  0.0344914372276
0.7  0.48  0.0284717433019
0.7  0.5  0.0235026496954
0.7  0.52  0.0194007980771
0.7  0.54  0.0160148311322
0.7  0.56  0.0132198075137
0.7  0.58  0.0109125915382
0.7  0.6  0.00900804750423
0.7  0.62  0.00743589820568
0.7  0.64  0.00613813172048
0.7  0.66  0.00506686078478
0.7  0.68  0.00418255576475
0.7  0.7  0.00345258602285
0.7  0.72  0.0028500158553
0.7  0.74  0.00235261057123
0.7  0.76  0.00194201603811
0.7  0.78  0.00160308141874
0.7  0.8  0.00132330010911
0.7  0.82  0.00109234824775
0.7  0.84  0.00090170376784
0.7  0.86  0.000744331934994
0.7  0.88  0.000614425767322
0.7  0.9  0.000507191759214
0.7  0.92  0.000418673002169
0.7  0.94  0.000345603175842
0.7  0.96  0.000285286021629
0.7  0.98  0.000235495851386
0.72  -1  0.000154581343614
0.72  -0.98  0.000187264006045
0.72  -0.96  0.000226856664202
0.72  -0.94  0.000274820277424
0.72  -0.92  0.000332924691232
0.72  -0.9  0.000403313944192
0.72  -0.88  0.000488585382412
0.72  -0.86  0.00059188550097
0.72  -0.84  0.000717026048814
0.72  -0.82  0.000868624681353
0.72  -0.8  0.00105227535081
0.72  -0.78  0.00127475472168
0.72  -0.76  0.00154427222798
0.72  -0.74  0.00187077299935
0.72  -0.72  0.00226630483388
0.72  -0.7  0.00274546275889
0.72  -0.68  0.00332592758388
0.72  -0.66  0.00402911831798
0.72  -0.64  0.0048809825262
0.72  -0.62  0.00591295378811
0.72  -0.6  0.00716311158925
0.72  -0.58  0.00867758644473
0.72  -0.56  0.0105122621039
0.72  -0.54  0.012734837647
0.72  -0.52  0.0154273255644
0.72  -0.5  0.0186890779974
0.72  -0.48  0.022640452808
0.72  -0.46  0.027427254754
0.72  -0.44  0.0332261156488
0.72  -0.42  0.0402510120319
0.72  -0.4  0.0487611608507
0.72  -0.38  0.0590705845016
0.72  -0.36  0.0715596981796
0.72  -0.34  0.086689347105
0.72  -0.32  0.105017811599
0.72  -0.3  0.127221407489
0.72  -0.28  0.154119441998
0.72  -0.26  0.186704445978
0.72  -0.24  0.226178798055
0.72  -0.22  0.273999092104
0.72  -0.2  0.243313210065
0.72  -0.18  0.243416681624
0.72  -0.16  0.244743300513
0.72  -0.14  0.247133847593
0.72  -0.12  0.250307787383
0.72  -0.1  0.253904793883
0.72  -0.08  0.257532338421
0.72  -0.06  0.260810540916
0.72  -0.04  0.263409056466
0.72  -0.02  0.265074282093
0.72  6.17561557e-16  0.265647365672
0.72  0.02  0.265074282093
0.72  0.04  0.263409056466
0.72  0.06  0.260810540916
0.72  0.08  0.257532338421
0.72  0.1  0.253904793883
0.72  0.12  0.250307787383
0.72  0.14  0.247133847593
0.72  0.16  0.244743300513
0.72  0.18  0.243416681624
0.72  0.2  0.331929885202
0.72  0.22  0.273999092104
0.72  0.24  0.226178798055
0.72  0.26  0.186704445978
0.72  0.28  0.154119441998
0.72  0.3  0.127221407489
0.72  0.32  0.105017811599
0.72  0.34  0.086689347105
0.72  0.36  0.0715596981796
0.72  0.38  0.0590705845016
0.72  0.4  0.0487611608507
0.72  0.42  0.0402510120319
0.72  0.44  0.0332261156488
0.72  0.46  0.027427254754
0.72  0.48  0.022640452808
0.72  0.5  0.0186890779974
0.72  0.52  0.0154273255644
0.72  0.54  0.012734837647
0.72  0.56  0.0105122621039
0.72  0.58  0.00867758644473
0.72  0.6  0.00716311158925
0.72  0.62  0.00591295378811
0.72  0.64  0.0048809825262
0.72  0.66  0.00402911831798
0.72  0.68  0.00332592758388
0.72  0.7  0.00274546275889
0.72  0.72  0.00226630483388
0.72  0.74  0.00187077299935
0.72  0.76  0.00154427222798
0.72  0.78  0.00127475472168
0.72  0.8  0.00105227535081
0.72  0.82  0.000868624681352
0.72  0.84  0.000717026048814
0.72  0.86  0.00059188550097
0.72  0.88  0.000488585382412
0.72  0.9  0.000403313944192
0.72  0.92  0.000332924691232
0.72  0.94  0.000274820277424
0.72  0.96  0.000226856664202
0.72  0.98  0.000187264006045
0.74  -1  0.000122921578
0.74  -0.98  0.000148910512663
0.74  -0.96  0.000180394208587
0.74  -0.94  0.000218534406402
0.74  -0.92  0.000264738470017
0.74  -0.9  0.000320711318007
0.74  -0.88  0.000388518334683
0.74  -0.86  0.000470661582271
0.74  -0.84  0.000570172126384
0.74  -0.82  0.000690721881605
0.74  -0.8  0.000836759104226
0.74  -0.78  0.00101367253181
0.74  -0.76  0.00122799022629
0.74  -0.74  0.00148762045784
0.74  -0.72  0.00180214351808
0.74  -0.7  0.00218316523052
0.74  -0.68  0.00264474520254
0.74  -0.66  0.0032039156215
0.74  -0.64  0.0038813097382
0.74  -0.62  0.0047019232288
0.74  -0.6  0.00569603652911
0.74  -0.58  0.00690033217518
0.74  -0.56  0.0083592483799
0.74  -0.54  0.0101266187921
0.74  -0.52  0.0122676589449
0.74  -0.5  0.0148613726929
0.74  -0.48  0.018003467435
0.74  -0.46  0.0218098856936
0.74  -0.44  0.0264210833655
0.74  -0.42  0.0320072125096
0.74  -0.4  0.0387743999164
0.74  -0.38  0.0469723531352
0.74  -0.36  0.0569035746218
0.74  -0.34  0.0689345240043
0.74  -0.32  0.0835091403534
0.74  -0.3  0.101165223425
0.74  -0.28  0.122554278337
0.74  -0.26  0.148465555951
0.74  -0.24  0.179855176034
0.74  -0.22  0.217881407838
0.74  -0.2  0.193480293484
0.74  -0.18  0.193562573059
0.74  -0.16  0.194617487472
0.74  -0.14  0.196518427212
0.74  -0.12  0.199042313203
0.74  -0.1  0.201902617718
0.74  -0.08  0.204787205783
0.74  -0.06  0.20739400046
0.74  -0.04  0.209460314701
0.74  -0.02  0.210784485892
0.74  6.17561557e-16  0.211240196369
0.74  0.02  0.210784485892
0.74  0.04  0.209460314701
0.74  0.06  0.20739400046
0.74  0.08  0.204787205783
0.74  0.1  0.201902617718
0.74  0.12  0.199042313203
0.74  0.14  0.196518427212
0.74  0.16  0.194617487472
0.74  0.18  0.193562573059
0.74  0.2  0.263947409956
0.74  0.22  0.217881407838
0.74  0.24  0.179855176034
0.74  0.26  0.148465555951
0.74  0.28  0.122554278337
0.74  0.3  0.101165223425
0.74  0.32  0.0835091403534
0.74  0.34  0.0689345240043
0.74  0.36  0.0569035746218
0.74  0.38  0.0469723531352
0.74  0.4  0.0387743999164
0.74  0.42  0.0320072125096
0.74  0.44  0.0264210833655
0.74  0.46  0.0218098856936
0.74  0.48  0.018003467435
0.74  0.5  0.0148613726929
0.74  0.52  0.0122676589449
0.74  0.54  0.0101266187921
0.74  0.56  0.00835924837989
0.74  0.58  0.00690033217517
0.74  0.6  0.00569603652911
0.74  0.62  0.0047019232288
0.74  0.64  0.0038813097382
0.74  0.66  0.0032039156215
0.74  0.68  0.00264474520254
0.74  0.7  0.00218316523052
0.74  0.72  0.00180214351808
0.74  0.74  0.00148762045784
0.74  0.76  0.00122799022629
0.74  0.78  0.00101367253181
0.74  0.8  0.000836759104226
0.74  0.82  0.000690721881604
0.74  0.84  0.000570172126384
0.74  0.86  0.00047066158227
0.74  0.88  0.000388518334683
0.74  0.9  0.000320711318006
0.74  0.92  0.000264738470017
0.74  0.94  0.000218534406402
0.74  0.96  0.000180394208587
0.74  0.98  0.000148910512663
0.76  -1  0.0000977460409183
0.76  -0.98  0.000118412188492
0.76  -0.96  0.000143447716673
0.76  -0.94  0.000173776430287
0.76  -0.92  0.000210517451402
0.76  -0.9  0.000255026514651
0.76  -0.88  0.000308945993513
0.76  -0.86  0.000374265503484
0.76  -0.84  0.000453395318403
0.76  -0.82  0.000549255308961
0.76  -0.8  0.000665382685213
0.76  -0.78  0.000806062518756
0.76  -0.76  0.000976485860818
0.76  -0.74  0.00118294129077
0.76  -0.72  0.00143304696315
0.76  -0.7  0.00173603171571
0.76  -0.68  0.00210307561123
0.76  -0.66  0.0025477224791
0.76  -0.64  0.00308637967929
0.76  -0.62  0.0037389235299
0.76  -0.6  0.00452943273837
0.76  -0.58  0.0054870768999
0.76  -0.56  0.00664719284832
0.76  -0.54  0.00805258857654
0.76  -0.52  0.00975512284098
0.76  -0.5  0.0118176187369
0.76  -0.48  0.0143161818551
0.76  -0.46  0.0173430085597
0.76  -0.44  0.0210097880109
0.76  -0.42  0.0254518234678
0.76  -0.4  0.0308330249454
0.76  -0.38  0.0373519574535
0.76  -0.36  0.0452491679969
0.76  -0.34  0.0548160617007
0.76  -0.32  0.0664056545875
0.76  -0.3  0.0804455997819
0.76  -0.28  0.0974539678055
0.76  -0.26  0.118058363251
0.76  -0.24  0.14301908324
0.76  -0.22  0.173257172193
0.76  -0.2  0.153853643855
0.76  -0.18  0.153919071771
0.76  -0.16  0.154757929432
0.76  -0.14  0.156269538189
0.76  -0.12  0.158276507732
0.76  -0.1  0.160550994008
0.76  -0.08  0.162844790326
0.76  -0.06  0.164917688049
0.76  -0.04  0.166560800997
0.76  -0.02  0.167613769024
0.76  6.17561557e-16  0.167976145554
0.76  0.02  0.167613769024
0.76  0.04  0.166560800997
0.76  0.06  0.164917688049
0.76  0.08  0.162844790326
0.76  0.1  0.160550994008
0.76  0.12  0.158276507732
0.76  0.14  0.156269538189
0.76  0.16  0.154757929432
0.76  0.18  0.153919071771
0.76  0.2  0.209888408151
0.76  0.22  0.173257172193
0.76  0.24  0.14301908324
0.76  0.26  0.118058363251
0.76  0.28  0.0974539678054
0.76  0.3  0.0804455997819
0.76  0.32  0.0664056545875
0.76  0.34  0.0548160617007
0.76  0.36  0.0452491679969
0.76  0.38  0.0373519574535
0.76  0.4  0.0308330249454
0.76  0.42  0.0254518234678
0.76  0.44  0.0210097880109
0.76  0.46  0.0173430085597
0.76  0.48  0.0143161818551
0.76  0.5  0.0118176187369
0.76  0.52  0.00975512284098
0.76  0.54  0.00805258857654
0.76  0.56  0.00664719284832
0.76  0.58  0.0054870768999
0.76  0.6  0.00452943273837
0.76  0.62  0.0037389235299
0.76  0.64  0.00308637967929
0.76  0.66  0.0025477224791
0.76  0.68  0.00210307561123
0.76  0.7  0.00173603171571
0.76  0.72  0.00143304696315
0.76  0.74  0.00118294129077
0.76  0.76  0.000976485860818
0.76  0.78  0.000806062518756
0.76  0.8  0.000665382685213
0.76  0.82  0.000549255308961
0.76  0.84  0.000453395318402
0.76  0.86  0.000374265503484
0.76  0.88  0.000308945993513
0.76  0.9  0.000255026514651
0.76  0.92  0.000210517451402
0.76  0.94  0.000173776430287
0.76  0.96  0.000143447716673
0.76  0.98  0.000118412188492
0.78  -1  0.0000777266991739
0.78  -0.98  0.000094160218327
0.78  -0.96  0.000114068226358
0.78  -0.94  0.000138185323861
0.78  -0.92  0.000167401425799
0.78  -0.9  0.000202794599141
0.78  -0.88  0.00024567084327
0.78  -0.86  0.000297612281041
0.78  -0.84  0.000360535538721
0.78  -0.82  0.000436762469029
0.78  -0.8  0.000529105826928
0.78  -0.78  0.000640973059595
0.78  -0.76  0.000776492040376
0.78  -0.74  0.000940663386303
0.78  -0.72  0.00113954497963
0.78  -0.7  0.00138047550218
0.78  -0.68  0.00167234523095
0.78  -0.66  0.00202592408706
0.78  -0.64  0.00245425904328
0.78  -0.62  0.00297315555405
0.78  -0.6  0.00360176077288
0.78  -0.58  0.0043632700776
0.78  -0.56  0.0052857829741
0.78  -0.54  0.00640333996119
0.78  -0.52  0.00775717861656
0.78  -0.5  0.00939725525335
0.78  -0.48  0.0113840882957
0.78  -0.46  0.0137909913939
0.78  -0.44  0.0167067786796
0.78  -0.42  0.020239041986
0.78  -0.4  0.0245181209595
0.78  -0.38  0.029701912561
0.78  -0.36  0.0359816974245
0.78  -0.34  0.0435891980655
0.78  -0.32  0.052805129385
0.78  -0.3  0.0639695569802
0.78  -0.28  0.0774944454809
0.78  -0.26  0.0938788599435
0.78  -0.24  0.113727381228
0.78  -0.22  0.137772414885
0.78  -0.2  0.122342918244
0.78  -0.18  0.122394945885
0.78  -0.16  0.123061997322
0.78  -0.14  0.124264013874
0.78  -0.12  0.125859936497
0.78  -0.1  0.127668585818
0.78  -0.08  0.129492590296
0.78  -0.06  0.131140938365
0.78  -0.04  0.132447525768
0.78  -0.02  0.133284835682
0.78  6.17561557e-16  0.133572993967
0.78  0.02  0.133284835682
0.78  0.04  0.132447525768
0.78  0.06  0.131140938365
0.78  0.08  0.129492590296
0.78  0.1  0.127668585818
0.78  0.12  0.125859936497
0.78  0.14  0.124264013874
0.78  0.16  0.123061997322
0.78  0.18  0.122394945885
0.78  0.2  0.166901216736
0.78  0.22  0.137772414885
0.78  0.24  0.113727381228
0.78  0.26  0.0938788599435
0.78  0.28  0.0774944454809
0.78  0.3  0.0639695569802
0.78  0.32  0.052805129385
0.78  0.34  0.0435891980655
0.78  0.36  0.0359816974245
0.78  0.38  0.029701912561
0.78  0.4  0.0245181209595
0.78  0.42  0.020239041986
0.78  0.44  0.0167067786796
0.78  0.46  0.0137909913939
0.78  0.48  0.0113840882957
0.78  0.5  0.00939725525335
0.78  0.52  0.00775717861656
0.78  0.54  0.00640333996118
0.78  0.56  0.0052857829741
0.78  0.58  0.0043632700776
0.78  0.6  0.00360176077287
0.78  0.62  0.00297315555405
0.78  0.64  0.00245425904328
0.78  0.66  0.00202592408706
0.78  0.68  0.00167234523095
0.78  0.7  0.00138047550218
0.78  0.72  0.00113954497963
0.78  0.74  0.000940663386303
0.78  0.76  0.000776492040376
0.78  0.78  0.000640973059595
0.78  0.8  0.000529105826928
0.78  0.82  0.000436762469029
0.78  0.84  0.000360535538721
0.78  0.86  0.000297612281041
0.78  0.88  0.00024567084327
0.78  0.9  0.000202794599141
0.78  0.92  0.000167401425799
0.78  0.94  0.000138185323861
0.78  0.96  0.000114068226358
0.78  0.98  0.000094160218327
0.8  -1  0.0000618075137131
0.8  -0.98  0.0000748752879942
0.8  -0.96  0.0000907059419707
0.8  -0.94  0.000109883622877
0.8  -0.92  0.000133115982419
0.8  -0.9  0.000161260288943
0.8  -0.88  0.000195355060433
0.8  -0.86  0.000236658385563
0.8  -0.84  0.000286694346864
0.8  -0.82  0.000347309258991
0.8  -0.8  0.000420739797279
0.8  -0.78  0.000509695530516
0.8  -0.76  0.00061745890336
0.8  -0.74  0.000748006357742
0.8  -0.72  0.000906155062593
0.8  -0.7  0.00109774066619
0.8  -0.68  0.00132983263015
0.8  -0.66  0.0016109950908
0.8  -0.64  0.00195160287373
0.8  -0.62  0.00236422432229
0.8  -0.6  0.00286408506636
0.8  -0.58  0.00346962984434
