-0.12  -0.84  0.0322045608664
-0.12  -0.82  0.0388105550542
-0.12  -0.8  0.0467716107002
-0.12  -0.78  0.0563656862015
-0.12  -0.76  0.0679277564617
-0.12  -0.74  0.0818615084615
-0.12  -0.72  0.0986534358951
-0.12  -0.7  0.118889824984
-0.12  -0.68  0.143277224523
-0.12  -0.66  0.172667114867
-0.12  -0.64  0.208085637168
-0.12  -0.62  0.250769420853
-0.12  -0.6  0.302208760253
-0.12  -0.58  0.364199647879
-0.12  -0.56  0.438906481084
-0.12  -0.54  0.528937631487
-0.12  -0.52  0.63743651566
-0.12  -0.5  0.768191346785
-0.12  -0.48  0.925767399227
-0.12  -0.46  1.11566640403
-0.12  -0.44  1.34451864055
-0.12  -0.42  1.62031443114
-0.12  -0.4  1.95268312137
-0.12  -0.38  2.35322928636
-0.12  -0.36  2.83593790185
-0.12  -0.34  3.41766262632
-0.12  -0.32  4.11871424254
-0.12  -0.3  4.96356980385
-0.12  -0.28  5.98172724468
-0.12  -0.26  7.20873529411
-0.12  -0.24  8.68743465137
-0.12  -0.22  10.4694537589
-0.12  -0.2  9.26609781018
-0.12  -0.18  9.26780189465
-0.12  -0.16  9.29751517998
-0.12  -0.14  9.35181449639
-0.12  -0.12  9.42452661109
-0.12  -0.1  9.50754756509
-0.12  -0.08  9.59184440558
-0.12  -0.06  9.66847610069
-0.12  -0.04  9.72950854809
-0.12  -0.02  9.76875018242
-0.12  6.17561557e-16  9.78227807055
-0.12  0.02  9.76875018242
-0.12  0.04  9.72950854809
-0.12  0.06  9.66847610069
-0.12  0.08  9.59184440558
-0.12  0.1  9.50754756509
-0.12  0.12  9.42452661109
-0.12  0.14  9.35181449639
-0.12  0.16  9.29751517998
-0.12  0.18  9.26780189465
-0.12  0.2  12.6170113973
-0.12  0.22  10.4694537589
-0.12  0.24  8.68743465137
-0.12  0.26  7.20873529411
-0.12  0.28  5.98172724468
-0.12  0.3  4.96356980385
-0.12  0.32  4.11871424254
-0.12  0.34  3.41766262632
-0.12  0.36  2.83593790185
-0.12  0.38  2.35322928636
-0.12  0.4  1.95268312137
-0.12  0.42  1.62031443114
-0.12  0.44  1.34451864055
-0.12  0.46  1.11566640403
-0.12  0.48  0.925767399227
-0.12  0.5  0.768191346785
-0.12  0.52  0.63743651566
-0.12  0.54  0.528937631487
-0.12  0.56  0.438906481084
-0.12  0.58  0.364199647879
-0.12  0.6  0.302208760253
-0.12  0.62  0.250769420853
-0.12  0.64  0.208085637168
-0.12  0.66  0.172667114867
-0.12  0.68  0.143277224523
-0.12  0.7  0.118889824984
-0.12  0.72  0.0986534358951
-0.12  0.74  0.0818615084615
-0.12  0.76  0.0679277564617
-0.12  0.78  0.0563656862014
-0.12  0.8  0.0467716107002
-0.12  0.82  0.0388105550542
-0.12  0.84  0.0322045608664
-0.12  0.86  0.0267229813938
-0.12  0.88  0.0221744285705
-0.12  0.9  0.0184000907376
-0.12  0.92  0.0152681877721
-0.12  0.94  0.0126693700139
-0.12  0.96  0.0105129003484
-0.12  0.98  0.00872348614136
-0.1  -1  0.0089300643129
-0.1  -0.98  0.0107618530832
-0.1  -0.96  0.0129693894384
-0.1  -0.94  0.0156297489945
-0.1  -0.92  0.0188358175834
-0.1  -0.9  0.0226995343407
-0.1  -0.88  0.0273558000336
-0.1  -0.86  0.0329671870907
-0.1  -0.84  0.0397296157794
-0.1  -0.82  0.0478791947166
-0.1  -0.8  0.0577004645463
-0.1  -0.78  0.0695363326088
-0.1  -0.76  0.083800045471
-0.1  -0.74  0.100989617334
-0.1  -0.72  0.12170521808
-0.1  -0.7  0.146670128069
-0.1  -0.68  0.176755991297
-0.1  -0.66  0.213013248647
-0.1  -0.64  0.256707813784
-0.1  -0.62  0.309365272237
-0.1  -0.6  0.37282414686
-0.1  -0.58  0.449300089427
-0.1  -0.56  0.541463239598
-0.1  -0.54  0.652531452219
-0.1  -0.52  0.786382647973
-0.1  -0.5  0.947690210074
-0.1  -0.48  1.14208615435
-0.1  -0.46  1.37635776975
-0.1  -0.44  1.65868459498
-0.1  -0.42  1.99892400515
-0.1  -0.4  2.40895537973
-0.1  -0.38  2.90309486833
-0.1  -0.36  3.49859523569
-0.1  -0.34  4.21624823796
-0.1  -0.32  5.08111056195
-0.1  -0.3  6.12337867357
-0.1  -0.28  7.37944312031
-0.1  -0.26  8.89315909875
-0.1  -0.24  10.7173776484
-0.1  -0.22  12.9157909337
-0.1  -0.2  11.4312537066
-0.1  -0.18  11.4333559747
-0.1  -0.16  11.4700121929
-0.1  -0.14  11.5369993189
-0.1  -0.12  11.6267016562
-0.1  -0.1  11.72912164
-0.1  -0.08  11.8331156394
-0.1  -0.06  11.927653423
-0.1  -0.04  12.0029469721
-0.1  -0.02  12.0513579739
-0.1  6.17561557e-16  12.068046846
-0.1  0.02  12.0513579739
-0.1  0.04  12.0029469721
-0.1  0.06  11.927653423
-0.1  0.08  11.8331156394
-0.1  0.1  11.72912164
-0.1  0.12  11.6267016562
-0.1  0.14  11.5369993189
-0.1  0.16  11.4700121929
-0.1  0.18  11.4333559747
-0.1  0.2  15.5651560405
-0.1  0.22  12.9157909337
-0.1  0.24  10.7173776484
-0.1  0.26  8.89315909874
-0.1  0.28  7.37944312031
-0.1  0.3  6.12337867357
-0.1  0.32  5.08111056195
-0.1  0.34  4.21624823796
-0.1  0.36  3.49859523569
-0.1  0.38  2.90309486833
-0.1  0.4  2.40895537973
-0.1  0.42  1.99892400515
-0.1  0.44  1.65868459498
-0.1  0.46  1.37635776975
-0.1  0.48  1.14208615435
-0.1  0.5  0.947690210074
-0.1  0.52  0.786382647973
-0.1  0.54  0.652531452219
-0.1  0.56  0.541463239598
-0.1  0.58  0.449300089427
-0.1  0.6  0.372824146859
-0.1  0.62  0.309365272237
-0.1  0.64  0.256707813784
-0.1  0.66  0.213013248647
-0.1  0.68  0.176755991297
-0.1  0.7  0.146670128069
-0.1  0.72  0.12170521808
-0.1  0.74  0.100989617334
-0.1  0.76  0.083800045471
-0.1  0.78  0.0695363326088
-0.1  0.8  0.0577004645463
-0.1  0.82  0.0478791947166
-0.1  0.84  0.0397296157794
-0.1  0.86  0.0329671870907
-0.1  0.88  0.0273558000336
-0.1  0.9  0.0226995343406
-0.1  0.92  0.0188358175834
-0.1  0.94  0.0156297489945
-0.1  0.96  0.0129693894384
-0.1  0.98  0.0107618530832
-0.08  -1  0.0110167011905
-0.08  -0.98  0.01327651353
-0.08  -0.96  0.0159998722361
-0.08  -0.94  0.0192818627416
-0.08  -0.92  0.0232370749778
-0.08  -0.9  0.0280036042555
-0.08  -0.88  0.0337478728303
-0.08  -0.86  0.0406704404967
-0.08  -0.84  0.0490130070869
-0.08  -0.82  0.0590668513634
-0.08  -0.8  0.071183000949
-0.08  -0.78  0.0857844883746
-0.08  -0.76  0.103381121161
-0.08  -0.74  0.124587281628
-0.08  -0.72  0.150143377913
-0.08  -0.7  0.180941695143
-0.08  -0.68  0.218057549366
-0.08  -0.66  0.262786831958
-0.08  -0.64  0.316691255363
-0.08  -0.62  0.381652879927
-0.08  -0.6  0.459939825587
-0.08  -0.58  0.554285462752
-0.08  -0.56  0.667983847292
-0.08  -0.54  0.805004731726
-0.08  -0.52  0.970132168209
-0.08  -0.5  1.16913154259
-0.08  -0.48  1.40895087151
-0.08  -0.46  1.69796339078
-0.08  -0.44  2.04625990496
-0.08  -0.42  2.46600110544
-0.08  -0.4  2.97184215811
-0.08  -0.38  3.58144438511
-0.08  -0.36  4.31609190569
-0.08  -0.34  5.20143476632
-0.08  -0.32  6.26838450605
-0.08  -0.3  7.55419342564
-0.08  -0.28  9.103755243
-0.08  -0.26  10.9711725468
-0.08  -0.24  13.2216457756
-0.08  -0.22  15.9337496764
-0.08  -0.2  14.1023291553
-0.08  -0.18  14.1049226483
-0.08  -0.16  14.1501441146
-0.08  -0.14  14.232783738
-0.08  -0.12  14.3434463055
-0.08  -0.1  14.4697981792
-0.08  -0.08  14.5980918597
-0.08  -0.06  14.7147197445
-0.08  -0.04  14.8076067051
-0.08  -0.02  14.8673296279
-0.08  6.17561557e-16  14.887918093
-0.08  0.02  14.8673296279
-0.08  0.04  14.8076067051
-0.08  0.06  14.7147197445
-0.08  0.08  14.5980918597
-0.08  0.1  14.4697981792
-0.08  0.12  14.3434463055
-0.08  0.14  14.232783738
-0.08  0.16  14.1501441146
-0.08  0.18  14.1049226483
-0.08  0.2  19.2021767227
-0.08  0.22  15.9337496763
-0.08  0.24  13.2216457756
-0.08  0.26  10.9711725468
-0.08  0.28  9.103755243
-0.08  0.3  7.55419342564
-0.08  0.32  6.26838450605
-0.08  0.34  5.20143476632
-0.08  0.36  4.31609190569
-0.08  0.38  3.58144438511
-0.08  0.4  2.97184215811
-0.08  0.42  2.46600110544
-0.08  0.44  2.04625990496
-0.08  0.46  1.69796339078
-0.08  0.48  1.40895087151
-0.08  0.5  1.16913154259
-0.08  0.52  0.970132168209
-0.08  0.54  0.805004731726
-0.08  0.56  0.667983847292
-0.08  0.58  0.554285462752
-0.08  0.6  0.459939825587
-0.08  0.62  0.381652879927
-0.08  0.64  0.316691255363
-0.08  0.66  0.262786831958
-0.08  0.68  0.218057549366
-0.08  0.7  0.180941695143
-0.08  0.72  0.150143377913
-0.08  0.74  0.124587281628
-0.08  0.76  0.103381121161
-0.08  0.78  0.0857844883746
-0.08  0.8  0.071183000949
-0.08  0.82  0.0590668513634
-0.08  0.84  0.0490130070869
-0.08  0.86  0.0406704404967
-0.08  0.88  0.0337478728303
-0.08  0.9  0.0280036042555
-0.08  0.92  0.0232370749778
-0.08  0.94  0.0192818627416
-0.08  0.96  0.0159998722361
-0.08  0.98  0.01327651353
-0.06  -1  0.0135909105319
-0.06  -0.98  0.0163787602515
-0.06  -0.96  0.0197384705569
-0.06  -0.94  0.0237873449482
-0.06  -0.92  0.0286667489284
-0.06  -0.9  0.0345470457469
-0.06  -0.88  0.0416335445927
-0.06  -0.86  0.0501736689166
-0.06  -0.84  0.0604655951632
-0.06  -0.82  0.0728686635319
-0.06  -0.8  0.0878159242556
-0.06  -0.78  0.105829257449
-0.06  -0.76  0.12753759443
-0.06  -0.74  0.153698876709
-0.06  -0.72  0.185226519344
-0.06  -0.7  0.223221302608
-0.06  -0.68  0.269009805476
-0.06  -0.66  0.324190722826
-0.06  -0.64  0.390690683487
-0.06  -0.62  0.470831518042
-0.06  -0.6  0.567411324999
-0.06  -0.58  0.683802165743
-0.06  -0.56  0.824067799273
-0.06  -0.54  0.9931055674
-0.06  -0.52  1.19681738429
-0.06  -0.5  1.4423158004
-0.06  -0.48  1.73817233557
-0.06  -0.46  2.09471675155
-0.06  -0.44  2.5243977133
-0.06  -0.42  3.04221743116
-0.06  -0.4  3.66625545955
-0.06  -0.38  4.41829994037
-0.06  -0.36  5.32460833088
-0.06  -0.34  6.4168241767
-0.06  -0.32  7.73308193879
-0.06  -0.3  9.31933844927
-0.06  -0.28  11.2309774834
-0.06  -0.26  13.5347434713
-0.06  -0.24  16.3110718639
-0.06  -0.22  19.6568975181
-0.06  -0.2  17.3975394745
-0.06  -0.18  17.4007389742
-0.06  -0.16  17.456527081
-0.06  -0.14  17.5584766309
-0.06  -0.12  17.6949970855
-0.06  -0.1  17.8508728764
-0.06  -0.08  18.0091442048
-0.06  -0.06  18.1530238582
-0.06  -0.04  18.2676151818
-0.06  -0.02  18.3412932172
-0.06  6.17561557e-16  18.3666924707
-0.06  0.02  18.3412932172
-0.06  0.04  18.2676151818
-0.06  0.06  18.1530238582
-0.06  0.08  18.0091442048
-0.06  0.1  17.8508728764
-0.06  0.12  17.6949970855
-0.06  0.14  17.5584766309
-0.06  0.16  17.456527081
-0.06  0.18  17.4007389742
-0.06  0.2  23.6890391546
-0.06  0.22  19.6568975181
-0.06  0.24  16.3110718639
-0.06  0.26  13.5347434713
-0.06  0.28  11.2309774834
-0.06  0.3  9.31933844927
-0.06  0.32  7.73308193879
-0.06  0.34  6.4168241767
-0.06  0.36  5.32460833087
-0.06  0.38  4.41829994036
-0.06  0.4  3.66625545955
-0.06  0.42  3.04221743116
-0.06  0.44  2.5243977133
-0.06  0.46  2.09471675155
-0.06  0.48  1.73817233556
-0.06  0.5  1.4423158004
-0.06  0.52  1.19681738428
-0.06  0.54  0.993105567399
-0.06  0.56  0.824067799273
-0.06  0.58  0.683802165743
-0.06  0.6  0.567411324999
-0.06  0.62  0.470831518042
-0.06  0.64  0.390690683486
-0.06  0.66  0.324190722825
-0.06  0.68  0.269009805476
-0.06  0.7  0.223221302608
-0.06  0.72  0.185226519344
-0.06  0.74  0.153698876709
-0.06  0.76  0.127537594429
-0.06  0.78  0.105829257449
-0.06  0.8  0.0878159242556
-0.06  0.82  0.0728686635319
-0.06  0.84  0.0604655951632
-0.06  0.86  0.0501736689165
-0.06  0.88  0.0416335445926
-0.06  0.9  0.0345470457469
-0.06  0.92  0.0286667489284
-0.06  0.94  0.0237873449482
-0.06  0.96  0.0197384705569
-0.06  0.98  0.0163787602515
-0.04  -1  0.0167666205965
-0.04  -0.98  0.0202058911604
-0.04  -0.96  0.0243506456912
-0.04  -0.94  0.0293455973247
-0.04  -0.92  0.0353651436296
-0.04  -0.9  0.0426194556582
-0.04  -0.88  0.0513618160192
-0.04  -0.86  0.0618974621814
-0.04  -0.84  0.0745942437679
-0.04  -0.82  0.08989546594
-0.04  -0.8  0.108335367293
-0.04  -0.78  0.130557772674
-0.04  -0.76  0.157338572171
-0.04  -0.74  0.189612811139
-0.04  -0.72  0.228507337089
-0.04  -0.7  0.275380143302
-0.04  -0.68  0.331867782852
-0.04  -0.66  0.399942508471
-0.04  -0.64  0.48198113329
-0.04  -0.62  0.580848016722
-0.04  -0.6  0.699995072891
-0.04  -0.58  0.843582293414
-0.04  -0.56  1.01662299254
-0.04  -0.54  1.22515884582
-0.04  -0.52  1.47647083384
-0.04  -0.5  1.77933345591
-0.04  -0.48  2.1443210897
-0.04  -0.46  2.58417719313
-0.04  -0.44  3.11425923923
-0.04  -0.42  3.75307491876
-0.04  -0.4  4.52292833183
-0.04  -0.38  5.45069873044
-0.04  -0.36  6.56877900118
-0.04  -0.34  7.91620665538
-0.04  -0.32  9.54002681463
-0.04  -0.3  11.4969347802
-0.04  -0.28  13.8552555364
-0.04  -0.26  16.6973293012
-0.04  -0.24  20.1223864157
-0.04  -0.22  24.2500119486
-0.04  -0.2  21.4627226776
-0.04  -0.18  21.466669786
-0.04  -0.16  21.5354935796
-0.04  -0.14  21.6612650956
-0.04  -0.12  21.8296855014
-0.04  -0.1  22.0219838938
-0.04  -0.08  22.2172375752
-0.04  -0.06  22.3947367614
-0.04  -0.04  22.536103982
-0.04  -0.02  22.626997941
-0.04  6.17561557e-16  22.6583320924
-0.04  0.02  22.626997941
-0.04  0.04  22.536103982
-0.04  0.06  22.3947367614
-0.04  0.08  22.2172375752
-0.04  0.1  22.0219838938
-0.04  0.12  21.8296855014
-0.04  0.14  21.6612650956
-0.04  0.16  21.5354935796
-0.04  0.18  21.466669786
-0.04  0.2  29.2243209805
-0.04  0.22  24.2500119486
-0.04  0.24  20.1223864157
-0.04  0.26  16.6973293012
-0.04  0.28  13.8552555364
-0.04  0.3  11.4969347802
-0.04  0.32  9.54002681462
-0.04  0.34  7.91620665537
-0.04  0.36  6.56877900118
-0.04  0.38  5.45069873044
-0.04  0.4  4.52292833183
-0.04  0.42  3.75307491876
-0.04  0.44  3.11425923923
-0.04  0.46  2.58417719313
-0.04  0.48  2.1443210897
-0.04  0.5  1.77933345591
-0.04  0.52  1.47647083384
-0.04  0.54  1.22515884582
-0.04  0.56  1.01662299254
-0.04  0.58  0.843582293414
-0.04  0.6  0.699995072891
-0.04  0.62  0.580848016722
-0.04  0.64  0.48198113329
-0.04  0.66  0.39994250847
-0.04  0.68  0.331867782852
-0.04  0.7  0.275380143302
-0.04  0.72  0.228507337089
-0.04  0.74  0.189612811139
-0.04  0.76  0.157338572171
-0.04  0.78  0.130557772674
-0.04  0.8  0.108335367293
-0.04  0.82  0.08989546594
-0.04  0.84  0.0745942437679
-0.04  0.86  0.0618974621814
-0.04  0.88  0.0513618160192
-0.04  0.9  0.0426194556581
-0.04  0.92  0.0353651436296
-0.04  0.94  0.0293455973247
-0.04  0.96  0.0243506456912
-0.04  0.98  0.0202058911604
-0.02  -1  0.0206843806063
-0.02  -0.98  0.0249272857846
-0.02  -0.96  0.0300405213195
-0.02  -0.94  0.0362026146347
-0.02  -0.92  0.043628713778
-0.02  -0.9  0.0525780992652
-0.02  -0.88  0.0633632367987
-0.02  -0.86  0.0763606869346
-0.02  -0.84  0.0920242526065
-0.02  -0.82  0.110900823549
-0.02  -0.8  0.133649470823
-0.02  -0.78  0.161064458133
-0.02  -0.76  0.194102973351
-0.02  -0.74  0.233918548515
-0.02  -0.72  0.281901335124
-0.02  -0.7  0.339726640958
-0.02  -0.68  0.409413423055
-0.02  -0.66  0.493394779121
-0.02  -0.64  0.594602898576
-0.02  -0.62  0.716571439254
-0.02  -0.6  0.863558904243
-0.02  -0.58  1.04069732653
-0.02  -0.56  1.25417145272
-0.02  -0.54  1.51143468203
-0.02  -0.52  1.82146929999
-0.02  -0.5  2.19510009281
-0.02  -0.48  2.64537229229
-0.02  -0.46  3.18800704704
-0.02  -0.44  3.84195032267
-0.02  -0.42  4.63003439581
-0.02  -0.4  5.57977503767
-0.02  -0.38  6.72433222076
-0.02  -0.36  8.10366789161
-0.02  -0.34  9.76594123277
-0.02  -0.32  11.7691901294
-0.02  -0.3  14.1833575485
-0.02  -0.28  17.0927335812
-0.02  -0.26  20.5988984117
-0.02  -0.24  24.8242689654
-0.02  -0.22  29.9163730678
-0.02  -0.2  26.4777939094
-0.02  -0.18  26.4826633159
-0.02  -0.16  26.5675687703
-0.02  -0.14  26.7227285947
-0.02  -0.12  26.9305028302
-0.02  -0.1  27.1677344842
-0.02  -0.08  27.4086119728
-0.02  -0.06  27.6275863752
-0.02  -0.04  27.8019860628
-0.02  -0.02  27.9141186917
-0.02  6.17561557e-16  27.9527745144
-0.02  0.02  27.9141186917
-0.02  0.04  27.8019860628
-0.02  0.06  27.6275863752
-0.02  0.08  27.4086119728
-0.02  0.1  27.1677344842
-0.02  0.12  26.9305028302
-0.02  0.14  26.7227285947
-0.02  0.16  26.5675687703
-0.02  0.18  26.4826633159
-0.02  0.2  36.0530003432
-0.02  0.22  29.9163730678
-0.02  0.24  24.8242689654
-0.02  0.26  20.5988984116
-0.02  0.28  17.0927335812
-0.02  0.3  14.1833575485
-0.02  0.32  11.7691901294
-0.02  0.34  9.76594123276
-0.02  0.36  8.10366789161
-0.02  0.38  6.72433222076
-0.02  0.4  5.57977503767
-0.02  0.42  4.63003439581
-0.02  0.44  3.84195032267
-0.02  0.46  3.18800704704
-0.02  0.48  2.64537229229
-0.02  0.5  2.19510009281
-0.02  0.52  1.82146929999
-0.02  0.54  1.51143468203
-0.02  0.56  1.25417145272
-0.02  0.58  1.04069732653
-0.02  0.6  0.863558904243
-0.02  0.62  0.716571439254
-0.02  0.64  0.594602898576
-0.02  0.66  0.493394779121
-0.02  0.68  0.409413423054
-0.02  0.7  0.339726640958
-0.02  0.72  0.281901335124
-0.02  0.74  0.233918548515
-0.02  0.76  0.194102973351
-0.02  0.78  0.161064458133
-0.02  0.8  0.133649470823
-0.02  0.82  0.110900823549
-0.02  0.84  0.0920242526065
-0.02  0.86  0.0763606869346
-0.02  0.88  0.0633632367987
-0.02  0.9  0.0525780992652
-0.02  0.92  0.043628713778
-0.02  0.94  0.0362026146347
-0.02  0.96  0.0300405213195
-0.02  0.98  0.0249272857845
2.8449465e-16  -1  0.0255175811132
2.8449465e-16  -0.98  0.0307519015941
2.8449465e-16  -0.96  0.0370599175312
2.8449465e-16  -0.94  0.0446618718266
2.8449465e-16  -0.92  0.0538231849377
2.8449465e-16  -0.9  0.0648637219704
2.8449465e-16  -0.88  0.0781689606945
2.8449465e-16  -0.86  0.0942034504103
2.8449465e-16  -0.84  0.113527031578
2.8449465e-16  -0.82  0.136814382518
2.8449465e-16  -0.8  0.164878575645
2.8449465e-16  -0.78  0.198699465702
2.8449465e-16  -0.76  0.239457901161
2.8449465e-16  -0.74  0.288576953268
2.8449465e-16  -0.72  0.347771602247
2.8449465e-16  -0.7  0.419108615431
2.8449465e-16  -0.68  0.505078707962
2.8449465e-16  -0.66  0.608683505525
2.8449465e-16  -0.64  0.733540345411
2.8449465e-16  -0.62  0.884008575001
2.8449465e-16  -0.6  1.06534175736
2.8449465e-16  -0.58  1.28387109817
2.8449465e-16  -0.56  1.54722649828
2.8449465e-16  -0.54  1.86460294993
2.8449465e-16  -0.52  2.24708157775
2.8449465e-16  -0.5  2.70801653363
2.8449465e-16  -0.48  3.26350125382
2.8449465e-16  -0.46  3.93293035748
2.8449465e-16  -0.44  4.7396768053
2.8449465e-16  -0.42  5.71190796093
2.8449465e-16  -0.4  6.88356904793
2.8449465e-16  -0.38  8.29556833928
2.8449465e-16  -0.36  9.99720546022
2.8449465e-16  -0.34  12.0478926731
2.8449465e-16  -0.32  14.5192292426
2.8449465e-16  -0.3  17.4975013074
2.8449465e-16  -0.28  21.0866945405
2.8449465e-16  -0.26  25.4121247847
2.8449465e-16  -0.24  30.624813426
2.8449465e-16  -0.22  36.9067602699
2.8449465e-16  -0.2  32.6647080539
2.8449465e-16  -0.18  32.6707152667
2.8449465e-16  -0.16  32.7754600914
2.8449465e-16  -0.14  32.9668752215
2.8449465e-16  -0.12  33.2231988701
2.8449465e-16  -0.1  33.5158630833
2.8449465e-16  -0.08  33.8130250322
2.8449465e-16  -0.06  34.0831659264
2.8449465e-16  -0.04  34.2983165882
2.8449465e-16  -0.02  34.4366506049
2.8449465e-16  6.17561557e-16  34.4843389118
2.8449465e-16  0.02  34.4366506049
2.8449465e-16  0.04  34.2983165882
2.8449465e-16  0.06  34.0831659264
2.8449465e-16  0.08  33.8130250322
2.8449465e-16  0.1  33.5158630833
2.8449465e-16  0.12  33.2231988701
2.8449465e-16  0.14  32.9668752215
2.8449465e-16  0.16  32.7754600914
2.8449465e-16  0.18  32.6707152667
2.8449465e-16  0.2  44.4772980222
2.8449465e-16  0.22  36.9067602699
2.8449465e-16  0.24  30.624813426
2.8449465e-16  0.26  25.4121247847
2.8449465e-16  0.28  21.0866945405
2.8449465e-16  0.3  17.4975013074
2.8449465e-16  0.32  14.5192292426
2.8449465e-16  0.34  12.0478926731
2.8449465e-16  0.36  9.99720546022
2.8449465e-16  0.38  8.29556833928
2.8449465e-16  0.4  6.88356904793
2.8449465e-16  0.42  5.71190796093
2.8449465e-16  0.44  4.7396768053
2.8449465e-16  0.46  3.93293035748
2.8449465e-16  0.48  3.26350125382
2.8449465e-16  0.5  2.70801653363
2.8449465e-16  0.52  2.24708157775
2.8449465e-16  0.54  1.86460294993
2.8449465e-16  0.56  1.54722649828
2.8449465e-16  0.58  1.28387109817
2.8449465e-16  0.6  1.06534175736
2.8449465e-16  0.62  0.884008575001
2.8449465e-16  0.64  0.733540345411
2.8449465e-16  0.66  0.608683505525
2.8449465e-16  0.68  0.505078707962
2.8449465e-16  0.7  0.419108615431
2.8449465e-16  0.72  0.347771602247
2.8449465e-16  0.74  0.288576953268
2.8449465e-16  0.76  0.239457901161
2.8449465e-16  0.78  0.198699465702
2.8449465e-16  0.8  0.164878575645
2.8449465e-16  0.82  0.136814382518
2.8449465e-16  0.84  0.113527031578
2.8449465e-16  0.86  0.0942034504103
2.8449465e-16  0.88  0.0781689606945
2.8449465e-16  0.9  0.0648637219703
2.8449465e-16  0.92  0.0538231849377
2.8449465e-16  0.94  0.0446618718266
2.8449465e-16  0.96  0.0370599175312
2.8449465e-16  0.98  0.030751901594
0.02  -1  0.0306265573792
0.02  -0.98  0.0369088619534
0.02  -0.96  0.0444798308156
0.02  -0.94  0.0536038025742
0.02  -0.92  0.0645993385704
0.02  -0.9  0.0778503453734
0.02  -0.88  0.0938194787886
0.02  -0.86  0.113064297377
0.02  -0.84  0.13625672948
0.02  -0.82  0.164206533445
0.02  -0.8  0.197889570144
0.02  -0.78  0.23848187493
0.02  -0.76  0.287400718637
0.02  -0.74  0.346354091259
0.02  -0.72  0.417400336021
0.02  -0.7  0.503020015953
0.02  -0.68  0.606202522167
0.02  -0.66  0.730550447751
0.02  -0.64  0.88040537146
0.02  -0.62  1.06099944293
0.02  -0.6  1.27863806195
0.02  -0.58  1.54092003004
0.02  -0.56  1.85700286081
0.02  -0.54  2.23792251241
0.02  -0.52  2.69697870545
0.02  -0.5  3.2501992796
0.02  -0.48  3.9168998019
0.02  -0.46  4.72035796526
0.02  -0.44  5.68862632365
0.02  -0.42  6.85551174049
0.02  -0.4  8.26175574735
0.02  -0.38  9.95645702504
0.02  -0.36  11.9987856726
0.02  -0.34  14.4600491173
0.02  -0.32  17.4261817971
0.02  -0.3  21.0007455411
0.02  -0.28  25.3085454071
0.02  -0.26  30.4999872204
0.02  -0.24  36.7563289585
0.02  -0.22  44.2960093308
0.02  -0.2  39.2046389919
0.02  -0.18  39.2118489326
0.02  -0.16  39.3375651347
0.02  -0.14  39.5673042483
0.02  -0.12  39.8749474726
0.02  -0.1  40.2262071503
0.02  -0.08  40.5828650733
0.02  -0.06  40.9070919489
0.02  -0.04  41.1653187793
0.02  -0.02  41.3313491989
0.02  6.17561557e-16  41.3885853711
0.02  0.02  41.3313491989
0.02  0.04  41.1653187793
0.02  0.06  40.9070919489
0.02  0.08  40.5828650733
0.02  0.1  40.2262071503
0.02  0.12  39.8749474726
0.02  0.14  39.5673042483
0.02  0.16  39.3375651347
0.02  0.18  39.2118489326
0.02  0.2  53.3822745152
0.02  0.22  44.2960093308
0.02  0.24  36.7563289585
0.02  0.26  30.4999872204
0.02  0.28  25.3085454071
0.02  0.3  21.0007455411
0.02  0.32  17.4261817971
0.02  0.34  14.4600491173
0.02  0.36  11.9987856726
0.02  0.38  9.95645702504
0.02  0.4  8.26175574735
0.02  0.42  6.85551174049
0.02  0.44  5.68862632365
0.02  0.46  4.72035796526
0.02  0.48  3.9168998019
0.02  0.5  3.2501992796
0.02  0.52  2.69697870545
0.02  0.54  2.23792251241
0.02  0.56  1.85700286081
0.02  0.58  1.54092003004
0.02  0.6  1.27863806195
0.02  0.62  1.06099944293
0.02  0.64  0.88040537146
0.02  0.66  0.73055044775
0.02  0.68  0.606202522167
0.02  0.7  0.503020015953
0.02  0.72  0.417400336021
0.02  0.74  0.346354091259
0.02  0.76  0.287400718637
0.02  0.78  0.23848187493
0.02  0.8  0.197889570144
0.02  0.82  0.164206533445
0.02  0.84  0.13625672948
0.02  0.86  0.113064297377
0.02  0.88  0.0938194787886
0.02  0.9  0.0778503453734
0.02  0.92  0.0645993385703
0.02  0.94  0.0536038025742
0.02  0.96  0.0444798308156
0.02  0.98  0.0369088619534
0.04  -1  0.035175984345
0.04  -0.98  0.0423914948778
0.04  -0.96  0.0510870945456
0.04  -0.94  0.0615663881786
0.04  -0.92  0.0741952578644
0.04  -0.9  0.0894146376363
0.04  -0.88  0.107755908582
0.04  -0.86  0.129859451889
0.04  -0.84  0.156497007605
0.04  -0.82  0.188598619763
0.04  -0.8  0.227285108647
0.04  -0.78  0.273907203974
0.04  -0.76  0.330092705306
0.04  -0.74  0.397803316289
0.04  -0.72  0.479403137077
0.04  -0.7  0.577741206343
0.04  -0.68  0.696250974787
0.04  -0.66  0.839070183277
0.04  -0.64  1.01118533109
0.04  -0.62  1.21860577839
0.04  -0.6  1.46857356161
0.04  -0.58  1.76981624747
0.04  -0.56  2.13285165393
0.04  -0.54  2.57035507737
0.04  -0.52  3.09760184754
0.04  -0.5  3.7330006622
0.04  -0.48  4.49873632243
0.04  -0.46  5.42154430983
0.04  -0.44  6.53364424959
0.04  -0.42  7.87386485117
0.04  -0.4  9.4889996036
0.04  -0.38  11.4354405593
0.04  -0.36  13.7811472491
0.04  -0.34  16.6080194741
0.04  -0.32  20.014756817
0.04  -0.3  24.120304716
0.04  -0.28  29.0680074163
0.04  -0.26  35.0306128013
0.04  -0.24  42.2163038442
0.04  -0.22  50.8759672683
0.04  -0.2  45.0282984912
0.04  -0.18  45.0365794338
0.04  -0.16  45.1809701696
0.04  -0.14  45.4448359173
0.04  -0.12  45.7981780546
0.04  -0.1  46.2016156585
0.04  -0.08  46.611253391
0.04  -0.06  46.9836426007
0.04  -0.04  47.2802277777
0.04  -0.02  47.4709212131
0.04  6.17561557e-16  47.5366595419
0.04  0.02  47.4709212131
0.04  0.04  47.2802277777
0.04  0.06  46.9836426007
0.04  0.08  46.611253391
0.04  0.1  46.2016156585
0.04  0.12  45.7981780546
0.04  0.14  45.4448359173
0.04  0.16  45.1809701696
0.04  0.18  45.0365794338
0.04  0.2  61.311953198
0.04  0.22  50.8759672683
0.04  0.24  42.2163038442
0.04  0.26  35.0306128013
0.04  0.28  29.0680074163
0.04  0.3  24.120304716
0.04  0.32  20.014756817
0.04  0.34  16.6080194741
0.04  0.36  13.7811472491
0.04  0.38  11.4354405593
0.04  0.4  9.4889996036
0.04  0.42  7.87386485116
0.04  0.44  6.53364424959
0.04  0.46  5.42154430983
0.04  0.48  4.49873632243
0.04  0.5  3.7330006622
0.04  0.52  3.09760184754
0.04  0.54  2.57035507737
0.04  0.56  2.13285165393
0.04  0.58  1.76981624747
0.04  0.6  1.46857356161
0.04  0.62  1.21860577839
0.04  0.64  1.01118533109
0.04  0.66  0.839070183277
0.04  0.68  0.696250974787
0.04  0.7  0.577741206343
0.04  0.72  0.479403137077
0.04  0.74  0.397803316288
0.04  0.76  0.330092705306
0.04  0.78  0.273907203974
0.04  0.8  0.227285108647
0.04  0.82  0.188598619763
0.04  0.84  0.156497007605
0.04  0.86  0.129859451889
0.04  0.88  0.107755908582
0.04  0.9  0.0894146376363
0.04  0.92  0.0741952578644
0.04  0.94  0.0615663881786
0.04  0.96  0.0510870945456
0.04  0.98  0.0423914948777
0.06  -1  0.0390827436684
0.06  -0.98  0.0470996322883
0.06  -0.96  0.0567609935605
0.06  -0.94  0.0684041516556
0.06  -0.92  0.0824356247172
0.06  -0.9  0.0993453183475
0.06  -0.88  0.119723630547
0.06  -0.86  0.144282065323
0.06  -0.84  0.173878074686
0.06  -0.82  0.209544996385
0.06  -0.8  0.252528132654
0.06  -0.78  0.304328229649
0.06  -0.76  0.366753875649
0.06  -0.74  0.441984647493
0.06  -0.72  0.532647209996
0.06  -0.7  0.641907025336
0.06  -0.68  0.773578874427
0.06  -0.66  0.932260049105
0.06  -0.64  1.12349086549
0.06  -0.62  1.35394810285
0.06  -0.6  1.63167812174
0.06  -0.58  1.96637780087
0.06  -0.56  2.36973310131
0.06  -0.54  2.85582707908
0.06  -0.52  3.4416315918
0.06  -0.5  4.1475998671
0.06  -0.48  4.99838062232
0.06  -0.46  6.02367866865
0.06  -0.44  7.25929204774
0.06  -0.42  8.74836191191
0.06  -0.4  10.5428787874
0.06  -0.38  12.7054978115
0.06  -0.36  15.3117263219
0.06  -0.34  18.4525601779
0.06  -0.32  22.2376608595
0.06  -0.3  26.7991842722
0.06  -0.28  32.2963949398
0.06  -0.26  38.9212266878
0.06  -0.24  46.9049839682
0.06  -0.22  56.5264178005
0.06  -0.2  50.0292878941
0.06  -0.18  50.0384885452
0.06  -0.16  50.1989157861
0.06  -0.14  50.4920873227
0.06  -0.12  50.8846727879
0.06  -0.1  51.3329174853
0.06  -0.08  51.7880509178
0.06  -0.06  52.2017988853
0.06  -0.04  52.5313237775
0.06  -0.02  52.7431962466
0.06  6.17561557e-16  52.8162356881
0.06  0.02  52.7431962466
0.06  0.04  52.5313237775
0.06  0.06  52.2017988853
0.06  0.08  51.7880509178
0.06  0.1  51.3329174853
0.06  0.12  50.8846727879
0.06  0.14  50.4920873227
0.06  0.16  50.1989157861
0.06  0.18  50.0384885452
0.06  0.2  68.1214582978
0.06  0.22  56.5264178005
0.06  0.24  46.9049839682
0.06  0.26  38.9212266878
0.06  0.28  32.2963949398
0.06  0.3  26.7991842722
0.06  0.32  22.2376608595
0.06  0.34  18.4525601779
0.06  0.36  15.3117263219
0.06  0.38  12.7054978115
0.06  0.4  10.5428787874
0.06  0.42  8.7483619119
0.06  0.44  7.25929204774
0.06  0.46  6.02367866865
0.06  0.48  4.99838062232
0.06  0.5  4.1475998671
0.06  0.52  3.44163159179
0.06  0.54  2.85582707908
0.06  0.56  2.36973310131
0.06  0.58  1.96637780087
0.06  0.6  1.63167812174
0.06  0.62  1.35394810285
0.06  0.64  1.12349086549
0.06  0.66  0.932260049105
0.06  0.68  0.773578874427
0.06  0.7  0.641907025336
0.06  0.72  0.532647209996
0.06  0.74  0.441984647493
0.06  0.76  0.366753875649
0.06  0.78  0.304328229648
0.06  0.8  0.252528132653
0.06  0.82  0.209544996385
0.06  0.84  0.173878074686
0.06  0.86  0.144282065323
0.06  0.88  0.119723630547
0.06  0.9  0.0993453183475
0.06  0.92  0.0824356247172
0.06  0.94  0.0684041516556
0.06  0.96  0.0567609935604
0.06  0.98  0.0470996322882
0.08  -1  0.0422754585891
0.08  -0.98  0.050947256192
0.08  -0.96  0.0613978653366
0.08  -0.94  0.0739921665985
0.08  -0.92  0.0891698870623
0.08  -0.9  0.107460953291
0.08  -0.88  0.129503993585
0.08  -0.86  0.156068635546
0.08  -0.84  0.188082377438
0.08  -0.82  0.226662971576
0.08  -0.8  0.273157450386
0.08  -0.78  0.32918915773
0.08  -0.76  0.396714427572
0.08  -0.74  0.478090888926
0.08  -0.72  0.576159781918
0.08  -0.7  0.694345159026
0.08  -0.68  0.836773435066
0.08  -0.66  1.00841746001
0.08  -0.64  1.21527014486
0.08  -0.62  1.46455370276
0.08  -0.6  1.76497181088
0.08  -0.58  2.12701349723
0.08  -0.56  2.56331936267
0.08  -0.54  3.08912292451
0.08  -0.52  3.72278249122
0.08  -0.5  4.48642213846
0.08  -0.48  5.40670416601
0.08  -0.46  6.51576000577
0.08  -0.44  7.85231208315
0.08  -0.42  9.46302580154
0.08  -0.4  11.4041388539
0.08  -0.38  13.7434247488
0.08  -0.36  16.5625591064
0.08  -0.34  19.9599713439
0.08  -0.32  24.0542813156
0.08  -0.3  28.9884408969
0.08  -0.28  34.9347251165
0.08  -0.26  42.1007470979
0.08  -0.24  50.7367068237
0.08  -0.22  61.1441268092
0.08  -0.2  54.1162387818
0.08  -0.18  54.1261910448
0.08  -0.16  54.2997237742
0.08  -0.14  54.6168448356
0.08  -0.12  55.0415010654
0.08  -0.1  55.526363395
0.08  -0.08  56.0186772085
0.08  -0.06  56.4662247302
0.08  -0.04  56.8226688952
0.08  -0.02  57.0518494734
0.08  6.17561557e-16  57.1308555921
0.08  0.02  57.0518494734
0.08  0.04  56.8226688952
0.08  0.06  56.4662247302
0.08  0.08  56.0186772085
0.08  0.1  55.526363395
0.08  0.12  55.0415010654
0.08  0.14  54.6168448356
0.08  0.16  54.2997237742
0.08  0.18  54.1261910448
0.08  0.2  73.6863796905
0.08  0.22  61.1441268092
0.08  0.24  50.7367068237
0.08  0.26  42.1007470979
0.08  0.28  34.9347251164
0.08  0.3  28.9884408969
0.08  0.32  24.0542813155
0.08  0.34  19.9599713439
0.08  0.36  16.5625591064
0.08  0.38  13.7434247488
0.08  0.4  11.4041388539
0.08  0.42  9.46302580153
0.08  0.44  7.85231208315
0.08  0.46  6.51576000577
0.08  0.48  5.40670416601
0.08  0.5  4.48642213846
0.08  0.52  3.72278249122
0.08  0.54  3.08912292451
0.08  0.56  2.56331936267
0.08  0.58  2.12701349723
0.08  0.6  1.76497181088
0.08  0.62  1.46455370276
0.08  0.64  1.21527014486
0.08  0.66  1.00841746001
0.08  0.68  0.836773435066
0.08  0.7  0.694345159026
0.08  0.72  0.576159781918
0.08  0.74  0.478090888926
0.08  0.76  0.396714427572
0.08  0.78  0.32918915773
0.08  0.8  0.273157450386
0.08  0.82  0.226662971576
0.08  0.84  0.188082377438
0.08  0.86  0.156068635546
0.08  0.88  0.129503993585
0.08  0.9  0.107460953291
0.08  0.92  0.0891698870623
0.08  0.94  0.0739921665984
0.08  0.96  0.0613978653366
0.08  0.98  0.050947256192
0.1  -1  0.0446957979868
0.1  -0.98  0.0538640702369
0.1  -0.96  0.0649129939093
0.1  -0.94  0.0782283395914
0.1  -0.92  0.0942750094655
0.1  -0.9  0.113613269259
0.1  -0.88  0.136918309794
0.1  -0.86  0.165003821111
0.1  -0.84  0.198850402276
0.1  -0.82  0.239639798757
0.1  -0.8  0.288796162798
0.1  -0.78  0.348035777361
0.1  -0.76  0.419426979742
0.1  -0.74  0.505462377084
0.1  -0.72  0.609145875177
0.1  -0.7  0.73409755912
0.1  -0.68  0.884680087755
0.1  -0.66  1.06615101487
0.1  -0.64  1.28484635547
0.1  -0.62  1.54840180625
0.1  -0.6  1.86601934418
0.1  -0.58  2.24878851135
0.1  -0.56  2.71007360377
0.1  -0.54  3.26598028262
0.1  -0.52  3.93591789965
0.1  -0.5  4.74327717017
0.1  -0.48  5.71624685441
0.1  -0.46  6.88879796147
0.1  -0.44  8.30186983918
0.1  -0.42  10.0047995619
0.1  -0.4  12.0570445227
0.1  -0.38  14.530258375
0.1  -0.36  17.5107928021
0.1  -0.34  21.1027124669
0.1  -0.32  25.431428405
0.1  -0.3  30.6480767216
0.1  -0.28  36.9347954734
0.1  -0.26  44.511083976
0.1  -0.24  53.6414665717
0.1  -0.22  64.6447284347
0.1  -0.2  57.2144822818
0.1  -0.18  57.2250043281
0.1  -0.16  57.4084720911
0.1  -0.14  57.7437488538
0.1  -0.12  58.1927173499
0.1  -0.1  58.7053388437
0.1  -0.08  59.2258384311
0.1  -0.06  59.6990087831
0.1  -0.04  60.0758599616
0.1  -0.02  60.3181615041
0.1  6.17561557e-16  60.4016908528
0.1  0.02  60.3181615041
0.1  0.04  60.0758599616
0.1  0.06  59.6990087831
0.1  0.08  59.2258384311
0.1  0.1  58.7053388437
0.1  0.12  58.1927173499
0.1  0.14  57.7437488538
0.1  0.16  57.4084720911
0.1  0.18  57.2250043281
0.1  0.2  77.9050458811
0.1  0.22  64.6447284347
0.1  0.24  53.6414665717
0.1  0.26  44.511083976
0.1  0.28  36.9347954733
0.1  0.3  30.6480767216
0.1  0.32  25.431428405
0.1  0.34  21.1027124669
0.1  0.36  17.510792802
0.1  0.38  14.5302583749
0.1  0.4  12.0570445227
0.1  0.42  10.0047995619
0.1  0.44  8.30186983917
0.1  0.46  6.88879796147
0.1  0.48  5.71624685441
0.1  0.5  4.74327717017
0.1  0.52  3.93591789965
0.1  0.54  3.26598028262
0.1  0.56  2.71007360377
0.1  0.58  2.24878851135
0.1  0.6  1.86601934418
0.1  0.62  1.54840180625
0.1  0.64  1.28484635547
0.1  0.66  1.06615101487
0.1  0.68  0.884680087754
0.1  0.7  0.73409755912
0.1  0.72  0.609145875176
0.1  0.74  0.505462377084
0.1  0.76  0.419426979742
0.1  0.78  0.348035777361
0.1  0.8  0.288796162798
0.1  0.82  0.239639798757
0.1  0.84  0.198850402276
0.1  0.86  0.165003821111
0.1  0.88  0.136918309794
0.1  0.9  0.113613269259
0.1  0.92  0.0942750094654
0.1  0.94  0.0782283395914
0.1  0.96  0.0649129939093
0.1  0.98  0.0538640702369
0.12  -1  0.0462995420951
0.12  -0.98  0.0557967840307
0.12  -0.96  0.0672421576389
0.12  -0.94  0.081035275464
0.12  -0.92  0.0976577209909
0.12  -0.9  0.11768986302
0.12  -0.88  0.141831119108
0.12  -0.86  0.170924375568
0.12  -0.84  0.205985416649
0.12  -0.82  0.248238390407
0.12  -0.8  0.299158549542
0.12  -0.78  0.360523759511
0.12  -0.76  0.434476572274
0.12  -0.74  0.523599033005
0.12  -0.72  0.631002831589
0.12  -0.7  0.760437946548
0.12  -0.68  0.916423574667
0.12  -0.66  1.10440591769
0.12  -0.64  1.33094833519
0.12  -0.62  1.60396050273
0.12  -0.6  1.9329745763
0.12  -0.58  2.3294780054
0.12  -0.56  2.80731461458
0.12  -0.54  3.38316795734
0.12  -0.52  4.07714381856
0.12  -0.5  4.91347220322
0.12  -0.48  5.9213533214
0.12  -0.46  7.13597710674
0.12  -0.44  8.59975186482
0.12  -0.42  10.3637849492
0.12  -0.4  12.4896671626
0.12  -0.38  15.0516231857
0.12  -0.36  18.1391031143
0.12  -0.34  21.8599055882
0.12  -0.32  26.3439415563
0.12  -0.3  31.7477700862
0.12  -0.28  38.2600645881
0.12  -0.26  46.1082003022
0.12  -0.24  55.5661930527
0.12  -0.22  66.9642664456
0.12  -0.2  59.2674132731
0.12  -0.18  59.2783128643
0.12  -0.16  59.4683636923
0.12  -0.14  59.8156706269
0.12  -0.12  60.280748704
0.12  -0.1  60.8117637323
0.12  -0.08  61.3509395305
0.12  -0.06  61.841087858
0.12  -0.04  62.2314609532
0.12  -0.02  62.4824565943
0.12  6.17561557e-16  62.5689830861
0.12  0.02  62.4824565943
0.12  0.04  62.2314609532
0.12  0.06  61.841087858
0.12  0.08  61.3509395305
0.12  0.1  60.8117637323
0.12  0.12  60.280748704
0.12  0.14  59.8156706269
0.12  0.16  59.4683636923
0.12  0.18  59.2783128643
0.12  0.2  80.7003815494
0.12  0.22  66.9642664456
0.12  0.24  55.5661930527
0.12  0.26  46.1082003022
0.12  0.28  38.2600645881
0.12  0.3  31.7477700862
0.12  0.32  26.3439415563
0.12  0.34  21.8599055882
0.12  0.36  18.1391031143
0.12  0.38  15.0516231857
0.12  0.4  12.4896671626
0.12  0.42  10.3637849492
0.12  0.44  8.59975186482
0.12  0.46  7.13597710674
0.12  0.48  5.9213533214
0.12  0.5  4.91347220322
0.12  0.52  4.07714381856
0.12  0.54  3.38316795734
0.12  0.56  2.80731461458
0.12  0.58  2.3294780054
0.12  0.6  1.9329745763
0.12  0.62  1.60396050273
0.12  0.64  1.33094833519
0.12  0.66  1.10440591769
0.12  0.68  0.916423574667
0.12  0.7  0.760437946547
0.12  0.72  0.631002831588
0.12  0.74  0.523599033005
0.12  0.76  0.434476572274
0.12  0.78  0.360523759511
0.12  0.8  0.299158549542
0.12  0.82  0.248238390407
0.12  0.84  0.205985416649
0.12  0.86  0.170924375568
0.12  0.88  0.141831119108
0.12  0.9  0.11768986302
0.12  0.92  0.0976577209909
0.12  0.94  0.081035275464
0.12  0.96  0.0672421576388
0.12  0.98  0.0557967840307
0.14  -1  0.0470573903993
0.14  -0.98  0.0567100867599
0.14  -0.96  0.0683428025444
0.14  -0.94  0.0823616913055
0.14  -0.92  0.0992562192674
0.14  -0.9  0.119616254925
0.14  -0.88  0.144152664165
0.14  -0.86  0.17372212998
0.14  -0.84  0.209357063358
0.14  -0.82  0.252301649668
0.14  -0.8  0.304055289104
0.14  -0.78  0.36642494789
0.14  -0.76  0.441588248084
0.14  -0.74  0.532169498744
0.14  -0.72  0.641331323064
0.14  -0.7  0.772885080626
0.14  -0.68  0.931423940125
0.14  -0.66  1.12248324879
0.14  -0.64  1.35273379771
0.14  -0.62  1.630214731
0.14  -0.6  1.96461423057
0.14  -0.58  2.3676077768
0.14  -0.56  2.85326579516
0.14  -0.54  3.43854492185
0.14  -0.52  4.14388004076
0.14  -0.5  4.99389776271
0.14  -0.48  6.01827625778
0.14  -0.46  7.2527814617
0.14  -0.44  8.7405158351
0.14  -0.42  10.5334232759
0.14  -0.4  12.6941027283
0.14  -0.38  15.2979938104
0.14  -0.36  18.4360107706
0.14  -0.34  22.2177167377
0.14  -0.32  26.7751490916
0.14  -0.3  32.2674295177
0.14  -0.28  38.8863197032
0.14  -0.26  46.862916652
0.14  -0.24  56.4757213821
0.14  -0.22  68.0603627237
0.14  -0.2  60.237524566
0.14  -0.18  60.2486025658
0.14  -0.16  60.4417642171
0.14  -0.14  60.7947560022
0.14  -0.12  61.267446652
0.14  -0.1  61.8071535339
0.14  -0.08  62.3551547642
0.14  -0.06  62.8533260237
0.14  -0.04  63.2500888924
0.14  -0.02  63.5051929244
0.14  6.17561557e-16  63.5931357144
0.14  0.02  63.5051929244
0.14  0.04  63.2500888924
0.14  0.06  62.8533260237
0.14  0.08  62.3551547642
0.14  0.1  61.8071535339
0.14  0.12  61.267446652
0.14  0.14  60.7947560022
0.14  0.16  60.4417642171
0.14  0.18  60.2486025658
0.14  0.2  82.0213157215
0.14  0.22  68.0603627237
0.14  0.24  56.4757213821
0.14  0.26  46.862916652
0.14  0.28  38.8863197032
0.14  0.3  32.2674295177
0.14  0.32  26.7751490916
0.14  0.34  22.2177167377
0.14  0.36  18.4360107706
0.14  0.38  15.2979938104
0.14  0.4  12.6941027283
0.14  0.42  10.5334232759
0.14  0.44  8.74051583509
0.14  0.46  7.25278146169
0.14  0.48  6.01827625778
0.14  0.5  4.99389776271
0.14  0.52  4.14388004075
0.14  0.54  3.43854492185
0.14  0.56  2.85326579516
0.14  0.58  2.3676077768
0.14  0.6  1.96461423057
0.14  0.62  1.630214731
0.14  0.64  1.35273379771
0.14  0.66  1.12248324879
0.14  0.68  0.931423940125
0.14  0.7  0.772885080626
0.14  0.72  0.641331323064
0.14  0.74  0.532169498744
0.14  0.76  0.441588248084
0.14  0.78  0.36642494789
0.14  0.8  0.304055289104
0.14  0.82  0.252301649668
0.14  0.84  0.209357063358
0.14  0.86  0.17372212998
0.14  0.88  0.144152664165
0.14  0.9  0.119616254925
0.14  0.92  0.0992562192674
0.14  0.94  0.0823616913054
0.14  0.96  0.0683428025444
0.14  0.98  0.0567100867599
0.16  -1  0.0469554969589
0.16  -0.98  0.0565872923211
0.16  -0.96  0.0681948197682
0.16  -0.94  0.0821833534077
0.16  -0.92  0.0990412996221
0.16  -0.9  0.119357249663
0.16  -0.88  0.143840530178
0.16  -0.86  0.173345969183
0.16  -0.84  0.208903742184
0.16  -0.82  0.251755340515
0.16  -0.8  0.303396917715
0.16  -0.78  0.365631527382
0.16  -0.76  0.440632076366
0.16  -0.74  0.531017191304
0.16  -0.72  0.639942647357
0.16  -0.7  0.771211551363
0.16  -0.68  0.929407126425
0.16  -0.66  1.12005273407
0.16  -0.64  1.34980472112
0.16  -0.62  1.62668482451
0.16  -0.6  1.96036024834
0.16  -0.58  2.36248119202
0.16  -0.56  2.84708761432
0.16  -0.54  3.4310994352
0.16  -0.52  4.13490729088
0.16  -0.5  4.98308446814
0.16  -0.48  6.00524487488
0.16  -0.46  7.23707700276
0.16  -0.44  8.72158998262
0.16  -0.42  10.5106152382
0.16  -0.4  12.666616168
0.16  -0.38  15.2648690407
0.16  -0.36  18.3960912479
0.16  -0.34  22.1696086813
0.16  -0.32  26.7171728198
0.16  -0.3  32.1975608026
0.16  -0.28  38.8021190949
0.16  -0.26  46.761444306
0.16  -0.24  56.3534344151
0.16  -0.22  67.9129915148
0.16  -0.2  60.1070921607
0.16  -0.18  60.1181461733
0.16  -0.16  60.3108895714
0.16  -0.14  60.6631170228
0.16  -0.12  61.1347841549
0.16  -0.1  61.6733224086
0.16  -0.08  62.220137051
0.16  -0.06  62.7172296195
0.16  -0.04  63.113133377
0.16  -0.02  63.3676850318
0.16  6.17561557e-16  63.4554373991
0.16  0.02  63.3676850318
0.16  0.04  63.113133377
0.16  0.06  62.7172296195
0.16  0.08  62.220137051
0.16  0.1  61.6733224086
0.16  0.12  61.1347841549
0.16  0.14  60.6631170228
0.16  0.16  60.3108895714
0.16  0.18  60.1181461733
0.16  0.2  81.8437148395
0.16  0.22  67.9129915148
0.16  0.24  56.3534344151
0.16  0.26  46.761444306
0.16  0.28  38.8021190949
0.16  0.3  32.1975608026
0.16  0.32  26.7171728198
0.16  0.34  22.1696086813
0.16  0.36  18.3960912479
0.16  0.38  15.2648690407
0.16  0.4  12.666616168
0.16  0.42  10.5106152382
0.16  0.44  8.72158998262
0.16  0.46  7.23707700276
0.16  0.48  6.00524487487
0.16  0.5  4.98308446814
0.16  0.52  4.13490729088
0.16  0.54  3.4310994352
0.16  0.56  2.84708761432
0.16  0.58  2.36248119202
0.16  0.6  1.96036024833
0.16  0.62  1.62668482451
0.16  0.64  1.34980472112
0.16  0.66  1.12005273407
0.16  0.68  0.929407126425
0.16  0.7  0.771211551363
0.16  0.72  0.639942647357
0.16  0.74  0.531017191303
0.16  0.76  0.440632076366
0.16  0.78  0.365631527382
0.16  0.8  0.303396917715
0.16  0.82  0.251755340515
0.16  0.84  0.208903742184
0.16  0.86  0.173345969183
0.16  0.88  0.143840530178
0.16  0.9  0.119357249663
0.16  0.92  0.099041299622
0.16  0.94  0.0821833534077
0.16  0.96  0.0681948197682
0.16  0.98  0.0565872923211
0.18  -1  0.0459957233742
0.18  -0.98  0.0554306441773
0.18  -0.96  0.0668009129656
0.18  -0.94  0.0805035200162
0.18  -0.92  0.0970168886515
0.18  -0.9  0.116917579277
0.18  -0.88  0.140900419856
0.18  -0.86  0.16980276566
0.18  -0.84  0.204633735337
0.18  -0.82  0.246609444054
0.18  -0.8  0.297195463867
0.18  -0.78  0.358157993836
0.18  -0.76  0.431625526444
0.18  -0.74  0.520163163421
0.18  -0.72  0.626862175667
0.18  -0.7  0.755447934254
0.18  -0.68  0.91040998089
0.18  -0.66  1.09715877921
0.18  -0.64  1.32221461986
0.18  -0.62  1.59343527491
0.18  -0.6  1.92029035014
0.18  -0.58  2.3141919141
0.18  -0.56  2.78889294782
0.18  -0.54  3.36096752695
0.18  -0.52  4.0503895017
0.18  -0.5  4.88122987917
0.18  -0.48  5.88249725694
0.18  -0.46  7.08915065148
0.18  -0.44  8.54332008401
0.18  -0.42  10.2957775404
0.18  -0.4  12.4077096631
0.18  -0.38  14.9528540685
0.18  -0.36  18.0200738786
0.18  -0.34  21.7164603563
0.18  -0.32  26.1710719713
0.18  -0.3  31.5394404471
0.18  -0.28  38.0090011141
0.18  -0.26  45.8056371708
0.18  -0.24  55.2015663429
0.18  -0.22  66.5248453011
0.18  -0.2  58.8784990662
0.18  -0.18  58.8893271341
0.18  -0.16  59.0781308439
0.18  -0.14  59.423158742
0.18  -0.12  59.8851849655
0.18  -0.1  60.4127154603
0.18  -0.08  60.9483531738
0.18  -0.06  61.435285136
0.18  -0.04  61.8230965935
0.18  -0.02  62.072445195
0.18  6.17561557e-16  62.1584038979
0.18  0.02  62.072445195
0.18  0.04  61.8230965935
0.18  0.06  61.435285136
0.18  0.08  60.9483531738
0.18  0.1  60.4127154603
0.18  0.12  59.8851849655
0.18  0.14  59.423158742
0.18  0.16  59.0781308439
0.18  0.18  58.8893271341
0.18  0.2  80.1708236837
0.18  0.22  66.5248453011
0.18  0.24  55.2015663429
0.18  0.26  45.8056371708
0.18  0.28  38.0090011141
0.18  0.3  31.5394404471
0.18  0.32  26.1710719713
0.18  0.34  21.7164603563
0.18  0.36  18.0200738786
0.18  0.38  14.9528540685
0.18  0.4  12.407709663
0.18  0.42  10.2957775404
0.18  0.44  8.54332008401
0.18  0.46  7.08915065148
0.18  0.48  5.88249725694
0.18  0.5  4.88122987917
0.18  0.52  4.0503895017
0.18  0.54  3.36096752695
0.18  0.56  2.78889294782
0.18  0.58  2.3141919141
0.18  0.6  1.92029035014
0.18  0.62  1.59343527491
0.18  0.64  1.32221461986
0.18  0.66  1.09715877921
0.18  0.68  0.91040998089
0.18  0.7  0.755447934254
0.18  0.72  0.626862175666
0.18  0.74  0.520163163421
0.18  0.76  0.431625526444
0.18  0.78  0.358157993836
0.18  0.8  0.297195463867
0.18  0.82  0.246609444054
0.18  0.84  0.204633735337
0.18  0.86  0.16980276566
0.18  0.88  0.140900419856
0.18  0.9  0.116917579277
0.18  0.92  0.0970168886515
0.18  0.94  0.0805035200162
0.18  0.96  0.0668009129656
0.18  0.98  0.0554306441773
0.2  -1  0.0441956047742
0.2  -0.98  0.0532612743691
0.2  -0.96  0.0641865489095
0.2  -0.94  0.0773528818022
0.2  -0.92  0.0932199724827
0.2  -0.9  0.112341816713
0.2  -0.88  0.135386049216
0.2  -0.86  0.163157253982
0.2  -0.84  0.196625056135
0.2  -0.82  0.236957976165
0.2  -0.8  0.285564228546
0.2  -0.78  0.344140889219
0.2  -0.76  0.414733148601
0.2  -0.74  0.499805718928
0.2  -0.72  0.602328889107
0.2  -0.7  0.725882231663
0.2  -0.68  0.87477958267
0.2  -0.66  1.05421965834
0.2  -0.64  1.27046756697
0.2  -0.62  1.53107355374
0.2  -0.6  1.84513661577
0.2  -0.58  2.22362219146
0.2  -0.56  2.67974501622
0.2  -0.54  3.22943051187
0.2  -0.52  3.891870819
0.2  -0.5  4.69019488609
0.2  -0.48  5.65227601136
0.2  -0.46  6.81170503241
0.2  -0.44  8.20896314252
0.2  -0.42  9.892835282
0.2  -0.4  11.922113453
0.2  -0.38  14.3676494286
0.2  -0.36  17.3148285257
0.2  -0.34  20.8665508137
0.2  -0.32  25.146823846
0.2  -0.3  30.3050923552
0.2  -0.28  36.5214560805
0.2  -0.26  44.0129579084
0.2  -0.24  53.0411618741
0.2  -0.22  63.921285609
0.2  -0.2  56.5741917626
0.2  -0.18  56.5845960561
0.2  -0.16  56.7660106209
0.2  -0.14  57.0975352823
0.2  -0.12  57.5414793465
0.2  -0.1  58.0483640641
0.2  -0.08  58.5630387111
0.2  -0.06  59.0309137867
0.2  -0.04  59.4035476023
0.2  -0.02  59.6431375345
0.2  6.17561557e-16  59.7257321016
0.2  0.02  59.6431375345
0.2  0.04  59.4035476023
0.2  0.06  59.0309137867
0.2  0.08  58.5630387111
0.2  0.1  58.0483640641
0.2  0.12  57.5414793465
0.2  0.14  57.0975352823
0.2  0.16  56.7660106209
0.2  0.18  56.5845960561
0.2  0.2  77.0332060901
0.2  0.22  63.921285609
0.2  0.24  53.0411618741
0.2  0.26  44.0129579084
0.2  0.28  36.5214560805
0.2  0.3  30.3050923552
0.2  0.32  25.146823846
0.2  0.34  20.8665508137
0.2  0.36  17.3148285257
0.2  0.38  14.3676494286
0.2  0.4  11.922113453
0.2  0.42  9.892835282
0.2  0.44  8.20896314252
0.2  0.46  6.81170503241
0.2  0.48  5.65227601136
0.2  0.5  4.69019488609
0.2  0.52  3.891870819
0.2  0.54  3.22943051187
0.2  0.56  2.67974501622
0.2  0.58  2.22362219146
0.2  0.6  1.84513661577
0.2  0.62  1.53107355374
0.2  0.64  1.27046756697
0.2  0.66  1.05421965834
0.2  0.68  0.87477958267
0.2  0.7  0.725882231662
0.2  0.72  0.602328889107
0.2  0.74  0.499805718928
0.2  0.76  0.414733148601
0.2  0.78  0.344140889219
0.2  0.8  0.285564228546
0.2  0.82  0.236957976165
0.2  0.84  0.196625056135
0.2  0.86  0.163157253982
0.2  0.88  0.135386049216
0.2  0.9  0.112341816713
0.2  0.92  0.0932199724827
0.2  0.94  0.0773528818022
0.2  0.96  0.0641865489095
0.2  0.98  0.0532612743691
0.22  -1  0.041588029449
0.22  -0.98  0.0501188174316
0.22  -0.96  0.06039949221
0.22  -0.94  0.0727890011414
0.22  -0.92  0.0877199210341
0.22  -0.9  0.105713561466
0.22  -0.88  0.127398166188
0.22  -0.86  0.153530848104
0.22  -0.84  0.185024023695
0.22  -0.82  0.222977269827
0.22  -0.8  0.268715715217
0.22  -0.78  0.323836306994
0.22  -0.76  0.390263567738
0.22  -0.74  0.470316789729
0.22  -0.72  0.566791012504
0.22  -0.7  0.683054610999
0.22  -0.68  0.823166901581
0.22  -0.66  0.992019872127
0.22  -0.64  1.19550898464
0.22  -0.62  1.44073901391
0.22  -0.6  1.73627210909
0.22  -0.58  2.09242673914
0.22  -0.56  2.5216379597
0.22  -0.54  3.03889158022
0.22  -0.52  3.66224738996
0.22  -0.5  4.41346971132
0.22  -0.48  5.31878729605
0.22  -0.46  6.40980909602
0.22  -0.44  7.72462788237
0.22  -0.42  9.30915024569
0.22  -0.4  11.2186994139
0.22  -0.38  13.51994685
0.22  -0.36  16.2932400702
0.22  -0.34  19.6354079591
0.22  -0.32  23.6631415273
0.22  -0.3  28.517068151
0.22  -0.28  34.3666615437
0.22  -0.26  41.4161588914
0.22  -0.24  49.9116917463
0.22  -0.22  60.1498796522
0.22  -0.2  53.2362701019
0.22  -0.18  53.246060534
0.22  -0.16  53.4167714972
0.22  -0.14  53.7287359438
0.22  -0.12  54.1464869601
0.22  -0.1  54.6234650821
0.22  -0.08  55.1077735214
0.22  -0.06  55.5480436009
0.22  -0.04  55.8986917293
0.22  -0.02  56.1241456676
0.22  6.17561557e-16  56.2018670905
0.22  0.02  56.1241456676
