-0.34  0.72  0.000327505511127
-0.34  0.74  0.000251750979867
-0.34  0.76  0.000193519051468
-0.34  0.78  0.000148756613782
-0.34  0.8  0.000114348070517
-0.34  0.82  0.0000878984866532
-0.34  0.84  0.0000675668939665
-0.34  0.86  0.0000519381542744
-0.34  0.88  0.0000399244616863
-0.34  0.9  0.0000306896281397
-0.34  0.92  0.0000235908822705
-0.34  0.94  0.0000181341306504
-0.34  0.96  0.0000139395674429
-0.34  0.98  0.000010715238808
-0.32  -1  0.0000107559971495
-0.32  -0.98  0.0000139925904001
-0.32  -0.96  0.000018203108776
-0.32  -0.94  0.0000236806166433
-0.32  -0.92  0.0000308063645339
-0.32  -0.9  0.0000400763252957
-0.32  -0.88  0.0000521357152492
-0.32  -0.86  0.0000678239031272
-0.32  -0.84  0.0000882328325874
-0.32  -0.82  0.000114783024678
-0.32  -0.8  0.000149322450247
-0.32  -0.78  0.000194255154108
-0.32  -0.76  0.000252708583572
-0.32  -0.74  0.000328751267911
-0.32  -0.72  0.000427675999862
-0.32  -0.7  0.000556368229453
-0.32  -0.68  0.000723785311414
-0.32  -0.66  0.000941579963209
-0.32  -0.64  0.00122491132817
-0.32  -0.62  0.00159350009613
-0.32  -0.6  0.00207300112095
-0.32  -0.58  0.00269678907324
-0.32  -0.56  0.00350828141483
-0.32  -0.54  0.00456396038081
-0.32  -0.52  0.00593730430789
-0.32  -0.5  0.00772390194112
-0.32  -0.48  0.0100481056894
-0.32  -0.46  0.0130716869162
-0.32  -0.44  0.0170050956984
-0.32  -0.42  0.0221221087656
-0.32  -0.4  0.0287788851599
-0.32  -0.38  0.0374387559442
-0.32  -0.36  0.0487044733965
-0.32  -0.34  0.0633601643272
-0.32  -0.32  0.0824259075934
-0.32  -0.3  0.107228734564
-0.32  -0.28  0.139494994377
-0.32  -0.26  0.181470512875
-0.32  -0.24  0.236076908638
-0.32  -0.22  0.307114946165
-0.32  -0.2  0.287797649336
-0.32  -0.18  0.291126453326
-0.32  -0.16  0.304694579938
-0.32  -0.14  0.325970310174
-0.32  -0.12  0.351627043354
-0.32  -0.1  0.37844807177
-0.32  -0.08  0.403740493818
-0.32  -0.06  0.425413884408
-0.32  -0.04  0.441932582181
-0.32  -0.02  0.452249318693
-0.32  6.17561557e-16  0.455754894968
-0.32  0.02  0.452249318693
-0.32  0.04  0.441932582181
-0.32  0.06  0.425413884408
-0.32  0.08  0.403740493818
-0.32  0.1  0.37844807177
-0.32  0.12  0.351627043354
-0.32  0.14  0.325970310174
-0.32  0.16  0.304694579938
-0.32  0.18  0.291126453326
-0.32  0.2  0.399529080171
-0.32  0.22  0.307114946165
-0.32  0.24  0.236076908638
-0.32  0.26  0.181470512875
-0.32  0.28  0.139494994377
-0.32  0.3  0.107228734564
-0.32  0.32  0.0824259075933
-0.32  0.34  0.0633601643271
-0.32  0.36  0.0487044733964
-0.32  0.38  0.0374387559442
-0.32  0.4  0.0287788851599
-0.32  0.42  0.0221221087656
-0.32  0.44  0.0170050956984
-0.32  0.46  0.0130716869162
-0.32  0.48  0.0100481056894
-0.32  0.5  0.00772390194111
-0.32  0.52  0.00593730430789
-0.32  0.54  0.0045639603808
-0.32  0.56  0.00350828141483
-0.32  0.58  0.00269678907324
-0.32  0.6  0.00207300112094
-0.32  0.62  0.00159350009613
-0.32  0.64  0.00122491132817
-0.32  0.66  0.000941579963208
-0.32  0.68  0.000723785311413
-0.32  0.7  0.000556368229452
-0.32  0.72  0.000427675999861
-0.32  0.74  0.000328751267911
-0.32  0.76  0.000252708583572
-0.32  0.78  0.000194255154108
-0.32  0.8  0.000149322450247
-0.32  0.82  0.000114783024678
-0.32  0.84  0.0000882328325873
-0.32  0.86  0.0000678239031271
-0.32  0.88  0.0000521357152492
-0.32  0.9  0.0000400763252956
-0.32  0.92  0.0000308063645339
-0.32  0.94  0.0000236806166432
-0.32  0.96  0.000018203108776
-0.32  0.98  0.0000139925904001
-0.3  -1  0.0000140458150447
-0.3  -0.98  0.0000182723492788
-0.3  -0.96  0.0000237706923453
-0.3  -0.94  0.0000309235449669
-0.3  -0.92  0.0000402287665598
-0.3  -0.9  0.0000523340277012
-0.3  -0.88  0.0000680818898925
-0.3  -0.86  0.0000885684502976
-0.3  -0.84  0.000115219633305
-0.3  -0.82  0.000149890439026
-0.3  -0.8  0.000194994056715
-0.3  -0.78  0.000253669829785
-0.3  -0.76  0.000330001763271
-0.3  -0.74  0.000429302782496
-0.3  -0.72  0.000558484528179
-0.3  -0.7  0.0007265384268
-0.3  -0.68  0.000945161520119
-0.3  -0.66  0.00122957061342
-0.3  -0.64  0.00159956140956
-0.3  -0.62  0.00208088634767
-0.3  -0.6  0.00270704704805
-0.3  -0.58  0.0035216261227
-0.3  -0.56  0.00458132065235
-0.3  -0.54  0.00595988846867
-0.3  -0.52  0.00775328191463
-0.3  -0.5  0.0100863264076
-0.3  -0.48  0.0131214086525
-0.3  -0.46  0.0170697792307
-0.3  -0.44  0.0222062562566
-0.3  -0.42  0.0288883535206
-0.3  -0.4  0.0375811644919
-0.3  -0.38  0.0488897341816
-0.3  -0.36  0.0636011720411
-0.3  -0.34  0.0827394370763
-0.3  -0.32  0.107636608383
-0.3  -0.3  0.14002560174
-0.3  -0.28  0.182160785602
-0.3  -0.26  0.236974891727
-0.3  -0.24  0.308283141858
-0.3  -0.22  0.401048798298
-0.3  -0.2  0.375823133523
-0.3  -0.18  0.380170081975
-0.3  -0.16  0.39788814142
-0.3  -0.14  0.425671243972
-0.3  -0.12  0.459175318385
-0.3  -0.1  0.494199798144
-0.3  -0.08  0.52722813361
-0.3  -0.06  0.555530524488
-0.3  -0.04  0.577101613666
-0.3  -0.02  0.590573816279
-0.3  6.17561557e-16  0.595151604401
-0.3  0.02  0.590573816279
-0.3  0.04  0.577101613666
-0.3  0.06  0.555530524488
-0.3  0.08  0.52722813361
-0.3  0.1  0.494199798144
-0.3  0.12  0.459175318385
-0.3  0.14  0.425671243972
-0.3  0.16  0.39788814142
-0.3  0.18  0.380170081975
-0.3  0.2  0.521728621445
-0.3  0.22  0.401048798298
-0.3  0.24  0.308283141858
-0.3  0.26  0.236974891726
-0.3  0.28  0.182160785602
-0.3  0.3  0.14002560174
-0.3  0.32  0.107636608383
-0.3  0.34  0.0827394370762
-0.3  0.36  0.063601172041
-0.3  0.38  0.0488897341816
-0.3  0.4  0.0375811644918
-0.3  0.42  0.0288883535205
-0.3  0.44  0.0222062562566
-0.3  0.46  0.0170697792307
-0.3  0.48  0.0131214086525
-0.3  0.5  0.0100863264076
-0.3  0.52  0.00775328191462
-0.3  0.54  0.00595988846866
-0.3  0.56  0.00458132065235
-0.3  0.58  0.0035216261227
-0.3  0.6  0.00270704704804
-0.3  0.62  0.00208088634767
-0.3  0.64  0.00159956140956
-0.3  0.66  0.00122957061342
-0.3  0.68  0.000945161520118
-0.3  0.7  0.000726538426799
-0.3  0.72  0.000558484528179
-0.3  0.74  0.000429302782496
-0.3  0.76  0.000330001763271
-0.3  0.78  0.000253669829785
-0.3  0.8  0.000194994056715
-0.3  0.82  0.000149890439026
-0.3  0.84  0.000115219633305
-0.3  0.86  0.0000885684502975
-0.3  0.88  0.0000680818898924
-0.3  0.9  0.0000523340277011
-0.3  0.92  0.0000402287665597
-0.3  0.94  0.0000309235449669
-0.3  0.96  0.0000237706923453
-0.3  0.98  0.0000182723492788
-0.28  -1  0.0000183418531567
-0.28  -0.98  0.0000238611106749
-0.28  -0.96  0.0000310411711278
-0.28  -0.94  0.0000403817876759
-0.28  -0.92  0.0000525330944888
-0.28  -0.9  0.0000683408579809
-0.28  -0.88  0.0000889053446216
-0.28  -0.86  0.000115657902693
-0.28  -0.84  0.000150460588305
-0.28  -0.82  0.00019573576994
-0.28  -0.8  0.000254634732361
-0.28  -0.78  0.000331257015233
-0.28  -0.76  0.000430935753043
-0.28  -0.74  0.000560608876827
-0.28  -0.72  0.000729302014413
-0.28  -0.7  0.000948756700461
-0.28  -0.68  0.00123424762153
-0.28  -0.66  0.00160564577886
-0.28  -0.64  0.00208880156802
-0.28  -0.62  0.00271734404187
-0.28  -0.6  0.00353502159082
-0.28  -0.58  0.00459874695844
-0.28  -0.56  0.00598255853448
-0.28  -0.54  0.0077827736429
-0.28  -0.52  0.0101246925086
-0.28  -0.5  0.013171319519
-0.28  -0.48  0.0171347088046
-0.28  -0.46  0.0222907238257
-0.28  -0.44  0.0289982382741
-0.28  -0.42  0.0377241147294
-0.28  -0.4  0.0490756996569
-0.28  -0.38  0.0638430964937
-0.28  -0.36  0.0830541591543
-0.28  -0.34  0.108046033662
-0.28  -0.32  0.140558227413
-0.28  -0.3  0.182853683971
-0.28  -0.28  0.23787629054
-0.28  -0.26  0.309455781103
-0.28  -0.24  0.402574297089
-0.28  -0.22  0.523713158949
-0.28  -0.2  0.490771999065
-0.28  -0.18  0.496448500566
-0.28  -0.16  0.519585786906
-0.28  -0.14  0.555866599776
-0.28  -0.12  0.599618194902
-0.28  -0.1  0.645355224941
-0.28  -0.08  0.688485572108
-0.28  -0.06  0.725444502282
-0.28  -0.04  0.753613301947
-0.28  -0.02  0.771206098182
-0.28  6.17561557e-16  0.77718404373
-0.28  0.02  0.771206098182
-0.28  0.04  0.753613301947
-0.28  0.06  0.725444502282
-0.28  0.08  0.688485572108
-0.28  0.1  0.645355224941
-0.28  0.12  0.599618194902
-0.28  0.14  0.555866599776
-0.28  0.16  0.519585786906
-0.28  0.18  0.496448500566
-0.28  0.2  0.681303984978
-0.28  0.22  0.523713158949
-0.28  0.24  0.402574297088
-0.28  0.26  0.309455781103
-0.28  0.28  0.237876290539
-0.28  0.3  0.182853683971
-0.28  0.32  0.140558227413
-0.28  0.34  0.108046033661
-0.28  0.36  0.0830541591542
-0.28  0.38  0.0638430964937
-0.28  0.4  0.0490756996568
-0.28  0.42  0.0377241147294
-0.28  0.44  0.0289982382741
-0.28  0.46  0.0222907238257
-0.28  0.48  0.0171347088046
-0.28  0.5  0.013171319519
-0.28  0.52  0.0101246925086
-0.28  0.54  0.00778277364289
-0.28  0.56  0.00598255853447
-0.28  0.58  0.00459874695843
-0.28  0.6  0.00353502159082
-0.28  0.62  0.00271734404186
-0.28  0.64  0.00208880156801
-0.28  0.66  0.00160564577886
-0.28  0.68  0.00123424762153
-0.28  0.7  0.00094875670046
-0.28  0.72  0.000729302014412
-0.28  0.74  0.000560608876826
-0.28  0.76  0.000430935753042
-0.28  0.78  0.000331257015232
-0.28  0.8  0.000254634732361
-0.28  0.82  0.00019573576994
-0.28  0.84  0.000150460588305
-0.28  0.86  0.000115657902693
-0.28  0.88  0.0000889053446216
-0.28  0.9  0.0000683408579809
-0.28  0.92  0.0000525330944888
-0.28  0.94  0.0000403817876758
-0.28  0.96  0.0000310411711277
-0.28  0.98  0.0000238611106748
-0.26  -1  0.0000239518729353
-0.26  -0.98  0.0000311592447118
-0.26  -0.96  0.0000405353908496
-0.26  -0.94  0.0000527329184814
-0.26  -0.92  0.0000686008111254
-0.26  -0.9  0.0000892435204154
-0.26  -0.88  0.000116097839158
-0.26  -0.86  0.000151032906304
-0.26  -0.84  0.000196480304475
-0.26  -0.82  0.000255603305208
-0.26  -0.8  0.000332517041888
-0.26  -0.78  0.00043257493504
-0.26  -0.76  0.000562741306015
-0.26  -0.74  0.000732076114088
-0.26  -0.72  0.000952365556055
-0.26  -0.7  0.00123894241993
-0.26  -0.68  0.00161175329172
-0.26  -0.66  0.00209674689606
-0.26  -0.64  0.00272768020312
-0.26  -0.62  0.00354846801226
-0.26  -0.6  0.00461623955024
-0.26  -0.58  0.00600531483209
-0.26  -0.56  0.00781237755103
-0.26  -0.54  0.0101632045457
-0.26  -0.52  0.0132214202351
-0.26  -0.5  0.0171998853558
-0.26  -0.48  0.0223755126902
-0.26  -0.46  0.0291085410043
-0.26  -0.44  0.0378676087173
-0.26  -0.42  0.0492623725026
-0.26  -0.4  0.0640859411722
-0.26  -0.38  0.0833700783638
-0.26  -0.36  0.108457016301
-0.26  -0.34  0.141092879073
-0.26  -0.32  0.183549217968
-0.26  -0.3  0.238781118069
-0.26  -0.28  0.310632880802
-0.26  -0.26  0.404105598531
-0.26  -0.24  0.525705245184
-0.26  -0.22  0.683895511021
-0.26  -0.2  0.640879002866
-0.26  -0.18  0.648291713103
-0.26  -0.16  0.678505745337
-0.26  -0.14  0.725883369201
-0.26  -0.12  0.78301678087
-0.26  -0.1  0.842742890472
-0.26  -0.08  0.899065039939
-0.26  -0.06  0.947328189349
-0.26  -0.04  0.984112668243
-0.26  -0.02  1.0070863785
-0.26  6.17561557e-16  1.01489273214
-0.26  0.02  1.0070863785
-0.26  0.04  0.984112668243
-0.26  0.06  0.947328189349
-0.26  0.08  0.899065039939
-0.26  0.1  0.842742890472
-0.26  0.12  0.78301678087
-0.26  0.14  0.725883369201
-0.26  0.16  0.678505745337
-0.26  0.18  0.648291713103
-0.26  0.2  0.889686900176
-0.26  0.22  0.68389551102
-0.26  0.24  0.525705245183
-0.26  0.26  0.404105598531
-0.26  0.28  0.310632880802
-0.26  0.3  0.238781118069
-0.26  0.32  0.183549217968
-0.26  0.34  0.141092879073
-0.26  0.36  0.108457016301
-0.26  0.38  0.0833700783637
-0.26  0.4  0.0640859411722
-0.26  0.42  0.0492623725026
-0.26  0.44  0.0378676087172
-0.26  0.46  0.0291085410043
-0.26  0.48  0.0223755126902
-0.26  0.5  0.0171998853558
-0.26  0.52  0.0132214202351
-0.26  0.54  0.0101632045457
-0.26  0.56  0.00781237755102
-0.26  0.58  0.00600531483208
-0.26  0.6  0.00461623955024
-0.26  0.62  0.00354846801226
-0.26  0.64  0.00272768020312
-0.26  0.66  0.00209674689606
-0.26  0.68  0.00161175329172
-0.26  0.7  0.00123894241993
-0.26  0.72  0.000952365556053
-0.26  0.74  0.000732076114087
-0.26  0.76  0.000562741306015
-0.26  0.78  0.000432574935039
-0.26  0.8  0.000332517041888
-0.26  0.82  0.000255603305208
-0.26  0.84  0.000196480304474
-0.26  0.86  0.000151032906304
-0.26  0.88  0.000116097839158
-0.26  0.9  0.0000892435204153
-0.26  0.92  0.0000686008111253
-0.26  0.94  0.0000527329184814
-0.26  0.96  0.0000405353908496
-0.26  0.98  0.0000311592447118
-0.24  -1  0.0000312777674211
-0.24  -0.98  0.0000406895782951
-0.24  -0.96  0.0000529335025592
-0.24  -0.94  0.0000688617530727
-0.24  -0.92  0.0000895829825532
-0.24  -0.9  0.000116539449042
-0.24  -0.88  0.00015160740127
-0.24  -0.86  0.00019722767105
-0.24  -0.84  0.000256575562286
-0.24  -0.82  0.0003337818614
-0.24  -0.8  0.000434220352114
-0.24  -0.78  0.000564881846481
-0.24  -0.76  0.000734860765809
-0.24  -0.74  0.000955988138917
-0.24  -0.72  0.00124365507627
-0.24  -0.7  0.00161788403618
-0.24  -0.68  0.00210472244634
-0.24  -0.66  0.00273805568079
-0.24  -0.64  0.00356196558085
-0.24  -0.62  0.00463379867991
-0.24  -0.6  0.00602815768949
-0.24  -0.58  0.00784209406571
-0.24  -0.56  0.0102018630738
-0.24  -0.54  0.013271711523
-0.24  -0.52  0.0172653098239
-0.24  -0.5  0.0224606240724
-0.24  -0.48  0.0292192633012
-0.24  -0.46  0.0380116485237
-0.24  -0.44  0.0494497554096
-0.24  -0.42  0.0643297095769
-0.24  -0.4  0.0836871992584
-0.24  -0.38  0.108869562225
-0.24  -0.36  0.141629564428
-0.24  -0.34  0.184247397619
-0.24  -0.32  0.239689387358
-0.24  -0.3  0.311814457922
-0.24  -0.28  0.405642724697
-0.24  -0.26  0.527704908863
-0.24  -0.24  0.686496894641
-0.24  -0.22  0.89307106763
-0.24  -0.2  0.836897575854
-0.24  -0.18  0.846577529793
-0.24  -0.16  0.886032793922
-0.24  -0.14  0.947901287639
-0.24  -0.12  1.02250946408
-0.24  -0.1  1.10050333831
-0.24  -0.08  1.17405212075
-0.24  -0.06  1.23707698592
-0.24  -0.04  1.28511232657
-0.24  -0.02  1.31511275151
-0.24  6.17561557e-16  1.3253067482
-0.24  0.02  1.31511275151
-0.24  0.04  1.28511232657
-0.24  0.06  1.23707698592
-0.24  0.08  1.17405212075
-0.24  0.1  1.10050333831
-0.24  0.12  1.02250946408
-0.24  0.14  0.947901287639
-0.24  0.16  0.886032793922
-0.24  0.18  0.846577529793
-0.24  0.2  1.16180559309
-0.24  0.22  0.893071067629
-0.24  0.24  0.68649689464
-0.24  0.26  0.527704908863
-0.24  0.28  0.405642724697
-0.24  0.3  0.311814457921
-0.24  0.32  0.239689387358
-0.24  0.34  0.184247397619
-0.24  0.36  0.141629564428
-0.24  0.38  0.108869562225
-0.24  0.4  0.0836871992583
-0.24  0.42  0.0643297095768
-0.24  0.44  0.0494497554096
-0.24  0.46  0.0380116485237
-0.24  0.48  0.0292192633012
-0.24  0.5  0.0224606240724
-0.24  0.52  0.0172653098239
-0.24  0.54  0.013271711523
-0.24  0.56  0.0102018630738
-0.24  0.58  0.0078420940657
-0.24  0.6  0.00602815768949
-0.24  0.62  0.0046337986799
-0.24  0.64  0.00356196558084
-0.24  0.66  0.00273805568078
-0.24  0.68  0.00210472244634
-0.24  0.7  0.00161788403618
-0.24  0.72  0.00124365507627
-0.24  0.74  0.000955988138916
-0.24  0.76  0.000734860765809
-0.24  0.78  0.000564881846481
-0.24  0.8  0.000434220352113
-0.24  0.82  0.0003337818614
-0.24  0.84  0.000256575562286
-0.24  0.86  0.000197227671049
-0.24  0.88  0.00015160740127
-0.24  0.9  0.000116539449041
-0.24  0.92  0.0000895829825531
-0.24  0.94  0.0000688617530726
-0.24  0.96  0.0000529335025592
-0.24  0.98  0.000040689578295
-0.22  -1  0.0000408443522347
-0.22  -0.98  0.0000531348496134
-0.22  -0.96  0.0000691236875841
-0.22  -0.94  0.0000899237359281
-0.22  -0.92  0.000116982738709
-0.22  -0.9  0.000152184081485
-0.22  -0.88  0.000197977880438
-0.22  -0.86  0.00025755151761
-0.22  -0.84  0.000335051491999
-0.22  -0.82  0.000435872027981
-0.22  -0.8  0.000567030529079
-0.22  -0.78  0.000737656009715
-0.22  -0.76  0.000959624501265
-0.22  -0.74  0.00124838565849
-0.22  -0.72  0.0016240381006
-0.22  -0.7  0.0021127283338
-0.22  -0.68  0.00274847062442
-0.22  -0.66  0.00357551449113
-0.22  -0.64  0.00465142460052
-0.22  -0.62  0.00605108743596
-0.22  -0.6  0.00787192361529
-0.22  -0.58  0.0102406686502
-0.22  -0.56  0.0133221941076
-0.22  -0.54  0.0173309831519
-0.22  -0.52  0.022546059199
-0.22  -0.5  0.0293304067606
-0.22  -0.48  0.038156236225
-0.22  -0.46  0.0496378510787
-0.22  -0.44  0.0645744052213
-0.22  -0.42  0.0840055264091
-0.22  -0.4  0.109283677381
-0.22  -0.38  0.142168291211
-0.22  -0.36  0.184948232987
-0.22  -0.34  0.240601111498
-0.22  -0.32  0.313000529493
-0.22  -0.3  0.407185697743
-0.22  -0.28  0.529712178811
-0.22  -0.26  0.689108173336
-0.22  -0.24  0.896468107689
-0.22  -0.22  1.16622483842
-0.22  -0.2  1.09287018195
-0.22  -0.18  1.10551083635
-0.22  -0.16  1.15703384577
-0.22  -0.14  1.23782537145
-0.22  -0.12  1.33525312571
-0.22  -0.1  1.43710212369
-0.22  -0.08  1.53314645883
-0.22  -0.06  1.6154480425
-0.22  -0.04  1.67817542156
-0.22  -0.02  1.7173517447
-0.22  6.17561557e-16  1.73066366643
-0.22  0.02  1.7173517447
-0.22  0.04  1.67817542156
-0.22  0.06  1.6154480425
-0.22  0.08  1.53314645883
-0.22  0.1  1.43710212369
-0.22  0.12  1.33525312571
-0.22  0.14  1.23782537145
-0.22  0.16  1.15703384577
-0.22  0.18  1.10551083635
-0.22  0.2  1.5171542212
-0.22  0.22  1.16622483842
-0.22  0.24  0.896468107688
-0.22  0.26  0.689108173335
-0.22  0.28  0.52971217881
-0.22  0.3  0.407185697743
-0.22  0.32  0.313000529493
-0.22  0.34  0.240601111497
-0.22  0.36  0.184948232987
-0.22  0.38  0.142168291211
-0.22  0.4  0.109283677381
-0.22  0.42  0.084005526409
-0.22  0.44  0.0645744052212
-0.22  0.46  0.0496378510787
-0.22  0.48  0.038156236225
-0.22  0.5  0.0293304067605
-0.22  0.52  0.022546059199
-0.22  0.54  0.0173309831519
-0.22  0.56  0.0133221941076
-0.22  0.58  0.0102406686502
-0.22  0.6  0.00787192361528
-0.22  0.62  0.00605108743595
-0.22  0.64  0.00465142460052
-0.22  0.66  0.00357551449112
-0.22  0.68  0.00274847062442
-0.22  0.7  0.0021127283338
-0.22  0.72  0.0016240381006
-0.22  0.74  0.00124838565849
-0.22  0.76  0.000959624501264
-0.22  0.78  0.000737656009714
-0.22  0.8  0.000567030529078
-0.22  0.82  0.000435872027981
-0.22  0.84  0.000335051491998
-0.22  0.86  0.00025755151761
-0.22  0.88  0.000197977880438
-0.22  0.9  0.000152184081485
-0.22  0.92  0.000116982738709
-0.22  0.94  0.000089923735928
-0.22  0.96  0.000069123687584
-0.22  0.98  0.0000531348496134
-0.2  -1  0.0000533369625462
-0.2  -0.98  0.000069386618435
-0.2  -0.96  0.0000902657854517
-0.2  -0.94  0.000117427714551
-0.2  -0.92  0.000152762955261
-0.2  -0.9  0.000198730943453
-0.2  -0.88  0.000258531185248
-0.2  -0.86  0.000336325951985
-0.2  -0.84  0.00043752998645
-0.2  -0.82  0.000569187384778
-0.2  -0.8  0.000740461886096
-0.2  -0.78  0.000963274695511
-0.2  -0.76  0.00125313423477
-0.2  -0.74  0.00163021557369
-0.2  -0.72  0.00212076467385
-0.2  -0.7  0.00275892518415
-0.2  -0.68  0.00358911493839
-0.2  -0.66  0.00466911756615
-0.2  -0.64  0.00607410440198
-0.2  -0.62  0.00790186662972
-0.2  -0.6  0.0102796218342
-0.2  -0.58  0.0133728687165
-0.2  -0.56  0.0173969062863
-0.2  -0.54  0.0226318193015
-0.2  -0.52  0.0294419729845
-0.2  -0.5  0.0383013739052
-0.2  -0.48  0.0498266622212
-0.2  -0.46  0.0648200316326
-0.2  -0.44  0.0843250644042
-0.2  -0.42  0.109699367737
-0.2  -0.4  0.14270906719
-0.2  -0.38  0.185651734175
-0.2  -0.36  0.241516303629
-0.2  -0.34  0.314191112612
-0.2  -0.32  0.408734539909
-0.2  -0.3  0.531727083958
-0.2  -0.28  0.691729384743
-0.2  -0.26  0.899878069319
-0.2  -0.24  1.17066089355
-0.2  -0.22  1.52292513222
-0.2  -0.2  1.42713429822
-0.2  -0.18  1.44364120978
-0.2  -0.16  1.51092299229
-0.2  -0.14  1.61642532843
-0.2  -0.12  1.74365223242
-0.2  -0.1  1.87665265705
-0.2  -0.08  2.0020730108
-0.2  -0.06  2.10954726968
-0.2  -0.04  2.19146037845
-0.2  -0.02  2.24261913029
-0.2  6.17561557e-16  2.2600026223
-0.2  0.02  2.24261913029
-0.2  0.04  2.19146037845
-0.2  0.06  2.10954726968
-0.2  0.08  2.0020730108
-0.2  0.1  1.87665265705
-0.2  0.12  1.74365223242
-0.2  0.14  1.61642532843
-0.2  0.16  1.51092299229
-0.2  0.18  1.44364120978
-0.2  0.2  1.9811894043
-0.2  0.22  1.52292513222
-0.2  0.24  1.17066089355
-0.2  0.26  0.899878069318
-0.2  0.28  0.691729384742
-0.2  0.3  0.531727083957
-0.2  0.32  0.408734539909
-0.2  0.34  0.314191112612
-0.2  0.36  0.241516303629
-0.2  0.38  0.185651734174
-0.2  0.4  0.14270906719
-0.2  0.42  0.109699367737
-0.2  0.44  0.0843250644041
-0.2  0.46  0.0648200316325
-0.2  0.48  0.0498266622211
-0.2  0.5  0.0383013739051
-0.2  0.52  0.0294419729845
-0.2  0.54  0.0226318193014
-0.2  0.56  0.0173969062863
-0.2  0.58  0.0133728687165
-0.2  0.6  0.0102796218342
-0.2  0.62  0.00790186662971
-0.2  0.64  0.00607410440197
-0.2  0.66  0.00466911756614
-0.2  0.68  0.00358911493839
-0.2  0.7  0.00275892518414
-0.2  0.72  0.00212076467384
-0.2  0.74  0.00163021557369
-0.2  0.76  0.00125313423477
-0.2  0.78  0.00096327469551
-0.2  0.8  0.000740461886095
-0.2  0.82  0.000569187384777
-0.2  0.84  0.00043752998645
-0.2  0.86  0.000336325951984
-0.2  0.88  0.000258531185247
-0.2  0.9  0.000198730943452
-0.2  0.92  0.000152762955261
-0.2  0.94  0.00011742771455
-0.2  0.96  0.0000902657854516
-0.2  0.98  0.0000693866184349
-0.18  -1  0.0000696505494153
-0.18  -0.98  0.0000906091360542
-0.18  -0.96  0.000117874382979
-0.18  -0.94  0.000153344030942
-0.18  -0.92  0.000199486870949
-0.18  -0.9  0.000259514579318
-0.18  -0.88  0.000337605259727
-0.18  -0.86  0.000439194251417
-0.18  -0.84  0.000571352444668
-0.18  -0.82  0.000743278435395
-0.18  -0.8  0.000966938774269
-0.18  -0.78  0.00125790087357
-0.18  -0.76  0.00163641654448
-0.18  -0.74  0.00212883158231
-0.18  -0.72  0.00276941951064
-0.18  -0.7  0.00360276711867
-0.18  -0.68  0.0046868778318
-0.18  -0.66  0.00609720891933
-0.18  -0.64  0.00793192354059
-0.18  -0.62  0.0103187231873
-0.18  -0.6  0.0134237360801
-0.18  -0.58  0.0174630801774
-0.18  -0.56  0.022717905616
-0.18  -0.54  0.0295539635811
-0.18  -0.52  0.0384470636562
-0.18  -0.5  0.0500161915584
-0.18  -0.48  0.065066592351
-0.18  -0.46  0.0846458178494
-0.18  -0.44  0.110116639284
-0.18  -0.42  0.143251900158
-0.18  -0.4  0.186357911321
-0.18  -0.38  0.242434976944
-0.18  -0.36  0.31538622444
-0.18  -0.34  0.41028927352
-0.18  -0.32  0.533749653348
-0.18  -0.3  0.694360566644
-0.18  -0.28  0.903301001671
-0.18  -0.26  1.17511382244
-0.18  -0.24  1.52871799448
-0.18  -0.22  1.98872540005
-0.18  -0.2  1.86363608303
-0.18  -0.18  1.88519178108
-0.18  -0.16  1.97305229833
-0.18  -0.14  2.11082346725
-0.18  -0.12  2.27696385733
-0.18  -0.1  2.45064365095
-0.18  -0.08  2.61442494126
-0.18  -0.06  2.75477116312
-0.18  -0.04  2.86173812858
-0.18  -0.02  2.92854424206
-0.18  6.17561557e-16  2.95124463052
-0.18  0.02  2.92854424206
-0.18  0.04  2.86173812858
-0.18  0.06  2.75477116312
-0.18  0.08  2.61442494126
-0.18  0.1  2.45064365095
-0.18  0.12  2.27696385733
-0.18  0.14  2.11082346725
-0.18  0.16  1.97305229833
-0.18  0.18  1.88519178108
-0.18  0.2  2.587153897
-0.18  0.22  1.98872540005
-0.18  0.24  1.52871799447
-0.18  0.26  1.17511382244
-0.18  0.28  0.90330100167
-0.18  0.3  0.694360566644
-0.18  0.32  0.533749653348
-0.18  0.34  0.410289273519
-0.18  0.36  0.315386224439
-0.18  0.38  0.242434976944
-0.18  0.4  0.186357911321
-0.18  0.42  0.143251900157
-0.18  0.44  0.110116639284
-0.18  0.46  0.0846458178493
-0.18  0.48  0.065066592351
-0.18  0.5  0.0500161915584
-0.18  0.52  0.0384470636561
-0.18  0.54  0.029553963581
-0.18  0.56  0.0227179056159
-0.18  0.58  0.0174630801773
-0.18  0.6  0.0134237360801
-0.18  0.62  0.0103187231873
-0.18  0.64  0.00793192354058
-0.18  0.66  0.00609720891932
-0.18  0.68  0.0046868778318
-0.18  0.7  0.00360276711867
-0.18  0.72  0.00276941951064
-0.18  0.74  0.00212883158231
-0.18  0.76  0.00163641654448
-0.18  0.78  0.00125790087356
-0.18  0.8  0.000966938774268
-0.18  0.82  0.000743278435394
-0.18  0.84  0.000571352444667
-0.18  0.86  0.000439194251417
-0.18  0.88  0.000337605259727
-0.18  0.9  0.000259514579318
-0.18  0.92  0.000199486870948
-0.18  0.94  0.000153344030942
-0.18  0.96  0.000117874382979
-0.18  0.98  0.0000906091360541
-0.16  -1  0.0000909537926847
-0.16  -0.98  0.000118322750433
-0.16  -0.96  0.000153927316903
-0.16  -0.94  0.000200245673822
-0.16  -0.92  0.000260501713998
-0.16  -0.9  0.000338889433667
-0.16  -0.88  0.000440864846871
-0.16  -0.86  0.000573525739955
-0.16  -0.84  0.000746105698209
-0.16  -0.82  0.000970616790353
-0.16  -0.8  0.00126268564357
-0.16  -0.78  0.00164264110237
-0.16  -0.76  0.00213692917546
-0.16  -0.74  0.00277995375518
-0.16  -0.72  0.00361647122876
-0.16  -0.7  0.00470470565349
-0.16  -0.68  0.00612040132103
-0.16  -0.66  0.00796209478115
-0.16  -0.64  0.0103579732731
-0.16  -0.62  0.0134747969316
-0.16  -0.6  0.0175295057789
-0.16  -0.58  0.0228043193833
-0.16  -0.56  0.0296663801645
-0.16  -0.54  0.038593307578
-0.16  -0.52  0.0502064418224
-0.16  -0.5  0.0653140909306
-0.16  -0.48  0.0849677913681
-0.16  -0.46  0.110535498039
-0.16  -0.44  0.143796797939
-0.16  -0.42  0.187066774605
-0.16  -0.4  0.243357144685
-0.16  -0.38  0.316585882202
-0.16  -0.36  0.411849920985
-0.16  -0.34  0.535779916134
-0.16  -0.32  0.697001756966
-0.16  -0.3  0.906736954082
-0.16  -0.28  1.17958368925
-0.16  -0.26  1.53453289147
-0.16  -0.24  1.99629006103
-0.16  -0.22  2.59699484443
-0.16  -0.2  2.4336458414
-0.16  -0.18  2.46179454242
-0.16  -0.16  2.57652798441
-0.16  -0.14  2.75643769713
-0.16  -0.12  2.97339361094
-0.16  -0.1  3.20019492228
-0.16  -0.08  3.41407018456
-0.16  -0.06  3.59734255318
-0.16  -0.04  3.73702632139
-0.16  -0.02  3.82426568198
-0.16  6.17561557e-16  3.85390918721
-0.16  0.02  3.82426568198
-0.16  0.04  3.73702632139
-0.16  0.06  3.59734255318
-0.16  0.08  3.41407018456
-0.16  0.1  3.20019492228
-0.16  0.12  2.97339361094
-0.16  0.14  2.75643769713
-0.16  0.16  2.57652798441
-0.16  0.18  2.46179454242
-0.16  0.2  3.37845804758
-0.16  0.22  2.59699484443
-0.16  0.24  1.99629006102
-0.16  0.26  1.53453289147
-0.16  0.28  1.17958368925
-0.16  0.3  0.906736954081
-0.16  0.32  0.697001756965
-0.16  0.34  0.535779916134
-0.16  0.36  0.411849920985
-0.16  0.38  0.316585882202
-0.16  0.4  0.243357144684
-0.16  0.42  0.187066774605
-0.16  0.44  0.143796797939
-0.16  0.46  0.110535498039
-0.16  0.48  0.084967791368
-0.16  0.5  0.0653140909306
-0.16  0.52  0.0502064418223
-0.16  0.54  0.038593307578
-0.16  0.56  0.0296663801645
-0.16  0.58  0.0228043193832
-0.16  0.6  0.0175295057789
-0.16  0.62  0.0134747969316
-0.16  0.64  0.0103579732731
-0.16  0.66  0.00796209478114
-0.16  0.68  0.00612040132102
-0.16  0.7  0.00470470565348
-0.16  0.72  0.00361647122876
-0.16  0.74  0.00277995375518
-0.16  0.76  0.00213692917546
-0.16  0.78  0.00164264110237
-0.16  0.8  0.00126268564357
-0.16  0.82  0.000970616790352
-0.16  0.84  0.000746105698208
-0.16  0.86  0.000573525739954
-0.16  0.88  0.000440864846871
-0.16  0.9  0.000338889433667
-0.16  0.92  0.000260501713997
-0.16  0.94  0.000200245673821
-0.16  0.96  0.000153927316903
-0.16  0.98  0.000118322750433
-0.14  -1  0.000118772823376
-0.14  -0.98  0.000154512821552
-0.14  -0.96  0.000201007363009
-0.14  -0.94  0.000261492603514
-0.14  -0.92  0.000340178492314
-0.14  -0.9  0.000442541796892
-0.14  -0.88  0.000575707301965
-0.14  -0.86  0.000748943715291
-0.14  -0.84  0.000974308796777
-0.14  -0.82  0.00126748861376
-0.14  -0.8  0.00164888933706
-0.14  -0.78  0.00214505757003
-0.14  -0.76  0.0027905280696
-0.14  -0.74  0.00363022746618
-0.14  -0.72  0.00472260128817
-0.14  -0.7  0.00614368194137
-0.14  -0.68  0.00799238078626
-0.14  -0.66  0.0103973726573
-0.14  -0.64  0.0135260520071
-0.14  -0.62  0.0175961840485
-0.14  -0.6  0.022891061849
-0.14  -0.58  0.0297792243552
-0.14  -0.56  0.0387401077786
-0.14  -0.54  0.0503974157552
-0.14  -0.52  0.0655625309388
-0.14  -0.5  0.0852909896011
-0.14  -0.48  0.110955950037
-0.14  -0.46  0.144343768388
-0.14  -0.44  0.187778334245
-0.14  -0.42  0.244282820142
-0.14  -0.4  0.317790103191
-0.14  -0.38  0.4134165048
-0.14  -0.36  0.53781790158
-0.14  -0.34  0.699652993777
-0.14  -0.32  0.910185976077
-0.14  -0.3  1.18407055843
-0.14  -0.28  1.54036990701
-0.14  -0.26  2.00388349626
-0.14  -0.24  2.60687322459
-0.14  -0.22  3.39130893677
-0.14  -0.2  3.17799818069
-0.14  -0.18  3.21475641359
-0.14  -0.16  3.36458210462
-0.14  -0.14  3.59951881151
-0.14  -0.12  3.88283263132
-0.14  -0.1  4.17900315151
-0.14  -0.08  4.45829407497
-0.14  -0.06  4.69762193614
-0.14  -0.04  4.88002923374
-0.14  -0.02  4.99395153276
-0.14  6.17561557e-16  5.0326617691
-0.14  0.02  4.99395153276
-0.14  0.04  4.88002923374
-0.14  0.06  4.69762193614
-0.14  0.08  4.45829407497
-0.14  0.1  4.17900315151
-0.14  0.12  3.88283263132
-0.14  0.14  3.59951881151
-0.14  0.16  3.36458210462
-0.14  0.18  3.21475641359
-0.14  0.2  4.4117896475
-0.14  0.22  3.39130893677
-0.14  0.24  2.60687322459
-0.14  0.26  2.00388349625
-0.14  0.28  1.54036990701
-0.14  0.3  1.18407055843
-0.14  0.32  0.910185976076
-0.14  0.34  0.699652993777
-0.14  0.36  0.53781790158
-0.14  0.38  0.413416504799
-0.14  0.4  0.31779010319
-0.14  0.42  0.244282820142
-0.14  0.44  0.187778334245
-0.14  0.46  0.144343768388
-0.14  0.48  0.110955950037
-0.14  0.5  0.085290989601
-0.14  0.52  0.0655625309387
-0.14  0.54  0.0503974157552
-0.14  0.56  0.0387401077785
-0.14  0.58  0.0297792243551
-0.14  0.6  0.022891061849
-0.14  0.62  0.0175961840484
-0.14  0.64  0.0135260520071
-0.14  0.66  0.0103973726573
-0.14  0.68  0.00799238078626
-0.14  0.7  0.00614368194137
-0.14  0.72  0.00472260128817
-0.14  0.74  0.00363022746617
-0.14  0.76  0.0027905280696
-0.14  0.78  0.00214505757003
-0.14  0.8  0.00164888933706
-0.14  0.82  0.00126748861376
-0.14  0.84  0.000974308796776
-0.14  0.86  0.00074894371529
-0.14  0.88  0.000575707301964
-0.14  0.9  0.000442541796892
-0.14  0.92  0.000340178492314
-0.14  0.94  0.000261492603513
-0.14  0.96  0.000201007363009
-0.14  0.98  0.000154512821551
-0.12  -1  0.000155100553327
-0.12  -0.98  0.000201771949489
-0.12  -0.96  0.000262487262149
-0.12  -0.94  0.000341472454248
-0.12  -0.92  0.000444225125651
-0.12  -0.9  0.000577897162143
-0.12  -0.88  0.000751792527547
-0.12  -0.86  0.000978014846758
-0.12  -0.84  0.00127230985336
-0.12  -0.82  0.00165516133862
-0.12  -0.8  0.00215321688317
-0.12  -0.78  0.00280114260632
-0.12  -0.76  0.00364403602921
-0.12  -0.74  0.00474056499379
-0.12  -0.72  0.00616705111592
-0.12  -0.7  0.00802278199249
-0.12  -0.68  0.0104369219079
-0.12  -0.66  0.0135775020453
-0.12  -0.64  0.017663115947
-0.12  -0.62  0.0229781342634
-0.12  -0.6  0.0298924977796
-0.12  -0.58  0.0388874663739
-0.12  -0.56  0.0505891161097
-0.12  -0.54  0.0658119159564
-0.12  -0.52  0.0856154172069
-0.12  -0.5  0.111378001339
-0.12  -0.48  0.144892819389
-0.12  -0.46  0.188492600496
-0.12  -0.44  0.24521201666
-0.12  -0.42  0.318998904763
-0.12  -0.4  0.414989047545
-0.12  -0.38  0.539863639061
-0.12  -0.36  0.702314315293
-0.12  -0.34  0.913648117372
-0.12  -0.32  1.18857449464
-0.12  -0.3  1.54622912524
-0.12  -0.28  2.01150581519
-0.12  -0.26  2.61678917988
-0.12  -0.24  3.40420870783
-0.12  -0.22  4.42857109605
-0.12  -0.2  4.15001733806
-0.12  -0.18  4.19801840514
-0.12  -0.16  4.39366962333
-0.12  -0.14  4.70046382254
-0.12  -0.12  5.07043170719
-0.12  -0.1  5.45718862897
-0.12  -0.08  5.82190317845
-0.12  -0.06  6.13443160573
-0.12  -0.04  6.37262980617
-0.12  -0.02  6.5213962589
-0.12  6.17561557e-16  6.57194636713
-0.12  0.02  6.5213962589
-0.12  0.04  6.37262980617
-0.12  0.06  6.13443160573
-0.12  0.08  5.82190317845
-0.12  0.1  5.45718862897
-0.12  0.12  5.07043170719
-0.12  0.14  4.70046382254
-0.12  0.16  4.39366962333
-0.12  0.18  4.19801840514
-0.12  0.2  5.76117495606
-0.12  0.22  4.42857109604
-0.12  0.24  3.40420870783
-0.12  0.26  2.61678917988
-0.12  0.28  2.01150581519
-0.12  0.3  1.54622912524
-0.12  0.32  1.18857449464
-0.12  0.34  0.913648117371
-0.12  0.36  0.702314315292
-0.12  0.38  0.539863639061
-0.12  0.4  0.414989047544
-0.12  0.42  0.318998904763
-0.12  0.44  0.245212016659
-0.12  0.46  0.188492600496
-0.12  0.48  0.144892819389
-0.12  0.5  0.111378001339
-0.12  0.52  0.0856154172069
-0.12  0.54  0.0658119159564
-0.12  0.56  0.0505891161096
-0.12  0.58  0.0388874663738
-0.12  0.6  0.0298924977795
-0.12  0.62  0.0229781342634
-0.12  0.64  0.017663115947
-0.12  0.66  0.0135775020453
-0.12  0.68  0.0104369219079
-0.12  0.7  0.00802278199248
-0.12  0.72  0.00616705111592
-0.12  0.74  0.00474056499379
-0.12  0.76  0.0036440360292
-0.12  0.78  0.00280114260632
-0.12  0.8  0.00215321688316
-0.12  0.82  0.00165516133862
-0.12  0.84  0.00127230985336
-0.12  0.86  0.000978014846757
-0.12  0.88  0.000751792527546
-0.12  0.9  0.000577897162142
-0.12  0.92  0.000444225125651
-0.12  0.94  0.000341472454247
-0.12  0.96  0.000262487262149
-0.12  0.98  0.000201771949489
-0.1  -1  0.000202539444283
-0.1  -0.98  0.00026348570424
-0.1  -0.96  0.000342771338119
-0.1  -0.94  0.000445914857411
-0.1  -0.92  0.000580095352053
-0.1  -0.9  0.000754652176039
-0.1  -0.88  0.000981734993713
-0.1  -0.86  0.00127714943186
-0.1  -0.84  0.00166145719746
-0.1  -0.82  0.00216140723248
-0.1  -0.8  0.00281179751833
-0.1  -0.78  0.00365789711688
-0.1  -0.76  0.00475859702928
-0.1  -0.74  0.00619050918152
-0.1  -0.72  0.00805329883801
-0.1  -0.7  0.0104766215949
-0.1  -0.68  0.0136291477877
-0.1  -0.66  0.0177303024393
-0.1  -0.64  0.0230655378815
-0.1  -0.62  0.0300062020704
-0.1  -0.6  0.0390353854879
-0.1  -0.58  0.0507815456488
-0.1  -0.56  0.0660622495782
-0.1  -0.54  0.085941078862
-0.1  -0.52  0.111801658029
-0.1  -0.5  0.145443958855
-0.1  -0.48  0.189209583655
-0.1  -0.46  0.24614474763
-0.1  -0.44  0.320212304343
-0.1  -0.42  0.416567571886
-0.1  -0.4  0.541917158064
-0.1  -0.38  0.704985759873
-0.1  -0.36  0.917123427867
-0.1  -0.34  1.1930955628
-0.1  -0.32  1.55211063061
-0.1  -0.3  2.0191571277
-0.1  -0.28  2.62674285321
-0.1  -0.26  3.4171575467
-0.1  -0.24  4.44541637742
-0.1  -0.22  5.78308916068
-0.1  -0.2  5.41933724532
-0.1  -0.18  5.48201986794
-0.1  -0.16  5.73751276048
-0.1  -0.14  6.1381427085
-0.1  -0.12  6.62126857847
-0.1  -0.1  7.1263185627
-0.1  -0.08  7.60258431797
-0.1  -0.06  8.01070235898
-0.1  -0.04  8.3217556087
-0.1  -0.02  8.51602361109
-0.1  6.17561557e-16  8.58203492188
-0.1  0.02  8.51602361109
-0.1  0.04  8.3217556087
-0.1  0.06  8.01070235898
-0.1  0.08  7.60258431797
-0.1  0.1  7.1263185627
-0.1  0.12  6.62126857847
-0.1  0.14  6.1381427085
-0.1  0.16  5.73751276048
-0.1  0.18  5.48201986794
-0.1  0.2  7.5232818258
-0.1  0.22  5.78308916068
-0.1  0.24  4.44541637742
-0.1  0.26  3.41715754669
-0.1  0.28  2.62674285321
-0.1  0.3  2.0191571277
-0.1  0.32  1.55211063061
-0.1  0.34  1.1930955628
-0.1  0.36  0.917123427866
-0.1  0.38  0.704985759872
-0.1  0.4  0.541917158064
-0.1  0.42  0.416567571885
-0.1  0.44  0.320212304343
-0.1  0.46  0.24614474763
-0.1  0.48  0.189209583654
-0.1  0.5  0.145443958855
-0.1  0.52  0.111801658029
-0.1  0.54  0.0859410788619
-0.1  0.56  0.0660622495782
-0.1  0.58  0.0507815456488
-0.1  0.6  0.0390353854878
-0.1  0.62  0.0300062020704
-0.1  0.64  0.0230655378815
-0.1  0.66  0.0177303024393
-0.1  0.68  0.0136291477877
-0.1  0.7  0.0104766215949
-0.1  0.72  0.008053298838
-0.1  0.74  0.00619050918151
-0.1  0.76  0.00475859702928
-0.1  0.78  0.00365789711688
-0.1  0.8  0.00281179751833
-0.1  0.82  0.00216140723248
-0.1  0.84  0.00166145719746
-0.1  0.86  0.00127714943186
-0.1  0.88  0.000981734993712
-0.1  0.9  0.000754652176038
-0.1  0.92  0.000580095352052
-0.1  0.94  0.000445914857411
-0.1  0.96  0.000342771338119
-0.1  0.98  0.00026348570424
-0.08  -1  0.000264487944179
-0.08  -0.98  0.000344075162651
-0.08  -0.96  0.000447611016528
-0.08  -0.94  0.00058230190338
-0.08  -0.92  0.000757522701987
-0.08  -0.9  0.000985469291264
-0.08  -0.88  0.00128200741902
-0.08  -0.86  0.00166777700431
-0.08  -0.84  0.00216962873603
-0.08  -0.82  0.00282249295922
-0.08  -0.8  0.00367181092899
-0.08  -0.78  0.00477669765455
-0.08  -0.76  0.00621405647629
-0.08  -0.74  0.00808393176271
-0.08  -0.72  0.0105164722904
-0.08  -0.7  0.0136809899789
-0.08  -0.68  0.0177977444939
-0.08  -0.66  0.0231532739633
-0.08  -0.64  0.0301203388666
-0.08  -0.62  0.0391838672527
-0.08  -0.6  0.0509747071463
-0.08  -0.58  0.0663135354124
-0.08  -0.56  0.0862679792601
-0.08  -0.54  0.112226926213
-0.08  -0.52  0.145997194732
-0.08  -0.5  0.189929294055
-0.08  -0.48  0.247081026498
-0.08  -0.46  0.32143031942
-0.08  -0.44  0.418152100576
-0.08  -0.42  0.543978488188
-0.08  -0.4  0.707667366023
-0.08  -0.38  0.920611957657
-0.08  -0.36  1.19763382808
-0.08  -0.34  1.5580145079
-0.08  -0.32  2.02683754407
-0.08  -0.3  2.63673438806
-0.08  -0.28  3.43015564001
-0.08  -0.26  4.46232573443
-0.08  -0.24  5.80508672197
-0.08  -0.22  7.55189868584
-0.08  -0.2  7.07688999494
-0.08  -0.18  7.15874465811
-0.08  -0.16  7.49238233615
-0.08  -0.14  8.01554853571
-0.08  -0.12  8.64644277254
-0.08  -0.1  9.30596680998
-0.08  -0.08  9.9279027047
-0.08  -0.06  10.4608472975
-0.08  -0.04  10.8670389647
-0.08  -0.02  11.1207255725
-0.08  6.17561557e-16  11.2069270329
-0.08  0.02  11.1207255725
-0.08  0.04  10.8670389647
-0.08  0.06  10.4608472975
-0.08  0.08  9.9279027047
-0.08  0.1  9.30596680998
-0.08  0.12  8.64644277254
-0.08  0.14  8.01554853571
-0.08  0.16  7.49238233615
-0.08  0.18  7.15874465811
-0.08  0.2  9.82434483627
-0.08  0.22  7.55189868583
-0.08  0.24  5.80508672196
-0.08  0.26  4.46232573442
-0.08  0.28  3.43015564001
-0.08  0.3  2.63673438806
-0.08  0.32  2.02683754407
-0.08  0.34  1.55801450789
-0.08  0.36  1.19763382808
-0.08  0.38  0.920611957656
-0.08  0.4  0.707667366022
-0.08  0.42  0.543978488188
-0.08  0.44  0.418152100575
-0.08  0.46  0.32143031942
-0.08  0.48  0.247081026497
-0.08  0.5  0.189929294054
-0.08  0.52  0.145997194731
-0.08  0.54  0.112226926213
-0.08  0.56  0.08626797926
-0.08  0.58  0.0663135354123
-0.08  0.6  0.0509747071463
-0.08  0.62  0.0391838672526
-0.08  0.64  0.0301203388666
-0.08  0.66  0.0231532739632
-0.08  0.68  0.0177977444939
-0.08  0.7  0.0136809899789
-0.08  0.72  0.0105164722904
-0.08  0.74  0.0080839317627
-0.08  0.76  0.00621405647628
-0.08  0.78  0.00477669765455
-0.08  0.8  0.00367181092899
-0.08  0.82  0.00282249295921
-0.08  0.84  0.00216962873603
-0.08  0.86  0.00166777700431
-0.08  0.88  0.00128200741902
-0.08  0.9  0.000985469291263
-0.08  0.92  0.000757522701986
-0.08  0.94  0.000582301903379
-0.08  0.96  0.000447611016528
-0.08  0.98  0.000344075162651
-0.06  -1  0.000345383946636
-0.06  -0.98  0.000449313627451
-0.06  -0.96  0.000584516847928
-0.06  -0.94  0.000760404146765
-0.06  -0.92  0.000989217793237
-0.06  -0.9  0.00128688388487
-0.06  -0.88  0.00167412085028
-0.06  -0.86  0.00217788151232
-0.06  -0.84  0.00283322908313
-0.06  -0.82  0.0036857776661
-0.06  -0.8  0.0047948671305
-0.06  -0.78  0.00623769333963
-0.06  -0.76  0.00811468120811
-0.06  -0.74  0.010556474569
-0.06  -0.72  0.013733029366
-0.06  -0.7  0.0178654430827
-0.06  -0.68  0.0232413437732
-0.06  -0.66  0.0302349098134
-0.06  -0.64  0.0393329138085
-0.06  -0.62  0.0511686033865
-0.06  -0.6  0.066565777081
-0.06  -0.58  0.0865961231134
-0.06  -0.56  0.11265381202
-0.06  -0.54  0.146552534992
-0.06  -0.52  0.19065174207
-0.06  -0.5  0.248020866758
-0.06  -0.48  0.322652967551
-0.06  -0.46  0.419742656454
-0.06  -0.44  0.546047659145
-0.06  -0.42  0.710359172396
-0.06  -0.4  0.924113757024
-0.06  -0.38  1.2021893559
-0.06  -0.36  1.56394084219
-0.06  -0.34  2.03454717501
-0.06  -0.32  2.64676392845
-0.06  -0.3  3.44320317513
-0.06  -0.28  4.47929941079
-0.06  -0.26  5.827167957
-0.06  -0.24  7.58062439792
-0.06  -0.22  9.86171441881
-0.06  -0.2  9.24142007284
-0.06  -0.18  9.34831071659
-0.06  -0.16  9.78399446144
-0.06  -0.14  10.4671757207
-0.06  -0.12  11.2910346005
-0.06  -0.1  12.1522799615
-0.06  -0.08  12.9644405102
-0.06  -0.06  13.6603909716
-0.06  -0.04  14.1908199919
-0.06  -0.02  14.5220989169
-0.06  6.17561557e-16  14.6346658646
-0.06  0.02  14.5220989169
-0.06  0.04  14.1908199919
-0.06  0.06  13.6603909716
-0.06  0.08  12.9644405102
-0.06  0.1  12.1522799615
-0.06  0.12  11.2910346005
-0.06  0.14  10.4671757207
-0.06  0.16  9.78399446144
-0.06  0.18  9.34831071659
-0.06  0.2  12.8292085418
-0.06  0.22  9.8617144188
-0.06  0.24  7.58062439791
-0.06  0.26  5.82716795699
-0.06  0.28  4.47929941079
-0.06  0.3  3.44320317513
-0.06  0.32  2.64676392845
-0.06  0.34  2.03454717501
-0.06  0.36  1.56394084219
-0.06  0.38  1.2021893559
-0.06  0.4  0.924113757023
-0.06  0.42  0.710359172395
-0.06  0.44  0.546047659145
-0.06  0.46  0.419742656454
-0.06  0.48  0.32265296755
-0.06  0.5  0.248020866758
-0.06  0.52  0.19065174207
-0.06  0.54  0.146552534992
-0.06  0.56  0.11265381202
-0.06  0.58  0.0865961231133
-0.06  0.6  0.0665657770809
-0.06  0.62  0.0511686033864
-0.06  0.64  0.0393329138085
-0.06  0.66  0.0302349098133
-0.06  0.68  0.0232413437731
-0.06  0.7  0.0178654430827
-0.06  0.72  0.013733029366
-0.06  0.74  0.010556474569
-0.06  0.76  0.0081146812081
-0.06  0.78  0.00623769333962
-0.06  0.8  0.0047948671305
-0.06  0.82  0.00368577766609
-0.06  0.84  0.00283322908313
-0.06  0.86  0.00217788151232
-0.06  0.88  0.00167412085028
-0.06  0.9  0.00128688388487
-0.06  0.92  0.000989217793236
-0.06  0.94  0.000760404146764
-0.06  0.96  0.000584516847927
-0.06  0.98  0.00044931362745
-0.04  -1  0.000451022714719
-0.04  -0.98  0.000586740217623
-0.04  -0.96  0.000763296551906
-0.04  -0.94  0.000992980553663
-0.04  -0.92  0.00129177889968
-0.04  -0.9  0.00168048882681
-0.04  -0.88  0.0021861656803
-0.04  -0.86  0.00284400604483
-0.04  -0.84  0.0036997975295
-0.04  -0.82  0.00481310571902
-0.04  -0.8  0.00626142011224
-0.04  -0.78  0.00814554761743
-0.04  -0.76  0.0105966290072
-0.04  -0.74  0.0137852666991
-0.04  -0.72  0.0179333991817
-0.04  -0.7  0.0233297485807
-0.04  -0.68  0.0303499165621
-0.04  -0.66  0.0394825273036
-0.04  -0.64  0.051363237164
-0.04  -0.62  0.0668189782197
-0.04  -0.6  0.0869255151516
-0.04  -0.58  0.113082321605
-0.04  -0.56  0.14710998764
-0.04  -0.54  0.191376938114
-0.04  -0.52  0.248964281958
-0.04  -0.5  0.323880266358
-0.04  -0.48  0.421339262447
-0.04  -0.46  0.54812470076
-0.04  -0.44  0.71306121779
-0.04  -0.42  0.927628876442
-0.04  -0.4  1.20676221191
-0.04  -0.38  1.56988971892
-0.04  -0.36  2.04228613164
-0.04  -0.34  2.65683161894
-0.04  -0.32  3.45630034012
-0.04  -0.3  4.49633765118
-0.04  -0.28  5.84933318404
-0.04  -0.26  7.6094593761
-0.04  -0.24  9.89922614676
-0.04  -0.22  12.8780079453
-0.04  -0.2  12.0679910277
-0.04  -0.18  12.2075751305
-0.04  -0.16  12.7765166441
-0.04  -0.14  13.6686549996
-0.04  -0.12  14.7444984838
-0.04  -0.1  15.8691634386
-0.04  -0.08  16.9297305525
-0.04  -0.06  17.8385436849
-0.04  -0.04  18.5312091635
-0.04  -0.02  18.9638127095
-0.04  6.17561557e-16  19.1108092647
-0.04  0.02  18.9638127095
-0.04  0.04  18.5312091635
-0.04  0.06  17.8385436849
-0.04  0.08  16.9297305525
-0.04  0.1  15.8691634386
-0.04  0.12  14.7444984838
-0.04  0.14  13.6686549996
-0.04  0.16  12.7765166441
-0.04  0.18  12.2075751305
-0.04  0.2  16.7531366775
-0.04  0.22  12.8780079453
-0.04  0.24  9.89922614675
-0.04  0.26  7.6094593761
-0.04  0.28  5.84933318404
-0.04  0.3  4.49633765118
-0.04  0.32  3.45630034011
-0.04  0.34  2.65683161893
-0.04  0.36  2.04228613163
-0.04  0.38  1.56988971892
-0.04  0.4  1.20676221191
-0.04  0.42  0.927628876441
-0.04  0.44  0.713061217789
-0.04  0.46  0.548124700759
-0.04  0.48  0.421339262446
-0.04  0.5  0.323880266357
-0.04  0.52  0.248964281958
-0.04  0.54  0.191376938113
-0.04  0.56  0.14710998764
-0.04  0.58  0.113082321605
-0.04  0.6  0.0869255151515
-0.04  0.62  0.0668189782197
-0.04  0.64  0.0513632371639
-0.04  0.66  0.0394825273036
-0.04  0.68  0.030349916562
-0.04  0.7  0.0233297485806
-0.04  0.72  0.0179333991816
-0.04  0.74  0.0137852666991
-0.04  0.76  0.0105966290072
-0.04  0.78  0.00814554761742
-0.04  0.8  0.00626142011224
-0.04  0.82  0.00481310571901
-0.04  0.84  0.0036997975295
-0.04  0.86  0.00284400604483
-0.04  0.88  0.0021861656803
-0.04  0.9  0.0016804888268
-0.04  0.92  0.00129177889968
-0.04  0.94  0.000992980553662
-0.04  0.96  0.000763296551905
-0.04  0.98  0.000586740217622
-0.02  -1  0.000588972044513
-0.02  -0.98  0.000766199959102
-0.02  -0.96  0.000996757626778
-0.02  -0.94  0.00129669253403
-0.02  -0.92  0.00168688102567
-0.02  -0.9  0.00219448135938
-0.02  -0.88  0.00285482399966
-0.02  -0.86  0.00371387072129
-0.02  -0.84  0.004831413683
-0.02  -0.82  0.00628523713613
-0.02  -0.8  0.00817653143559
-0.02  -0.78  0.0106369361838
-0.02  -0.76  0.0138377027313
-0.02  -0.74  0.0180016137702
-0.02  -0.72  0.02341848966
-0.02  -0.7  0.0304653607703
-0.02  -0.68  0.0396327098947
-0.02  -0.66  0.0515586112843
-0.02  -0.64  0.0670731424783
-0.02  -0.62  0.0872561601224
-0.02  -0.6  0.113512461143
-0.02  -0.58  0.147669560713
-0.02  -0.56  0.192104892639
-0.02  -0.54  0.249911285696
-0.02  -0.52  0.325112233531
-0.02  -0.5  0.422941941567
-0.02  -0.48  0.55020964297
-0.02  -0.46  0.715773541153
-0.02  -0.44  0.931157366578
-0.02  -0.42  1.21135246203
-0.02  -0.4  1.57586122383
-0.02  -0.38  2.0500545255
-0.02  -0.36  2.66693760464
-0.02  -0.34  3.46944732375
-0.02  -0.32  4.51344070118
-0.02  -0.3  5.87158272259
-0.02  -0.28  7.63840403602
-0.02  -0.26  9.93688056083
-0.02  -0.24  12.9269929706
-0.02  -0.22  16.8168618148
-0.02  -0.2  15.7590939808
-0.02  -0.18  15.9413711295
-0.02  -0.16  16.6843284918
-0.02  -0.14  17.8493353397
-0.02  -0.12  19.2542351725
-0.02  -0.1  20.7228889591
-0.02  -0.08  22.1078400071
-0.02  -0.06  23.2946217615
-0.02  -0.04  24.1991451697
-0.02  -0.02  24.7640643781
-0.02  6.17561557e-16  24.956021144
-0.02  0.02  24.7640643781
-0.02  0.04  24.1991451697
-0.02  0.06  23.2946217615
-0.02  0.08  22.1078400071
-0.02  0.1  20.7228889591
-0.02  0.12  19.2542351725
-0.02  0.14  17.8493353397
-0.02  0.16  16.6843284918
-0.02  0.18  15.9413711295
-0.02  0.2  21.8772333165
-0.02  0.22  16.8168618148
-0.02  0.24  12.9269929706
-0.02  0.26  9.93688056082
-0.02  0.28  7.63840403601
-0.02  0.3  5.87158272258
-0.02  0.32  4.51344070118
-0.02  0.34  3.46944732375
-0.02  0.36  2.66693760464
-0.02  0.38  2.0500545255
-0.02  0.4  1.57586122383
-0.02  0.42  1.21135246203
-0.02  0.44  0.931157366577
-0.02  0.46  0.715773541152
-0.02  0.48  0.55020964297
-0.02  0.5  0.422941941567
-0.02  0.52  0.325112233531
-0.02  0.54  0.249911285696
-0.02  0.56  0.192104892639
-0.02  0.58  0.147669560713
-0.02  0.6  0.113512461143
-0.02  0.62  0.0872561601223
-0.02  0.64  0.0670731424782
-0.02  0.66  0.0515586112842
-0.02  0.68  0.0396327098946
-0.02  0.7  0.0304653607703
-0.02  0.72  0.02341848966
-0.02  0.74  0.0180016137702
-0.02  0.76  0.0138377027313
-0.02  0.78  0.0106369361838
-0.02  0.8  0.00817653143558
-0.02  0.82  0.00628523713612
-0.02  0.84  0.00483141368299
-0.02  0.86  0.00371387072129
-0.02  0.88  0.00285482399965
-0.02  0.9  0.00219448135937
-0.02  0.92  0.00168688102567
-0.02  0.94  0.00129669253403
-0.02  0.96  0.000996757626777
-0.02  0.98  0.000766199959101
2.8449465e-16  -1  0.000769114410201
2.8449465e-16  -0.98  0.00100054906702
2.8449465e-16  -0.96  0.00130162485872
2.8449465e-16  -0.94  0.00169329753901
2.8449465e-16  -0.92  0.00220282866941
2.8449465e-16  -0.9  0.00286568310353
2.8449465e-16  -0.88  0.00372799744432
2.8449465e-16  -0.86  0.00484979128633
2.8449465e-16  -0.84  0.00630914475458
2.8449465e-16  -0.82  0.00820763310917
2.8449465e-16  -0.8  0.0106773966798
2.8449465e-16  -0.78  0.0138903382182
2.8449465e-16  -0.76  0.0180700878316
2.8449465e-16  -0.74  0.0235075682904
2.8449465e-16  -0.72  0.0305812441023
2.8449465e-16  -0.7  0.0397834637462
2.8449465e-16  -0.68  0.0517547285635
2.8449465e-16  -0.66  0.0673282735201
2.8449465e-16  -0.64  0.0875880627919
2.8449465e-16  -0.62  0.113944236834
2.8449465e-16  -0.6  0.148231262274
2.8449465e-16  -0.58  0.192835616139
2.8449465e-16  -0.56  0.250861891621
2.8449465e-16  -0.54  0.326348886829
2.8449465e-16  -0.52  0.424550716916
2.8449465e-16  -0.5  0.552302515829
2.8449465e-16  -0.48  0.718496181579
2.8449465e-16  -0.46  0.934699278292
2.8449465e-16  -0.44  1.21596017243
2.8449465e-16  -0.42  1.58185544299
