0.26  -1  0.723980726592
0.26  -0.98  0.817856637268
0.26  -0.96  0.923905091054
0.26  -0.94  1.04370445672
0.26  -0.92  1.1790377643
0.26  -0.9  1.33191924274
0.26  -0.88  1.50462429864
0.26  -0.86  1.69972338219
0.26  -0.84  1.92012024434
0.26  -0.82  2.16909515475
0.26  -0.8  2.45035372355
0.26  -0.78  2.76808205364
0.26  -0.76  3.12700904446
0.26  -0.74  3.53247677442
0.26  -0.72  3.99052000949
0.26  -0.7  4.50795602153
0.26  -0.68  5.09248605288
0.26  -0.66  5.75280993756
0.26  -0.64  6.49875558501
0.26  -0.62  7.34142525341
0.26  -0.6  8.29336078983
0.26  -0.58  9.36873029638
0.26  -0.56  10.5835390007
0.26  -0.54  11.9558674694
0.26  -0.52  13.5061407093
0.26  -0.5  15.2574321625
0.26  -0.48  17.2358071195
0.26  -0.46  19.4707106607
0.26  -0.44  21.9954059014
0.26  -0.42  24.8474690625
0.26  -0.4  28.0693487349
0.26  -0.38  31.7089976618
0.26  -0.36  35.8205864414
0.26  -0.34  40.465309774
0.26  -0.32  45.7122972507
0.26  -0.3  51.6396422419
0.26  -0.28  58.3355641973
0.26  -0.26  65.8997216571
0.26  -0.24  74.4446955171
0.26  -0.22  84.0976646225
0.26  -0.2  72.8814221046
0.26  -0.18  73.3880440114
0.26  -0.16  72.5099445696
0.26  -0.14  70.3019702659
0.26  -0.12  66.9085922008
0.26  -0.1  62.5731612161
0.26  -0.08  57.654435491
0.26  -0.06  52.6490159521
0.26  -0.04  48.2049502888
0.26  -0.02  45.0768330193
0.26  6.17561557e-16  43.9397772982
0.26  0.02  45.0768330193
0.26  0.04  48.2049502888
0.26  0.06  52.6490159521
0.26  0.08  57.654435491
0.26  0.1  62.5731612161
0.26  0.12  66.9085922008
0.26  0.14  70.3019702659
0.26  0.16  72.5099445696
0.26  0.18  73.3880440114
0.26  0.2  95.0022986303
0.26  0.22  84.0976646225
0.26  0.24  74.4446955171
0.26  0.26  65.8997216571
0.26  0.28  58.3355641973
0.26  0.3  51.6396422419
0.26  0.32  45.7122972507
0.26  0.34  40.465309774
0.26  0.36  35.8205864414
0.26  0.38  31.7089976618
0.26  0.4  28.0693487349
0.26  0.42  24.8474690625
0.26  0.44  21.9954059014
0.26  0.46  19.4707106607
0.26  0.48  17.2358071195
0.26  0.5  15.2574321625
0.26  0.52  13.5061407093
0.26  0.54  11.9558674694
0.26  0.56  10.5835390007
0.26  0.58  9.36873029638
0.26  0.6  8.29336078983
0.26  0.62  7.34142525341
0.26  0.64  6.49875558501
0.26  0.66  5.75280993756
0.26  0.68  5.09248605288
0.26  0.7  4.50795602153
0.26  0.72  3.99052000949
0.26  0.74  3.53247677442
0.26  0.76  3.12700904446
0.26  0.78  2.76808205364
0.26  0.8  2.45035372355
0.26  0.82  2.16909515475
0.26  0.84  1.92012024434
0.26  0.86  1.69972338219
0.26  0.88  1.50462429864
0.26  0.9  1.33191924274
0.26  0.92  1.1790377643
0.26  0.94  1.04370445672
0.26  0.96  0.923905091054
0.26  0.98  0.817856637268
0.28  -1  0.637295869411
0.28  -0.98  0.719931674363
0.28  -0.96  0.81328255937
0.28  -0.94  0.918737909345
0.28  -0.92  1.03786726562
0.28  -0.9  1.17244368615
0.28  -0.88  1.3244701348
0.28  -0.86  1.49620929235
0.28  -0.84  1.69021723306
0.28  -0.82  1.90938146792
0.28  -0.8  2.1569639208
0.28  -0.78  2.43664947723
0.28  -0.76  2.75260082824
0.28  -0.74  3.10952042567
0.28  -0.72  3.51272047092
0.28  -0.7  3.96820197899
0.28  -0.68  4.48274409433
0.28  -0.66  5.06400498806
0.28  -0.64  5.72063583811
0.28  -0.62  6.46240958874
0.28  -0.6  7.30036640585
0.28  -0.58  8.24697799294
0.28  -0.56  9.31633321329
0.28  -0.54  10.5243477811
0.28  -0.52  11.8890011427
0.28  -0.5  13.4306040725
0.28  -0.48  15.1721009687
0.28  -0.46  17.1394113445
0.28  -0.44  19.361815601
0.28  -0.42  21.872390821
0.28  -0.4  24.7085030703
0.28  -0.38  27.9123635351
0.28  -0.36  31.53165677
0.28  -0.34  35.6202504103
0.28  -0.32  40.2389969086
0.28  -0.3  45.4566392307
0.28  -0.28  51.3508339894
0.28  -0.26  58.0093072438
0.28  -0.24  65.5311601678
0.28  -0.22  74.0283440187
0.28  -0.2  64.1550631917
0.28  -0.18  64.6010254069
0.28  -0.16  63.8280640191
0.28  -0.14  61.8844585447
0.28  -0.12  58.8973820317
0.28  -0.1  55.0810480367
0.28  -0.08  50.7512593113
0.28  -0.06  46.3451569392
0.28  -0.04  42.4331954925
0.28  -0.02  39.679619131
0.28  6.17561557e-16  38.6787072452
0.28  0.02  39.679619131
0.28  0.04  42.4331954925
0.28  0.06  46.3451569392
0.28  0.08  50.7512593113
0.28  0.1  55.0810480367
0.28  0.12  58.8973820317
0.28  0.14  61.8844585447
0.28  0.16  63.8280640191
0.28  0.18  64.6010254069
0.28  0.2  83.6273263609
0.28  0.22  74.0283440187
0.28  0.24  65.5311601678
0.28  0.26  58.0093072438
0.28  0.28  51.3508339894
0.28  0.3  45.4566392307
0.28  0.32  40.2389969086
0.28  0.34  35.6202504103
0.28  0.36  31.53165677
0.28  0.38  27.9123635351
0.28  0.4  24.7085030703
0.28  0.42  21.872390821
0.28  0.44  19.361815601
0.28  0.46  17.1394113445
0.28  0.48  15.1721009687
0.28  0.5  13.4306040725
0.28  0.52  11.8890011427
0.28  0.54  10.5243477811
0.28  0.56  9.31633321329
0.28  0.58  8.24697799294
0.28  0.6  7.30036640585
0.28  0.62  6.46240958874
0.28  0.64  5.72063583811
0.28  0.66  5.06400498806
0.28  0.68  4.48274409433
0.28  0.7  3.96820197899
0.28  0.72  3.51272047092
0.28  0.74  3.10952042567
0.28  0.76  2.75260082824
0.28  0.78  2.43664947723
0.28  0.8  2.1569639208
0.28  0.82  1.90938146792
0.28  0.84  1.69021723306
0.28  0.86  1.49620929235
0.28  0.88  1.3244701348
0.28  0.9  1.17244368615
0.28  0.92  1.03786726562
0.28  0.94  0.918737909345
0.28  0.96  0.81328255937
0.28  0.98  0.719931674363
0.3  -1  0.540248412969
0.3  -0.98  0.610300432168
0.3  -0.96  0.689435838335
0.3  -0.94  0.778832440757
0.3  -0.92  0.879820770908
0.3  -0.9  0.993903885371
0.3  -0.88  1.12277973653
0.3  -0.86  1.268366444
0.3  -0.84  1.43283084288
0.3  -0.82  1.6186207338
0.3  -0.8  1.82850131466
0.3  -0.78  2.06559633636
0.3  -0.76  2.3334345951
0.3  -0.74  2.63600245301
0.3  -0.72  2.97780316915
0.3  -0.7  3.36392392355
0.3  -0.68  3.8001115321
0.3  -0.66  4.29285797913
0.3  -0.64  4.84949704063
0.3  -0.62  5.47831343627
0.3  -0.6  6.18866613477
0.3  -0.58  6.99112764781
0.3  -0.56  7.89764138566
0.3  -0.54  8.92169941654
0.3  -0.52  10.0785432754
0.3  -0.5  11.3853908109
0.3  -0.48  12.8616924464
0.3  -0.46  14.5294206703
0.3  -0.44  16.4133970621
0.3  -0.42  18.5416617242
0.3  -0.4  20.9458906158
0.3  -0.38  23.6618670006
0.3  -0.36  26.7300140263
0.3  -0.34  30.1959963611
0.3  -0.32  34.1113998423
0.3  -0.3  38.5344992523
0.3  -0.28  43.5311256497
0.3  -0.26  49.1756461639
0.3  -0.24  55.5520708354
0.3  -0.22  62.7553029769
0.3  -0.2  54.3855259964
0.3  -0.18  54.7635770565
0.3  -0.16  54.108322279
0.3  -0.14  52.4606891727
0.3  -0.12  49.9284848654
0.3  -0.1  46.6933024593
0.3  -0.08  43.0228542427
0.3  -0.06  39.2877134263
0.3  -0.04  35.9714657231
0.3  -0.02  33.6372041491
0.3  6.17561557e-16  32.7887111903
0.3  0.02  33.6372041491
0.3  0.04  35.9714657231
0.3  0.06  39.2877134263
0.3  0.08  43.0228542427
0.3  0.1  46.6933024593
0.3  0.12  49.9284848654
0.3  0.14  52.4606891727
0.3  0.16  54.108322279
0.3  0.18  54.7635770565
0.3  0.2  70.8925516637
0.3  0.22  62.7553029769
0.3  0.24  55.5520708354
0.3  0.26  49.1756461639
0.3  0.28  43.5311256497
0.3  0.3  38.5344992523
0.3  0.32  34.1113998423
0.3  0.34  30.1959963611
0.3  0.36  26.7300140263
0.3  0.38  23.6618670006
0.3  0.4  20.9458906158
0.3  0.42  18.5416617242
0.3  0.44  16.4133970621
0.3  0.46  14.5294206703
0.3  0.48  12.8616924464
0.3  0.5  11.3853908109
0.3  0.52  10.0785432754
0.3  0.54  8.92169941654
0.3  0.56  7.89764138566
0.3  0.58  6.99112764781
0.3  0.6  6.18866613477
0.3  0.62  5.47831343627
0.3  0.64  4.84949704063
0.3  0.66  4.29285797913
0.3  0.68  3.8001115321
0.3  0.7  3.36392392355
0.3  0.72  2.97780316915
0.3  0.74  2.63600245301
0.3  0.76  2.3334345951
0.3  0.78  2.06559633636
0.3  0.8  1.82850131466
0.3  0.82  1.6186207338
0.3  0.84  1.43283084288
0.3  0.86  1.268366444
0.3  0.88  1.12277973653
0.3  0.9  0.993903885371
0.3  0.92  0.879820770908
0.3  0.94  0.778832440757
0.3  0.96  0.689435838335
0.3  0.98  0.610300432168
0.32  -1  0.447534458973
0.32  -0.98  0.5055646017
0.32  -0.96  0.57111929901
0.32  -0.94  0.645174232145
0.32  -0.92  0.728831595336
0.32  -0.9  0.823336500272
0.32  -0.88  0.930095507683
0.32  -0.86  1.05069756184
0.32  -0.84  1.18693763957
0.32  -0.82  1.3408434657
0.32  -0.8  1.51470569268
0.32  -0.78  1.71111199341
0.32  -0.76  1.93298557478
0.32  -0.74  2.18362868514
0.32  -0.72  2.46677176322
0.32  -0.7  2.78662895996
0.32  -0.68  3.14796085973
0.32  -0.66  3.55614533429
0.32  -0.64  4.01725758423
0.32  -0.62  4.53816055898
0.32  -0.6  5.1266071013
0.32  -0.58  5.79135533649
0.32  -0.56  6.54229902365
0.32  -0.54  7.39061480914
0.32  -0.52  8.34892857383
0.32  -0.5  9.43150335
0.32  -0.48  10.6544516047
0.32  -0.46  12.0359750492
0.32  -0.44  13.5966355435
0.32  -0.42  15.3596611281
0.32  -0.4  17.3512917381
0.32  -0.38  19.6011697438
0.32  -0.36  22.1427811326
0.32  -0.34  25.0139538965
0.32  -0.32  28.2574210433
0.32  -0.3  31.9214566127
0.32  -0.28  36.0605941609
0.32  -0.26  40.7364384093
0.32  -0.24  46.0185821362
0.32  -0.22  51.9856419589
0.32  -0.2  45.0522322111
0.32  -0.18  45.3654045825
0.32  -0.16  44.8226004108
0.32  -0.14  43.4577234892
0.32  -0.12  41.3600797803
0.32  -0.1  38.6800985476
0.32  -0.08  35.63954902
0.32  -0.06  32.5454090201
0.32  -0.04  29.7982743946
0.32  -0.02  27.8646037616
0.32  6.17561557e-16  27.161723701
0.32  0.02  27.8646037616
0.32  0.04  29.7982743946
0.32  0.06  32.5454090201
0.32  0.08  35.63954902
0.32  0.1  38.6800985476
0.32  0.12  41.3600797803
0.32  0.14  43.4577234892
0.32  0.16  44.8226004108
0.32  0.18  45.3654045825
0.32  0.2  58.7264284215
0.32  0.22  51.9856419589
0.32  0.24  46.0185821362
0.32  0.26  40.7364384093
0.32  0.28  36.0605941609
0.32  0.3  31.9214566127
0.32  0.32  28.2574210433
0.32  0.34  25.0139538965
0.32  0.36  22.1427811326
0.32  0.38  19.6011697438
0.32  0.4  17.3512917381
0.32  0.42  15.3596611281
0.32  0.44  13.5966355435
0.32  0.46  12.0359750492
0.32  0.48  10.6544516047
0.32  0.5  9.43150335
0.32  0.52  8.34892857383
0.32  0.54  7.39061480914
0.32  0.56  6.54229902365
0.32  0.58  5.79135533649
0.32  0.6  5.1266071013
0.32  0.62  4.53816055898
0.32  0.64  4.01725758423
0.32  0.66  3.55614533429
0.32  0.68  3.14796085973
0.32  0.7  2.78662895996
0.32  0.72  2.46677176322
0.32  0.74  2.18362868514
0.32  0.76  1.93298557478
0.32  0.78  1.71111199341
0.32  0.8  1.51470569268
0.32  0.82  1.3408434657
0.32  0.84  1.18693763957
0.32  0.86  1.05069756184
0.32  0.88  0.930095507683
0.32  0.9  0.823336500271
0.32  0.92  0.728831595336
0.32  0.94  0.645174232145
0.32  0.96  0.57111929901
0.32  0.98  0.5055646017
0.34  -1  0.370731476781
0.34  -0.98  0.418802860066
0.34  -0.96  0.473107482328
0.34  -0.94  0.534453584676
0.34  -0.92  0.603754209862
0.34  -0.9  0.682040791526
0.34  -0.88  0.770478505502
0.34  -0.86  0.87038361168
0.34  -0.84  0.983243044511
0.34  -0.82  1.11073654376
0.34  -0.8  1.25476165484
0.34  -0.78  1.41746197088
0.34  -0.76  1.60125903685
0.34  -0.74  1.8088883905
0.34  -0.72  2.04344027666
0.34  -0.7  2.30840564085
0.34  -0.68  2.60772808657
0.34  -0.66  2.9458625699
0.34  -0.64  3.32784170459
0.34  -0.62  3.75935066488
0.34  -0.6  4.24681180059
0.34  -0.58  4.79748022395
0.34  -0.56  5.41955179081
0.34  -0.54  6.12228508347
0.34  -0.52  6.91613921041
0.34  -0.5  7.81292947415
0.34  -0.48  8.8260032239
0.34  -0.46  9.97043851042
0.34  -0.44  11.2632684997
0.34  -0.42  12.7237349856
0.34  -0.4  14.3735747743
0.34  -0.38  16.2373432035
0.34  -0.36  18.3427796111
0.34  -0.34  20.7212201926
0.34  -0.32  23.4080643923
0.34  -0.3  26.4433017698
0.34  -0.28  29.8721071838
0.34  -0.26  33.7455131498
0.34  -0.24  38.1211693818
0.34  -0.22  43.0642008194
0.34  -0.2  37.3206582086
0.34  -0.18  37.5800859541
0.34  -0.16  37.1304343393
0.34  -0.14  35.9997888065
0.34  -0.12  34.2621292043
0.34  -0.1  32.0420690945
0.34  -0.08  29.5233190988
0.34  -0.06  26.9601754827
0.34  -0.04  24.6844864129
0.34  -0.02  23.0826598831
0.34  6.17561557e-16  22.5004035727
0.34  0.02  23.0826598831
0.34  0.04  24.6844864129
0.34  0.06  26.9601754827
0.34  0.08  29.5233190988
0.34  0.1  32.0420690945
0.34  0.12  34.2621292043
0.34  0.14  35.9997888065
0.34  0.16  37.1304343393
0.34  0.18  37.5800859541
0.34  0.2  48.648176913
0.34  0.22  43.0642008194
0.34  0.24  38.1211693818
0.34  0.26  33.7455131498
0.34  0.28  29.8721071838
0.34  0.3  26.4433017698
0.34  0.32  23.4080643923
0.34  0.34  20.7212201926
0.34  0.36  18.3427796111
0.34  0.38  16.2373432035
0.34  0.4  14.3735747743
0.34  0.42  12.7237349856
0.34  0.44  11.2632684997
0.34  0.46  9.97043851042
0.34  0.48  8.8260032239
0.34  0.5  7.81292947415
0.34  0.52  6.91613921041
0.34  0.54  6.12228508347
0.34  0.56  5.41955179081
0.34  0.58  4.79748022395
0.34  0.6  4.24681180059
0.34  0.62  3.75935066488
0.34  0.64  3.32784170459
0.34  0.66  2.9458625699
0.34  0.68  2.60772808657
0.34  0.7  2.30840564085
0.34  0.72  2.04344027666
0.34  0.74  1.8088883905
0.34  0.76  1.60125903685
0.34  0.78  1.41746197088
0.34  0.8  1.25476165484
0.34  0.82  1.11073654376
0.34  0.84  0.983243044511
0.34  0.86  0.87038361168
0.34  0.88  0.770478505502
0.34  0.9  0.682040791526
0.34  0.92  0.603754209862
0.34  0.94  0.534453584676
0.34  0.96  0.473107482328
0.34  0.98  0.418802860066
0.36  -1  0.307108927861
0.36  -0.98  0.346930609877
0.36  -0.96  0.391915822531
0.36  -0.94  0.442734101799
0.36  -0.92  0.500141799915
0.36  -0.9  0.564993342518
0.36  -0.88  0.638253945469
0.36  -0.86  0.721013980609
0.36  -0.84  0.814505204275
0.36  -0.82  0.920119090105
0.36  -0.8  1.03942753899
0.36  -0.78  1.17420627442
0.36  -0.76  1.32646127139
0.36  -0.74  1.49845861228
0.36  -0.72  1.69275821401
0.36  -0.7  1.9122519285
0.36  -0.68  2.16020658341
0.36  -0.66  2.44031260394
0.36  -0.64  2.75673893909
0.36  -0.62  3.11419511009
0.36  -0.6  3.51800130443
0.36  -0.58  3.9741675587
0.36  -0.56  4.48948320875
0.36  -0.54  5.0716179386
0.36  -0.52  5.72923593187
0.36  -0.5  6.47212482494
0.36  -0.48  7.3113413809
0.36  -0.46  8.25937605252
0.36  -0.44  9.33033888353
0.36  -0.42  10.540169515
0.36  -0.4  11.9068744224
0.36  -0.38  13.4507949145
0.36  -0.36  15.1949098827
0.36  -0.34  17.1651778063
0.36  -0.32  19.3909231049
0.36  -0.3  21.9052725875
0.36  -0.28  24.7456484942
0.36  -0.26  27.9543254691
0.36  -0.24  31.5790597532
0.36  -0.22  35.6737999635
0.36  -0.2  30.9159271531
0.36  -0.18  31.1308335794
0.36  -0.16  30.7583482794
0.36  -0.14  29.8217368527
0.36  -0.12  28.3822832028
0.36  -0.1  26.5432155141
0.36  -0.08  24.4567171746
0.36  -0.06  22.3334437618
0.36  -0.04  20.4482937971
0.36  -0.02  19.1213624223
0.36  6.17561557e-16  18.6390291908
0.36  0.02  19.1213624223
0.36  0.04  20.4482937971
0.36  0.06  22.3334437618
0.36  0.08  24.4567171746
0.36  0.1  26.5432155141
0.36  0.12  28.3822832028
0.36  0.14  29.8217368527
0.36  0.16  30.7583482794
0.36  0.18  31.1308335794
0.36  0.2  40.2994900348
0.36  0.22  35.6737999635
0.36  0.24  31.5790597532
0.36  0.26  27.9543254691
0.36  0.28  24.7456484942
0.36  0.3  21.9052725875
0.36  0.32  19.3909231049
0.36  0.34  17.1651778063
0.36  0.36  15.1949098827
0.36  0.38  13.4507949145
0.36  0.4  11.9068744224
0.36  0.42  10.540169515
0.36  0.44  9.33033888353
0.36  0.46  8.25937605252
0.36  0.48  7.3113413809
0.36  0.5  6.47212482494
0.36  0.52  5.72923593187
0.36  0.54  5.0716179386
0.36  0.56  4.48948320875
0.36  0.58  3.9741675587
0.36  0.6  3.51800130443
0.36  0.62  3.11419511008
0.36  0.64  2.75673893909
0.36  0.66  2.44031260394
0.36  0.68  2.16020658341
0.36  0.7  1.9122519285
0.36  0.72  1.69275821401
0.36  0.74  1.49845861228
0.36  0.76  1.32646127139
0.36  0.78  1.17420627442
0.36  0.8  1.03942753899
0.36  0.82  0.920119090105
0.36  0.84  0.814505204275
0.36  0.86  0.721013980609
0.36  0.88  0.638253945469
0.36  0.9  0.564993342518
0.36  0.92  0.500141799915
0.36  0.94  0.442734101799
0.36  0.96  0.391915822531
0.36  0.98  0.346930609877
0.38  -1  0.254404871124
0.38  -0.98  0.287392612482
0.38  -0.96  0.324657752599
0.38  -0.94  0.366754925996
0.38  -0.92  0.414310684607
0.38  -0.9  0.468032823045
0.38  -0.88  0.528720913039
0.38  -0.86  0.597278203837
0.38  -0.84  0.674725065684
0.38  -0.82  0.762214176472
0.38  -0.8  0.861047677584
0.38  -0.78  0.972696554273
0.38  -0.76  1.09882252903
0.38  -0.74  1.24130279376
0.38  -0.72  1.40225794893
0.38  -0.7  1.58408356544
0.38  -0.68  1.78948583905
0.38  -0.66  2.02152186793
0.38  -0.64  2.28364515289
0.38  -0.62  2.57975699747
0.38  -0.6  2.91426457283
0.38  -0.58  3.29214651178
0.38  -0.56  3.71902700807
0.38  -0.54  4.20125952392
0.38  -0.52  4.74602135156
0.38  -0.5  5.36142043624
0.38  -0.48  6.05661605054
0.38  -0.46  6.84195511618
0.38  -0.44  7.72912620202
0.38  -0.42  8.73133349055
0.38  -0.4  9.8634933019
0.38  -0.38  11.1424561004
0.38  -0.36  12.5872572881
0.38  -0.34  14.2194005171
0.38  -0.32  16.063177739
0.38  -0.3  18.1460307532
0.38  -0.28  20.4989596359
0.38  -0.26  23.1569841289
0.38  -0.24  26.1596648547
0.38  -0.22  29.5516921159
0.38  -0.2  25.6103348015
0.38  -0.18  25.7883603707
0.38  -0.16  25.4797985994
0.38  -0.14  24.7039223951
0.38  -0.12  23.5114985119
0.38  -0.1  21.9880397783
0.38  -0.08  20.2596128489
0.38  -0.06  18.5007219476
0.38  -0.04  16.9390892814
0.38  -0.02  15.8398773251
0.38  6.17561557e-16  15.440319017
0.38  0.02  15.8398773251
0.38  0.04  16.9390892814
0.38  0.06  18.5007219476
0.38  0.08  20.2596128489
0.38  0.1  21.9880397783
0.38  0.12  23.5114985119
0.38  0.14  24.7039223951
0.38  0.16  25.4797985994
0.38  0.18  25.7883603707
0.38  0.2  33.3835510419
0.38  0.22  29.5516921159
0.38  0.24  26.1596648547
0.38  0.26  23.1569841289
0.38  0.28  20.4989596359
0.38  0.3  18.1460307532
0.38  0.32  16.063177739
0.38  0.34  14.2194005171
0.38  0.36  12.5872572881
0.38  0.38  11.1424561004
0.38  0.4  9.8634933019
0.38  0.42  8.73133349055
0.38  0.44  7.72912620202
0.38  0.46  6.84195511618
0.38  0.48  6.05661605054
0.38  0.5  5.36142043624
0.38  0.52  4.74602135156
0.38  0.54  4.20125952392
0.38  0.56  3.71902700807
0.38  0.58  3.29214651178
0.38  0.6  2.91426457283
0.38  0.62  2.57975699747
0.38  0.64  2.28364515289
0.38  0.66  2.02152186793
0.38  0.68  1.78948583905
0.38  0.7  1.58408356544
0.38  0.72  1.40225794893
0.38  0.74  1.24130279376
0.38  0.76  1.09882252903
0.38  0.78  0.972696554273
0.38  0.8  0.861047677584
0.38  0.82  0.762214176472
0.38  0.84  0.674725065684
0.38  0.86  0.597278203837
0.38  0.88  0.528720913039
0.38  0.9  0.468032823045
0.38  0.92  0.414310684607
0.38  0.94  0.366754925996
0.38  0.96  0.324657752599
0.38  0.98  0.287392612482
0.4  -1  0.210745545244
0.4  -0.98  0.238072142838
0.4  -0.96  0.268942079556
0.4  -0.94  0.303814807117
0.4  -0.92  0.343209352645
0.4  -0.9  0.387712043599
0.4  -0.88  0.437985234356
0.4  -0.86  0.494777164345
0.4  -0.84  0.558933094439
0.4  -0.82  0.631407887373
0.4  -0.8  0.713280219409
0.4  -0.78  0.805768634783
0.4  -0.76  0.910249681869
0.4  -0.74  1.02827840099
0.4  -0.72  1.16161146881
0.4  -0.7  1.31223334379
0.4  -0.68  1.48238580178
0.4  -0.66  1.67460130146
0.4  -0.64  1.89174067606
0.4  -0.62  2.13703571252
0.4  -0.6  2.41413725168
0.4  -0.58  2.72716952543
0.4  -0.56  3.08079153961
0.4  -0.54  3.48026641617
0.4  -0.52  3.93153972665
0.4  -0.5  4.44132798294
0.4  -0.48  5.01721860226
0.4  -0.46  5.66778283422
0.4  -0.44  6.40270333077
0.4  -0.42  7.23291825761
0.4  -0.4  8.17078409207
0.4  -0.38  9.23025953031
0.4  -0.36  10.4271132411
0.4  -0.34  11.7791585585
0.4  -0.32  13.3065186056
0.4  -0.3  15.0319257969
0.4  -0.28  16.9810601752
0.4  -0.26  19.1829316196
0.4  -0.24  21.6703116134
0.4  -0.22  24.4802209972
0.4  -0.2  21.2152540468
0.4  -0.18  21.3627280141
0.4  -0.16  21.1071196272
0.4  -0.14  20.4643943012
0.4  -0.12  19.4766065269
0.4  -0.1  18.2145939716
0.4  -0.08  16.7827885426
0.4  -0.06  15.3257471724
0.4  -0.04  14.0321118491
0.4  -0.02  13.1215395709
0.4  6.17561557e-16  12.7905508869
0.4  0.02  13.1215395709
0.4  0.04  14.0321118491
0.4  0.06  15.3257471724
0.4  0.08  16.7827885426
0.4  0.1  18.2145939716
0.4  0.12  19.4766065269
0.4  0.14  20.4643943012
0.4  0.16  21.1071196272
0.4  0.18  21.3627280141
0.4  0.2  27.6544809674
0.4  0.22  24.4802209972
0.4  0.24  21.6703116134
0.4  0.26  19.1829316196
0.4  0.28  16.9810601752
0.4  0.3  15.0319257969
0.4  0.32  13.3065186056
0.4  0.34  11.7791585585
0.4  0.36  10.4271132411
0.4  0.38  9.23025953031
0.4  0.4  8.17078409207
0.4  0.42  7.23291825761
0.4  0.44  6.40270333077
0.4  0.46  5.66778283422
0.4  0.48  5.01721860226
0.4  0.5  4.44132798294
0.4  0.52  3.93153972665
0.4  0.54  3.48026641617
0.4  0.56  3.08079153961
0.4  0.58  2.72716952543
0.4  0.6  2.41413725168
0.4  0.62  2.13703571252
0.4  0.64  1.89174067606
0.4  0.66  1.67460130146
0.4  0.68  1.48238580178
0.4  0.7  1.31223334379
0.4  0.72  1.16161146881
0.4  0.74  1.02827840099
0.4  0.76  0.910249681869
0.4  0.78  0.805768634783
0.4  0.8  0.713280219409
0.4  0.82  0.631407887373
0.4  0.84  0.558933094439
0.4  0.86  0.494777164345
0.4  0.88  0.437985234356
0.4  0.9  0.387712043599
0.4  0.92  0.343209352645
0.4  0.94  0.303814807117
0.4  0.96  0.268942079556
0.4  0.98  0.238072142838
0.42  -1  0.174578751752
0.42  -0.98  0.197215734621
0.42  -0.96  0.22278797157
0.42  -0.94  0.251676066171
0.42  -0.92  0.284309973455
0.42  -0.9  0.321175399139
0.42  -0.88  0.362821028606
0.42  -0.86  0.409866693251
0.42  -0.84  0.46301259572
0.42  -0.82  0.523049731352
0.42  -0.8  0.590871660937
0.42  -0.78  0.667487809994
0.42  -0.76  0.754038492529
0.42  -0.74  0.851811882857
0.42  -0.72  0.962263188107
0.42  -0.7  1.08703630675
0.42  -0.68  1.2279882955
0.42  -0.66  1.38721700879
0.42  -0.64  1.56709232207
0.42  -0.62  1.77029140382
0.42  -0.6  1.99983856108
0.42  -0.58  2.25915025161
0.42  -0.56  2.55208593268
0.42  -0.54  2.88300550312
0.42  -0.52  3.25683419379
0.42  -0.5  3.67913587205
0.42  -0.48  4.15619585141
0.42  -0.46  4.69511443884
0.42  -0.44  5.30391261189
0.42  -0.42  5.99165139871
0.42  -0.4  6.76856673755
0.42  -0.38  7.64622182299
0.42  -0.36  8.63767920646
0.42  -0.34  9.7576952122
0.42  -0.32  11.0229395626
0.42  -0.3  12.4522434816
0.42  -0.28  14.0668799683
0.42  -0.26  15.8908804132
0.42  -0.24  17.9513922686
0.42  -0.22  20.2790830968
0.42  -0.2  17.5744287515
0.42  -0.18  17.6965941861
0.42  -0.16  17.4848516647
0.42  -0.14  16.9524267206
0.42  -0.12  16.1341567239
0.42  -0.1  15.0887226373
0.42  -0.08  13.9026344366
0.42  -0.06  12.6956411245
0.42  -0.04  11.6240111657
0.42  -0.02  10.8697054388
0.42  6.17561557e-16  10.5955189016
0.42  0.02  10.8697054388
0.42  0.04  11.6240111657
0.42  0.06  12.6956411245
0.42  0.08  13.9026344366
0.42  0.1  15.0887226373
0.42  0.12  16.1341567239
0.42  0.14  16.9524267206
0.42  0.16  17.4848516647
0.42  0.18  17.6965941861
0.42  0.2  22.9085970099
0.42  0.22  20.2790830968
0.42  0.24  17.9513922686
0.42  0.26  15.8908804132
0.42  0.28  14.0668799683
0.42  0.3  12.4522434816
0.42  0.32  11.0229395626
0.42  0.34  9.7576952122
0.42  0.36  8.63767920646
0.42  0.38  7.64622182299
0.42  0.4  6.76856673755
0.42  0.42  5.99165139871
0.42  0.44  5.30391261189
0.42  0.46  4.69511443884
0.42  0.48  4.15619585141
0.42  0.5  3.67913587205
0.42  0.52  3.25683419379
0.42  0.54  2.88300550312
0.42  0.56  2.55208593268
0.42  0.58  2.25915025161
0.42  0.6  1.99983856108
0.42  0.62  1.77029140382
0.42  0.64  1.56709232207
0.42  0.66  1.38721700879
0.42  0.68  1.2279882955
0.42  0.7  1.08703630675
0.42  0.72  0.962263188107
0.42  0.74  0.851811882857
0.42  0.76  0.754038492529
0.42  0.78  0.667487809994
0.42  0.8  0.590871660937
0.42  0.82  0.523049731352
0.42  0.84  0.46301259572
0.42  0.86  0.409866693251
0.42  0.88  0.362821028606
0.42  0.9  0.321175399139
0.42  0.92  0.284309973455
0.42  0.94  0.251676066171
0.42  0.96  0.22278797157
0.42  0.98  0.197215734621
0.44  -1  0.144618670482
0.44  -0.98  0.16337084011
0.44  -0.96  0.184554534412
0.44  -0.94  0.208485040227
0.44  -0.92  0.235518526471
0.44  -0.9  0.266057345174
0.44  -0.88  0.300556019867
0.44  -0.86  0.339528010471
0.44  -0.84  0.383553355362
0.44  -0.82  0.433287304354
0.44  -0.8  0.489470071086
0.44  -0.78  0.55293784997
0.44  -0.76  0.624635261665
0.44  -0.74  0.705629412304
0.44  -0.72  0.797125775738
0.44  -0.7  0.900486135168
0.44  -0.68  1.0172488512
0.44  -0.66  1.14915175798
0.44  -0.64  1.2981580282
0.44  -0.62  1.46648539194
0.44  -0.6  1.65663914411
0.44  -0.58  1.87144943201
0.44  -0.56  2.11411337769
0.44  -0.54  2.38824266224
0.44  -0.52  2.69791728008
0.44  -0.5  3.0477462635
0.44  -0.48  3.44293628097
0.44  -0.46  3.8893691305
0.44  -0.44  4.39368928112
0.44  -0.42  4.96340276567
0.44  -0.4  5.60698889658
0.44  -0.38  6.33402646745
0.44  -0.36  7.15533631872
0.44  -0.34  8.0831423893
0.44  -0.32  9.13125365117
0.44  -0.3  10.3152696348
0.44  -0.28  11.6528126042
0.44  -0.26  13.1637898374
0.44  -0.24  14.8706899157
0.44  -0.22  16.7989174319
0.44  -0.2  14.5584184502
0.44  -0.18  14.6596186395
0.44  -0.16  14.4842140063
0.44  -0.14  14.0431604029
0.44  -0.12  13.3653166341
0.44  -0.1  12.499293214
0.44  -0.08  11.5167538331
0.44  -0.06  10.5168969415
0.44  -0.04  9.62917321602
0.44  -0.02  9.00431658102
0.44  6.17561557e-16  8.7771841718
0.44  0.02  9.00431658102
0.44  0.04  9.62917321602
0.44  0.06  10.5168969415
0.44  0.08  11.5167538331
0.44  0.1  12.499293214
0.44  0.12  13.3653166341
0.44  0.14  14.0431604029
0.44  0.16  14.4842140063
0.44  0.18  14.6596186395
0.44  0.2  18.9771710986
0.44  0.22  16.7989174319
0.44  0.24  14.8706899157
0.44  0.26  13.1637898374
0.44  0.28  11.6528126042
0.44  0.3  10.3152696348
0.44  0.32  9.13125365117
0.44  0.34  8.0831423893
0.44  0.36  7.15533631872
0.44  0.38  6.33402646745
0.44  0.4  5.60698889658
0.44  0.42  4.96340276567
0.44  0.44  4.39368928112
0.44  0.46  3.8893691305
0.44  0.48  3.44293628097
0.44  0.5  3.0477462635
0.44  0.52  2.69791728008
0.44  0.54  2.38824266224
0.44  0.56  2.11411337769
0.44  0.58  1.87144943201
0.44  0.6  1.65663914411
0.44  0.62  1.46648539194
0.44  0.64  1.2981580282
0.44  0.66  1.14915175798
0.44  0.68  1.0172488512
0.44  0.7  0.900486135168
0.44  0.72  0.797125775738
0.44  0.74  0.705629412304
0.44  0.76  0.624635261665
0.44  0.78  0.55293784997
0.44  0.8  0.489470071086
0.44  0.82  0.433287304354
0.44  0.84  0.383553355362
0.44  0.86  0.339528010471
0.44  0.88  0.300556019867
0.44  0.9  0.266057345174
0.44  0.92  0.235518526471
0.44  0.94  0.208485040227
0.44  0.96  0.184554534412
0.44  0.98  0.16337084011
0.46  -1  0.119800145448
0.46  -0.98  0.135334188468
0.46  -0.96  0.152882473556
0.46  -0.94  0.17270618005
0.46  -0.92  0.195100353453
0.46  -0.9  0.220398296728
0.46  -0.88  0.248976531005
0.46  -0.86  0.281260399521
0.46  -0.84  0.3177303982
0.46  -0.82  0.3589293271
0.46  -0.8  0.405470369165
0.46  -0.78  0.458046216503
0.46  -0.76  0.51743938006
0.46  -0.74  0.584533836084
0.46  -0.72  0.660328182767
0.46  -0.7  0.745950502845
0.46  -0.68  0.84267515338
0.46  -0.66  0.951941732617
0.46  -0.64  1.07537650619
0.46  -0.62  1.21481661161
0.46  -0.6  1.37233740123
0.46  -0.58  1.55028333068
0.46  -0.56  1.75130285251
0.46  -0.54  1.97838783434
0.46  -0.52  2.23491808825
0.46  -0.5  2.52471167407
0.46  -0.48  2.85208172536
0.46  -0.46  3.22190064382
0.46  -0.44  3.63967261749
0.46  -0.42  4.11161554218
0.46  -0.4  4.64475356533
0.46  -0.38  5.24702162965
0.46  -0.36  5.92738357263
0.46  -0.34  6.69596553948
0.46  -0.32  7.56420669534
0.46  -0.3  8.54502947968
0.46  -0.28  9.65303193706
0.46  -0.26  10.9047049866
0.46  -0.24  12.3186778642
0.46  -0.22  13.9159953898
0.46  -0.2  12.0599964168
0.46  -0.18  12.1438292813
0.46  -0.16  11.9985264618
0.46  -0.14  11.6331636379
0.46  -0.12  11.0716470521
0.46  -0.1  10.354244995
0.46  -0.08  9.54032269621
0.46  -0.06  8.71205480624
0.46  -0.04  7.97667651055
0.46  -0.02  7.45905374782
0.46  6.17561557e-16  7.27090034018
0.46  0.02  7.45905374782
0.46  0.04  7.97667651055
0.46  0.06  8.71205480624
0.46  0.08  9.54032269621
0.46  0.1  10.354244995
0.46  0.12  11.0716470521
0.46  0.14  11.6331636379
0.46  0.16  11.9985264618
0.46  0.18  12.1438292813
0.46  0.2  15.7204311879
0.46  0.22  13.9159953898
0.46  0.24  12.3186778642
0.46  0.26  10.9047049866
0.46  0.28  9.65303193706
0.46  0.3  8.54502947968
0.46  0.32  7.56420669534
0.46  0.34  6.69596553948
0.46  0.36  5.92738357263
0.46  0.38  5.24702162965
0.46  0.4  4.64475356533
0.46  0.42  4.11161554218
0.46  0.44  3.63967261749
0.46  0.46  3.22190064382
0.46  0.48  2.85208172536
0.46  0.5  2.52471167407
0.46  0.52  2.23491808825
0.46  0.54  1.97838783434
0.46  0.56  1.75130285251
0.46  0.58  1.55028333068
0.46  0.6  1.37233740123
0.46  0.62  1.21481661161
0.46  0.64  1.07537650619
0.46  0.66  0.951941732617
0.46  0.68  0.84267515338
0.46  0.7  0.745950502845
0.46  0.72  0.660328182767
0.46  0.74  0.584533836084
0.46  0.76  0.51743938006
0.46  0.78  0.458046216503
0.46  0.8  0.405470369165
0.46  0.82  0.3589293271
0.46  0.84  0.3177303982
0.46  0.86  0.281260399521
0.46  0.88  0.248976531005
0.46  0.9  0.220398296728
0.46  0.92  0.195100353453
0.46  0.94  0.17270618005
0.46  0.96  0.152882473556
0.46  0.98  0.135334188468
0.48  -1  0.0992408158743
0.48  -0.98  0.112109006455
0.48  -0.96  0.126645767848
0.48  -0.94  0.143067457478
0.48  -0.92  0.161618487037
0.48  -0.9  0.182574960179
0.48  -0.88  0.206248781904
0.48  -0.86  0.23299230078
0.48  -0.84  0.263203553114
0.48  -0.82  0.297332187115
0.48  -0.8  0.335886155216
0.48  -0.78  0.379439274169
0.48  -0.76  0.428639765425
0.48  -0.74  0.484219902925
0.48  -0.72  0.547006911868
0.48  -0.7  0.617935280693
0.48  -0.68  0.698060669509
0.48  -0.66  0.78857562198
0.48  -0.64  0.890827314506
0.48  -0.62  1.00633760688
0.48  -0.6  1.13682569286
0.48  -0.58  1.28423368768
0.48  -0.56  1.45075553353
0.48  -0.54  1.63886965297
0.48  -0.52  1.8513758365
0.48  -0.5  2.09143691309
0.48  -0.48  2.3626258241
0.48  -0.46  2.66897880102
0.48  -0.44  3.01505543858
0.48  -0.42  3.40600655736
0.48  -0.4  3.84765086583
0.48  -0.38  4.34656156294
0.48  -0.36  4.91016417008
0.48  -0.34  5.54684704865
0.48  -0.32  6.26608624791
0.48  -0.3  7.07858654148
0.48  -0.28  7.99644075151
0.48  -0.26  9.03330973178
0.48  -0.24  10.2046256886
0.48  -0.22  11.5278218656
0.48  -0.2  9.99033748563
0.48  -0.18  10.0597834937
0.48  -0.16  9.93941660846
0.48  -0.14  9.63675499982
0.48  -0.12  9.17160227492
0.48  -0.1  8.57731613956
0.48  -0.08  7.90307394485
0.48  -0.06  7.21694805697
0.48  -0.04  6.60777064932
0.48  -0.02  6.17897897217
0.48  6.17561557e-16  6.02311524083
0.48  0.02  6.17897897217
0.48  0.04  6.60777064932
0.48  0.06  7.21694805697
0.48  0.08  7.90307394485
0.48  0.1  8.57731613956
0.48  0.12  9.17160227492
0.48  0.14  9.63675499982
0.48  0.16  9.93941660846
0.48  0.18  10.0597834937
0.48  0.2  13.0225920107
0.48  0.22  11.5278218656
0.48  0.24  10.2046256886
0.48  0.26  9.03330973178
0.48  0.28  7.99644075151
0.48  0.3  7.07858654148
0.48  0.32  6.26608624791
0.48  0.34  5.54684704865
0.48  0.36  4.91016417008
0.48  0.38  4.34656156294
0.48  0.4  3.84765086583
0.48  0.42  3.40600655736
0.48  0.44  3.01505543858
0.48  0.46  2.66897880102
0.48  0.48  2.3626258241
0.48  0.5  2.09143691309
0.48  0.52  1.8513758365
0.48  0.54  1.63886965297
0.48  0.56  1.45075553353
0.48  0.58  1.28423368768
0.48  0.6  1.13682569286
0.48  0.62  1.00633760688
0.48  0.64  0.890827314506
0.48  0.66  0.78857562198
0.48  0.68  0.698060669509
0.48  0.7  0.617935280693
0.48  0.72  0.547006911868
0.48  0.74  0.484219902925
0.48  0.76  0.428639765425
0.48  0.78  0.379439274169
0.48  0.8  0.335886155216
0.48  0.82  0.297332187115
0.48  0.84  0.263203553114
0.48  0.86  0.23299230078
0.48  0.88  0.206248781904
0.48  0.9  0.182574960179
0.48  0.92  0.161618487037
0.48  0.94  0.143067457478
0.48  0.96  0.126645767848
0.48  0.98  0.112109006455
0.5  -1  0.0822097460616
0.5  -0.98  0.0928695806325
0.5  -0.96  0.104911636637
0.5  -0.94  0.118515141631
0.5  -0.92  0.133882562947
0.5  -0.9  0.151242621106
0.5  -0.88  0.170853693982
0.5  -0.86  0.193007662348
0.5  -0.84  0.218034254086
0.5  -0.82  0.246305951673
0.5  -0.8  0.278243536016
0.5  -0.78  0.31432234913
0.5  -0.76  0.355079368878
0.5  -0.74  0.401121201058
0.5  -0.72  0.453133107809
0.5  -0.7  0.511889206681
0.5  -0.68  0.578263992193
0.5  -0.66  0.653245351343
0.5  -0.64  0.737949266793
0.5  -0.62  0.833636426559
0.5  -0.6  0.941730987424
0.5  -0.58  1.06384177133
0.5  -0.56  1.20178621022
0.5  -0.54  1.35761739575
0.5  -0.52  1.53365463637
0.5  -0.5  1.73251797674
0.5  -0.48  1.95716719302
0.5  -0.46  2.21094584464
0.5  -0.44  2.49763103804
0.5  -0.42  2.82148964313
0.5  -0.4  3.18734179911
0.5  -0.38  3.60063265484
0.5  -0.36  4.06751341156
0.5  -0.34  4.59493287409
0.5  -0.32  5.19074087313
0.5  -0.3  5.86380509797
0.5  -0.28  6.6241430785
0.5  -0.26  7.48307128074
0.5  -0.24  8.45337353511
0.5  -0.22  9.5494913042
0.5  -0.2  8.27586009373
0.5  -0.18  8.33338822505
0.5  -0.16  8.23367792962
0.5  -0.14  7.98295715743
0.5  -0.12  7.59763094808
0.5  -0.1  7.10533237268
0.5  -0.08  6.54679928201
0.5  -0.06  5.97842190108
0.5  -0.04  5.47378759765
0.5  -0.02  5.11858238717
0.5  6.17561557e-16  4.9894669858
0.5  0.02  5.11858238717
0.5  0.04  5.47378759765
0.5  0.06  5.97842190108
0.5  0.08  6.54679928201
0.5  0.1  7.10533237268
0.5  0.12  7.59763094808
0.5  0.14  7.98295715743
0.5  0.16  8.23367792962
0.5  0.18  8.33338822505
0.5  0.2  10.7877386218
0.5  0.22  9.5494913042
0.5  0.24  8.45337353511
0.5  0.26  7.48307128074
0.5  0.28  6.6241430785
0.5  0.3  5.86380509797
0.5  0.32  5.19074087313
0.5  0.34  4.59493287409
0.5  0.36  4.06751341156
0.5  0.38  3.60063265484
0.5  0.4  3.18734179911
0.5  0.42  2.82148964313
0.5  0.44  2.49763103804
0.5  0.46  2.21094584464
0.5  0.48  1.95716719302
0.5  0.5  1.73251797674
0.5  0.52  1.53365463637
0.5  0.54  1.35761739575
0.5  0.56  1.20178621022
0.5  0.58  1.06384177133
0.5  0.6  0.941730987424
0.5  0.62  0.833636426559
0.5  0.64  0.737949266793
0.5  0.66  0.653245351343
0.5  0.68  0.578263992193
0.5  0.7  0.511889206681
0.5  0.72  0.453133107809
0.5  0.74  0.401121201058
0.5  0.76  0.355079368878
0.5  0.78  0.31432234913
0.5  0.8  0.278243536016
0.5  0.82  0.246305951673
0.5  0.84  0.218034254086
0.5  0.86  0.193007662348
0.5  0.88  0.170853693982
0.5  0.9  0.151242621106
0.5  0.92  0.133882562947
0.5  0.94  0.118515141631
0.5  0.96  0.104911636637
0.5  0.98  0.0928695806325
0.52  -1  0.0681014387878
0.52  -0.98  0.0769319011879
0.52  -0.96  0.0869073770795
0.52  -0.94  0.0981763361389
0.52  -0.92  0.110906499558
0.52  -0.9  0.125287336317
0.52  -0.88  0.141532883141
0.52  -0.86  0.159884930105
0.52  -0.84  0.180616619314
0.52  -0.82  0.204036510201
0.52  -0.8  0.230493171964
0.52  -0.78  0.260380371482
0.52  -0.76  0.294142933933
0.52  -0.74  0.332283363336
0.52  -0.72  0.375369321553
0.52  -0.7  0.424042077065
0.52  -0.68  0.479026049272
0.52  -0.66  0.541139590366
0.52  -0.64  0.611307165252
0.52  -0.62  0.690573110784
0.52  -0.6  0.780117179131
0.52  -0.58  0.881272096569
0.52  -0.56  0.995543399077
0.52  -0.54  1.12463183993
0.52  -0.52  1.27045870282
0.52  -0.5  1.43519439719
0.52  -0.48  1.62129076148
0.52  -0.46  1.83151755497
0.52  -0.44  2.06900368143
0.52  -0.42  2.33728375803
0.52  -0.4  2.64035072271
0.52  -0.38  2.98271526295
0.52  -0.36  3.36947295043
0.52  -0.34  3.80638008083
0.52  -0.32  4.29993934745
0.52  -0.3  4.85749662387
0.52  -0.28  5.48735029597
0.52  -0.26  6.19887477074
0.52  -0.24  7.00265999995
0.52  -0.22  7.91066909537
0.52  -0.2  6.85561027238
0.52  -0.18  6.90326579622
0.52  -0.16  6.82066713967
0.52  -0.14  6.61297345202
0.52  -0.12  6.29377444562
0.52  -0.1  5.88596098184
0.52  -0.08  5.42327974381
0.52  -0.06  4.95244362924
0.52  -0.04  4.53441141565
0.52  -0.02  4.24016423623
0.52  6.17561557e-16  4.13320678868
0.52  0.02  4.24016423623
0.52  0.04  4.53441141565
0.52  0.06  4.95244362924
0.52  0.08  5.42327974381
0.52  0.1  5.88596098184
0.52  0.12  6.29377444562
0.52  0.14  6.61297345202
0.52  0.16  6.82066713967
0.52  0.18  6.90326579622
0.52  0.2  8.93641638132
0.52  0.22  7.91066909536
0.52  0.24  7.00265999995
0.52  0.26  6.19887477074
0.52  0.28  5.48735029596
0.52  0.3  4.85749662387
0.52  0.32  4.29993934745
0.52  0.34  3.80638008083
0.52  0.36  3.36947295043
0.52  0.38  2.98271526295
0.52  0.4  2.64035072271
0.52  0.42  2.33728375803
0.52  0.44  2.06900368143
0.52  0.46  1.83151755497
0.52  0.48  1.62129076148
0.52  0.5  1.43519439719
0.52  0.52  1.27045870282
0.52  0.54  1.12463183993
0.52  0.56  0.995543399077
0.52  0.58  0.881272096569
0.52  0.6  0.780117179131
0.52  0.62  0.690573110784
0.52  0.64  0.611307165252
0.52  0.66  0.541139590366
0.52  0.68  0.479026049272
0.52  0.7  0.424042077065
0.52  0.72  0.375369321553
0.52  0.74  0.332283363336
0.52  0.76  0.294142933933
0.52  0.78  0.260380371482
0.52  0.8  0.230493171964
0.52  0.82  0.204036510201
0.52  0.84  0.180616619314
0.52  0.86  0.159884930105
0.52  0.88  0.141532883141
0.52  0.9  0.125287336317
0.52  0.92  0.110906499558
0.52  0.94  0.0981763361389
0.52  0.96  0.0869073770795
0.52  0.98  0.0769319011879
0.54  -1  0.0564143083655
0.54  -0.98  0.0637293436675
0.54  -0.96  0.0719928926182
0.54  -0.94  0.0813279454843
0.54  -0.92  0.0918734402265
0.54  -0.9  0.103786330379
0.54  -0.88  0.117243921061
0.54  -0.86  0.132446507893
0.54  -0.84  0.14962035809
0.54  -0.82  0.169021078103
0.54  -0.8  0.190937417928
0.54  -0.78  0.215695568707
0.54  -0.76  0.243664017586
0.54  -0.74  0.27525903208
0.54  -0.72  0.310950855576
0.54  -0.7  0.351270706189
0.54  -0.68  0.396818683125
0.54  -0.66  0.448272698244
0.54  -0.64  0.506398565734
0.54  -0.62  0.572061400085
0.54  -0.6  0.646238491992
0.54  -0.58  0.730033853832
0.54  -0.56  0.824694651192
0.54  -0.54  0.931629765024
0.54  -0.52  1.05243076068
0.54  -0.5  1.1888955759
0.54  -0.48  1.34305528042
0.54  -0.46  1.51720430526
0.54  -0.44  1.71393459186
0.54  -0.42  1.93617416916
0.54  -0.4  2.18723073279
0.54  -0.38  2.47084087511
0.54  -0.36  2.79122569858
0.54  -0.34  3.15315364049
0.54  -0.32  3.56201144378
0.54  -0.3  4.02388433051
0.54  -0.28  4.545646571
0.54  -0.26  5.13506379689
0.54  -0.24  5.80090858061
0.54  -0.22  6.5530910017
0.54  -0.2  5.67909458044
0.54  -0.18  5.71857177013
0.54  -0.16  5.65014816316
0.54  -0.14  5.47809752886
0.54  -0.12  5.21367740062
0.54  -0.1  4.8758502576
0.54  -0.08  4.49257139446
0.54  -0.06  4.10253714217
0.54  -0.04  3.75624492539
0.54  -0.02  3.51249455226
0.54  6.17561557e-16  3.42389245316
0.54  0.02  3.51249455226
0.54  0.04  3.75624492539
0.54  0.06  4.10253714217
0.54  0.08  4.49257139446
0.54  0.1  4.8758502576
0.54  0.12  5.21367740062
0.54  0.14  5.47809752886
0.54  0.16  5.65014816316
0.54  0.18  5.71857177013
0.54  0.2  7.40280614319
0.54  0.22  6.5530910017
0.54  0.24  5.80090858061
0.54  0.26  5.13506379689
0.54  0.28  4.545646571
0.54  0.3  4.02388433051
0.54  0.32  3.56201144378
0.54  0.34  3.15315364049
0.54  0.36  2.79122569858
0.54  0.38  2.47084087511
0.54  0.4  2.18723073279
0.54  0.42  1.93617416916
0.54  0.44  1.71393459186
0.54  0.46  1.51720430526
0.54  0.48  1.34305528042
0.54  0.5  1.1888955759
0.54  0.52  1.05243076068
0.54  0.54  0.931629765024
0.54  0.56  0.824694651192
0.54  0.58  0.730033853832
0.54  0.6  0.646238491992
0.54  0.62  0.572061400085
0.54  0.64  0.506398565734
0.54  0.66  0.448272698244
0.54  0.68  0.396818683125
0.54  0.7  0.351270706189
0.54  0.72  0.310950855576
0.54  0.74  0.27525903208
0.54  0.76  0.243664017586
0.54  0.78  0.215695568707
0.54  0.8  0.190937417928
0.54  0.82  0.169021078103
0.54  0.84  0.14962035809
0.54  0.86  0.132446507893
0.54  0.88  0.117243921061
0.54  0.9  0.103786330379
0.54  0.92  0.0918734402265
0.54  0.94  0.0813279454843
0.54  0.96  0.0719928926182
0.54  0.98  0.0637293436675
0.56  -1  0.0467328480133
0.56  -0.98  0.052792524058
0.56  -0.96  0.0596379359465
0.56  -0.94  0.0673709671477
0.56  -0.92  0.0761067119843
0.56  -0.9  0.0859751886352
0.56  -0.88  0.0971232742572
0.56  -0.86  0.109716891026
0.56  -0.84  0.123943475634
0.56  -0.82  0.140014768999
0.56  -0.8  0.158169967701
0.56  -0.78  0.178679284061
0.56  -0.76  0.201847967831
0.56  -0.74  0.228020849376
0.56  -0.72  0.257587471942
0.56  -0.7  0.290987889411
0.56  -0.68  0.328719215827
0.56  -0.66  0.371343024182
0.56  -0.64  0.419493704563
0.56  -0.62  0.473887906083
0.56  -0.6  0.5353352031
0.56  -0.58  0.604750144496
0.56  -0.56  0.683165865331
0.56  -0.54  0.771749463478
0.56  -0.52  0.871819370088
0.56  -0.5  0.984864972417
0.56  -0.48  1.11256878107
0.56  -0.46  1.25683147161
0.56  -0.44  1.41980017316
0.56  -0.42  1.6039004252
0.56  -0.4  1.81187227792
0.56  -0.38  2.04681107377
0.56  -0.36  2.31221351678
0.56  -0.34  2.61202971574
0.56  -0.32  2.95072197545
0.56  -0.3  3.33333121134
0.56  -0.28  3.76555197573
0.56  -0.26  4.25381721254
0.56  -0.24  4.80539400182
0.56  -0.22  5.42849171908
0.56  -0.2  4.70448493601
0.56  -0.18  4.7371873046
0.56  -0.16  4.68050611648
0.56  -0.14  4.53798170421
0.56  -0.12  4.31893965579
0.56  -0.1  4.0390882318
0.56  -0.08  3.72158521924
0.56  -0.06  3.39848613391
0.56  -0.04  3.1116223576
0.56  -0.02  2.90970285401
0.56  6.17561557e-16  2.83630607666
0.56  0.02  2.90970285401
0.56  0.04  3.1116223576
0.56  0.06  3.39848613391
0.56  0.08  3.72158521924
0.56  0.1  4.0390882318
0.56  0.12  4.31893965579
0.56  0.14  4.53798170421
0.56  0.16  4.68050611648
0.56  0.18  4.7371873046
0.56  0.2  6.13238421927
0.56  0.22  5.42849171908
0.56  0.24  4.80539400182
0.56  0.26  4.25381721254
0.56  0.28  3.76555197573
0.56  0.3  3.33333121134
0.56  0.32  2.95072197545
0.56  0.34  2.61202971574
0.56  0.36  2.31221351678
0.56  0.38  2.04681107377
0.56  0.4  1.81187227792
0.56  0.42  1.6039004252
0.56  0.44  1.41980017316
0.56  0.46  1.25683147161
0.56  0.48  1.11256878107
0.56  0.5  0.984864972417
0.56  0.52  0.871819370088
0.56  0.54  0.771749463478
0.56  0.56  0.683165865331
0.56  0.58  0.604750144496
0.56  0.6  0.5353352031
0.56  0.62  0.473887906083
0.56  0.64  0.419493704563
0.56  0.66  0.371343024182
0.56  0.68  0.328719215827
0.56  0.7  0.290987889411
0.56  0.72  0.257587471942
0.56  0.74  0.228020849376
0.56  0.76  0.201847967831
0.56  0.78  0.178679284061
0.56  0.8  0.158169967701
0.56  0.82  0.140014768999
0.56  0.84  0.123943475634
0.56  0.86  0.109716891026
0.56  0.88  0.0971232742572
0.56  0.9  0.0859751886352
0.56  0.92  0.0761067119843
0.56  0.94  0.0673709671477
0.56  0.96  0.0596379359465
0.56  0.98  0.052792524058
0.58  -1  0.0387128575482
0.58  -0.98  0.0437326110081
0.58  -0.96  0.0494032573856
0.58  -0.94  0.0558091955648
0.58  -0.92  0.0630457681217
0.58  -0.9  0.0712206803525
0.58  -0.88  0.0804556033021
0.58  -0.86  0.0908879846509
0.58  -0.84  0.102673094413
0.58  -0.82  0.115986335893
0.58  -0.8  0.131025856295
0.58  -0.78  0.148015495839
0.58  -0.76  0.167208119283
0.58  -0.74  0.188889379423
0.58  -0.72  0.213381968603
0.58  -0.7  0.24105042149
0.58  -0.68  0.272306540617
0.58  -0.66  0.307615525435
0.58  -0.64  0.347502896089
0.58  -0.62  0.392562314986
0.58  -0.6  0.443464422546
0.58  -0.58  0.50096681866
0.58  -0.56  0.565925338401
0.58  -0.54  0.63930678982
0.58  -0.52  0.722203343404
0.58  -0.5  0.815848787358
0.58  -0.48  0.921636890651
0.58  -0.46  1.04114214714
0.58  -0.44  1.17614320948
0.58  -0.42  1.32864936168
0.58  -0.4  1.50093042416
0.58  -0.38  1.69555053662
0.58  -0.36  1.91540632128
0.58  -0.34  2.16376999468
0.58  -0.32  2.44433806961
0.58  -0.3  2.76128637204
0.58  -0.28  3.11933219189
0.58  -0.26  3.52380449268
0.58  -0.24  3.98072322497
0.58  -0.22  4.4968889241
0.58  -0.2  3.89713152328
0.58  -0.18  3.92422172194
0.58  -0.16  3.87726779436
0.58  -0.14  3.75920250402
0.58  -0.12  3.57775104154
0.58  -0.1  3.34592591699
0.58  -0.08  3.08291072705
0.58  -0.06  2.81525982632
0.58  -0.04  2.57762576421
0.58  -0.02  2.41035838567
0.58  6.17561557e-16  2.34955749064
0.58  0.02  2.41035838567
0.58  0.04  2.57762576421
0.58  0.06  2.81525982632
0.58  0.08  3.08291072705
0.58  0.1  3.34592591699
0.58  0.12  3.57775104154
0.58  0.14  3.75920250402
0.58  0.16  3.87726779436
0.58  0.18  3.92422172194
0.58  0.2  5.07998392574
0.58  0.22  4.4968889241
0.58  0.24  3.98072322497
0.58  0.26  3.52380449268
0.58  0.28  3.11933219189
0.58  0.3  2.76128637204
0.58  0.32  2.44433806961
0.58  0.34  2.16376999468
0.58  0.36  1.91540632128
0.58  0.38  1.69555053662
0.58  0.4  1.50093042416
0.58  0.42  1.32864936168
0.58  0.44  1.17614320948
0.58  0.46  1.04114214714
0.58  0.48  0.921636890651
0.58  0.5  0.815848787358
0.58  0.52  0.722203343404
0.58  0.54  0.63930678982
0.58  0.56  0.565925338401
0.58  0.58  0.50096681866
0.58  0.6  0.443464422546
0.58  0.62  0.392562314986
0.58  0.64  0.347502896089
0.58  0.66  0.307615525435
0.58  0.68  0.272306540617
0.58  0.7  0.24105042149
0.58  0.72  0.213381968603
0.58  0.74  0.188889379423
0.58  0.76  0.167208119283
0.58  0.78  0.148015495839
0.58  0.8  0.131025856295
0.58  0.82  0.115986335893
0.58  0.84  0.102673094413
0.58  0.86  0.0908879846509
0.58  0.88  0.0804556033021
0.58  0.9  0.0712206803525
0.58  0.92  0.0630457681217
0.58  0.94  0.0558091955648
0.58  0.96  0.0494032573856
0.58  0.98  0.0437326110081
0.6  -1  0.0320692062064
0.6  -0.98  0.0362275018995
0.6  -0.96  0.0409249884587
0.6  -0.94  0.0462315807752
0.6  -0.92  0.0522262593458
0.6  -0.9  0.0589982457775
0.6  -0.88  0.0666483307138
0.6  -0.86  0.0752903739492
0.6  -0.84  0.0850529990579
0.6  -0.82  0.0960815077585
0.6  -0.8  0.108540042508
0.6  -0.78  0.122614029509
0.6  -0.76  0.138512938498
0.6  -0.74  0.156473400378
0.6  -0.72  0.176762729109
0.6  -0.7  0.199682900268
0.6  -0.68  0.225575045487
0.6  -0.66  0.254824529684
0.6  -0.64  0.28786668662
0.6  -0.62  0.325193298181
0.6  -0.6  0.367359913799
0.6  -0.58  0.414994118947
0.6  -0.56  0.468804875795
0.6  -0.54  0.529593075022
0.6  -0.52  0.598263455848
0.6  -0.5  0.675838071689
0.6  -0.48  0.763471501861
0.6  -0.46  0.862468035719
0.6  -0.44  0.974301085009
0.6  -0.42  1.10063511334
0.6  -0.4  1.2433504092
0.6  -0.38  1.40457107111
0.6  -0.36  1.58669662165
0.6  -0.34  1.79243772062
0.6  -0.32  2.0248565091
0.6  -0.3  2.28741218468
0.6  -0.28  2.58401248637
0.6  -0.26  2.91907185529
0.6  -0.24  3.29757713682
0.6  -0.22  3.72516180223
0.6  -0.2  3.22833090473
0.6  -0.18  3.25077205793
0.6  -0.16  3.21187606107
0.6  -0.14  3.11407237563
0.6  -0.12  2.96376044479
0.6  -0.1  2.7717196554
0.6  -0.08  2.55384143881
0.6  -0.06  2.33212306228
0.6  -0.04  2.13527022778
0.6  -0.02  1.99670819972
0.6  6.17561557e-16  1.94634156281
0.6  0.02  1.99670819972
0.6  0.04  2.13527022778
0.6  0.06  2.33212306228
0.6  0.08  2.55384143881
0.6  0.1  2.7717196554
0.6  0.12  2.96376044479
0.6  0.14  3.11407237563
0.6  0.16  3.21187606107
0.6  0.18  3.25077205793
0.6  0.2  4.20818979422
0.6  0.22  3.72516180223
0.6  0.24  3.29757713682
0.6  0.26  2.91907185529
0.6  0.28  2.58401248637
0.6  0.3  2.28741218468
0.6  0.32  2.0248565091
0.6  0.34  1.79243772062
0.6  0.36  1.58669662165
0.6  0.38  1.40457107111
0.6  0.4  1.2433504092
0.6  0.42  1.10063511334
0.6  0.44  0.974301085009
0.6  0.46  0.862468035719
0.6  0.48  0.763471501861
0.6  0.5  0.675838071689
0.6  0.52  0.598263455848
0.6  0.54  0.529593075022
0.6  0.56  0.468804875795
0.6  0.58  0.414994118947
0.6  0.6  0.367359913799
0.6  0.62  0.325193298181
0.6  0.64  0.28786668662
0.6  0.66  0.254824529684
0.6  0.68  0.225575045487
0.6  0.7  0.199682900268
0.6  0.72  0.176762729109
0.6  0.74  0.156473400378
0.6  0.76  0.138512938498
0.6  0.78  0.122614029509
0.6  0.8  0.108540042508
0.6  0.82  0.0960815077585
0.6  0.84  0.0850529990579
0.6  0.86  0.0752903739492
0.6  0.88  0.0666483307138
0.6  0.9  0.0589982457775
0.6  0.92  0.0522262593458
0.6  0.94  0.0462315807752
0.6  0.96  0.0409249884587
0.6  0.98  0.0362275018995
0.62  -1  0.0265656955296
0.62  -0.98  0.0300103712909
0.62  -0.96  0.0339017054538
0.62  -0.94  0.0382976145658
0.62  -0.92  0.0432635249997
0.62  -0.9  0.0488733467246
0.62  -0.88  0.0552105733427
0.62  -0.86  0.0623695247638
0.62  -0.84  0.0704567510125
0.62  -0.82  0.079592618062
0.62  -0.8  0.0899130992975
0.62  -0.78  0.101571799271
0.62  -0.76  0.114742239872
0.62  -0.74  0.129620442931
0.62  -0.72  0.146427847708
0.62  -0.7  0.165414606674
