-0.52  0.62  0.000771432445144
-0.52  0.64  0.000618210482436
-0.52  0.66  0.000495421475982
-0.52  0.68  0.000397020830021
-0.52  0.7  0.000318164526796
-0.52  0.72  0.000254970667675
-0.52  0.74  0.000204328376986
-0.52  0.76  0.000163744661386
-0.52  0.78  0.000131221686032
-0.52  0.8  0.00010515842617
-0.52  0.82  0.0000842718526867
-0.52  0.84  0.0000675337717945
-0.52  0.86  0.0000541202096238
-0.52  0.88  0.0000433708500488
-0.52  0.9  0.0000347565289755
-0.52  0.92  0.0000278531849173
-0.52  0.94  0.0000223209835073
-0.52  0.96  0.0000178875883033
-0.52  0.98  0.0000143347543446
-0.5  -1  0.0000145243011031
-0.5  -0.98  0.0000181241137643
-0.5  -0.96  0.000022616131228
-0.5  -0.94  0.0000282214842817
-0.5  -0.92  0.0000352161104407
-0.5  -0.9  0.0000439443376609
-0.5  -0.88  0.0000548358347442
-0.5  -0.86  0.0000684267628584
-0.5  -0.84  0.0000853861694113
-0.5  -0.82  0.000106548923582
-0.5  -0.8  0.000132956814841
-0.5  -0.78  0.000165909837645
-0.5  -0.76  0.000207030186909
-0.5  -0.74  0.000258342114608
-0.5  -0.72  0.000322371578642
-0.5  -0.7  0.000402270589423
-0.5  -0.68  0.000501972375468
-0.5  -0.66  0.000626385006408
-0.5  -0.64  0.000781633004977
-0.5  -0.62  0.000975358841956
-0.5  -0.6  0.0012170991559
-0.5  -0.58  0.00151875421801
-0.5  -0.56  0.00189517375273
-0.5  -0.54  0.00236488795253
-0.5  -0.52  0.00295101967298
-0.5  -0.5  0.00368242271309
-0.5  -0.48  0.0045951022157
-0.5  -0.46  0.00573398711063
-0.5  -0.44  0.00715514185355
-0.5  -0.42  0.00892852633893
-0.5  -0.4  0.0111414398508
-0.5  -0.38  0.013902818588
-0.5  -0.36  0.0173485983212
-0.5  -0.34  0.0216484061706
-0.5  -0.32  0.0270139109254
-0.5  -0.3  0.0337092429684
-0.5  -0.28  0.042063996755
-0.5  -0.26  0.0524894559234
-0.5  -0.24  0.0654988397603
-0.5  -0.22  0.081732567703
-0.5  -0.2  0.0741071221495
-0.5  -0.18  0.0743610069828
-0.5  -0.16  0.0758784702504
-0.5  -0.14  0.0784351408284
-0.5  -0.12  0.0816826725198
-0.5  -0.1  0.0852253014734
-0.5  -0.08  0.088681289724
-0.5  -0.06  0.0917198138577
-0.5  -0.04  0.0940782909799
-0.5  -0.02  0.0955684948694
-0.5  6.17561557e-16  0.0960777247298
-0.5  0.02  0.0955684948694
-0.5  0.04  0.0940782909799
-0.5  0.06  0.0917198138577
-0.5  0.08  0.088681289724
-0.5  0.1  0.0852253014734
-0.5  0.12  0.0816826725198
-0.5  0.14  0.0784351408284
-0.5  0.16  0.0758784702504
-0.5  0.18  0.0743610069828
-0.5  0.2  0.101989785587
-0.5  0.22  0.081732567703
-0.5  0.24  0.0654988397603
-0.5  0.26  0.0524894559234
-0.5  0.28  0.042063996755
-0.5  0.3  0.0337092429684
-0.5  0.32  0.0270139109254
-0.5  0.34  0.0216484061706
-0.5  0.36  0.0173485983212
-0.5  0.38  0.013902818588
-0.5  0.4  0.0111414398508
-0.5  0.42  0.00892852633892
-0.5  0.44  0.00715514185354
-0.5  0.46  0.00573398711063
-0.5  0.48  0.0045951022157
-0.5  0.5  0.00368242271309
-0.5  0.52  0.00295101967298
-0.5  0.54  0.00236488795253
-0.5  0.56  0.00189517375273
-0.5  0.58  0.00151875421801
-0.5  0.6  0.0012170991559
-0.5  0.62  0.000975358841956
-0.5  0.64  0.000781633004976
-0.5  0.66  0.000626385006407
-0.5  0.68  0.000501972375468
-0.5  0.7  0.000402270589422
-0.5  0.72  0.000322371578642
-0.5  0.74  0.000258342114608
-0.5  0.76  0.000207030186909
-0.5  0.78  0.000165909837645
-0.5  0.8  0.000132956814841
-0.5  0.82  0.000106548923582
-0.5  0.84  0.0000853861694113
-0.5  0.86  0.0000684267628584
-0.5  0.88  0.0000548358347442
-0.5  0.9  0.0000439443376609
-0.5  0.92  0.0000352161104407
-0.5  0.94  0.0000282214842817
-0.5  0.96  0.0000226161312279
-0.5  0.98  0.0000181241137643
-0.48  -1  0.0000183637667735
-0.48  -0.98  0.0000229151816519
-0.48  -0.96  0.0000285946536251
-0.48  -0.94  0.0000356817688971
-0.48  -0.92  0.0000445254084318
-0.48  -0.9  0.0000555609224908
-0.48  -0.88  0.0000693315618373
-0.48  -0.86  0.0000865152206139
-0.48  -0.84  0.000107957807376
-0.48  -0.82  0.000134714887053
-0.48  -0.8  0.000168103643773
-0.48  -0.78  0.000209767722544
-0.48  -0.76  0.000261758141785
-0.48  -0.74  0.000326634259836
-0.48  -0.72  0.00040758976577
-0.48  -0.7  0.000508609896721
-0.48  -0.68  0.000634667621141
-0.48  -0.66  0.000791968445603
-0.48  -0.64  0.000988255896375
-0.48  -0.62  0.00123319271385
-0.48  -0.6  0.00153883652512
-0.48  -0.58  0.00192023341075
-0.48  -0.56  0.00239615858576
-0.48  -0.54  0.00299004065652
-0.48  -0.52  0.00373111495238
-0.48  -0.5  0.00465586270793
-0.48  -0.48  0.00580980694291
-0.48  -0.46  0.00724975344662
-0.48  -0.44  0.00904658718497
-0.48  -0.42  0.01128876179
-0.48  -0.4  0.0140866539111
-0.48  -0.38  0.0175779967815
-0.48  -0.36  0.0219346604808
-0.48  -0.34  0.0273711126693
-0.48  -0.32  0.0341549762947
-0.48  -0.3  0.0426202040008
-0.48  -0.28  0.0531835177808
-0.48  -0.26  0.066364923159
-0.48  -0.24  0.0828133077631
-0.48  -0.22  0.103338384439
-0.48  -0.2  0.09369716985
-0.48  -0.18  0.0940181685564
-0.48  -0.16  0.095936769757
-0.48  -0.14  0.0991692903359
-0.48  -0.12  0.103275299578
-0.48  -0.1  0.107754414367
-0.48  -0.08  0.112123985182
-0.48  -0.06  0.115965736199
-0.48  -0.04  0.118947671337
-0.48  -0.02  0.120831807205
-0.48  6.17561557e-16  0.121475650811
-0.48  0.02  0.120831807205
-0.48  0.04  0.118947671337
-0.48  0.06  0.115965736199
-0.48  0.08  0.112123985182
-0.48  0.1  0.107754414367
-0.48  0.12  0.103275299578
-0.48  0.14  0.0991692903359
-0.48  0.16  0.095936769757
-0.48  0.18  0.0940181685564
-0.48  0.2  0.128950551389
-0.48  0.22  0.103338384439
-0.48  0.24  0.082813307763
-0.48  0.26  0.066364923159
-0.48  0.28  0.0531835177807
-0.48  0.3  0.0426202040008
-0.48  0.32  0.0341549762947
-0.48  0.34  0.0273711126693
-0.48  0.36  0.0219346604808
-0.48  0.38  0.0175779967815
-0.48  0.4  0.0140866539111
-0.48  0.42  0.01128876179
-0.48  0.44  0.00904658718496
-0.48  0.46  0.00724975344662
-0.48  0.48  0.0058098069429
-0.48  0.5  0.00465586270793
-0.48  0.52  0.00373111495238
-0.48  0.54  0.00299004065651
-0.48  0.56  0.00239615858576
-0.48  0.58  0.00192023341074
-0.48  0.6  0.00153883652512
-0.48  0.62  0.00123319271385
-0.48  0.64  0.000988255896375
-0.48  0.66  0.000791968445603
-0.48  0.68  0.000634667621141
-0.48  0.7  0.000508609896721
-0.48  0.72  0.00040758976577
-0.48  0.74  0.000326634259836
-0.48  0.76  0.000261758141785
-0.48  0.78  0.000209767722544
-0.48  0.8  0.000168103643773
-0.48  0.82  0.000134714887052
-0.48  0.84  0.000107957807375
-0.48  0.86  0.0000865152206139
-0.48  0.88  0.0000693315618373
-0.48  0.9  0.0000555609224907
-0.48  0.92  0.0000445254084318
-0.48  0.94  0.000035681768897
-0.48  0.96  0.0000285946536251
-0.48  0.98  0.0000229151816519
-0.46  -1  0.0000232181863842
-0.46  -0.98  0.0000289727573424
-0.46  -0.96  0.0000361535847
-0.46  -0.94  0.0000451141626327
-0.46  -0.92  0.0000562955979867
-0.46  -0.9  0.0000702483248659
-0.46  -0.88  0.0000876592011268
-0.46  -0.86  0.000109385320673
-0.46  -0.84  0.000136496206045
-0.46  -0.82  0.00017032645834
-0.46  -0.8  0.000212541456288
-0.46  -0.78  0.000265219338684
-0.46  -0.76  0.000330953305958
-0.46  -0.74  0.000412979276957
-0.46  -0.72  0.000515335185132
-0.46  -0.7  0.000643059755908
-0.46  -0.68  0.000802440550537
-0.46  -0.66  0.00100132348702
-0.46  -0.64  0.00124949907502
-0.46  -0.62  0.00155918437819
-0.46  -0.6  0.00194562442965
-0.46  -0.58  0.00242784270688
-0.46  -0.56  0.00302957760989
-0.46  -0.54  0.00378045104338
-0.46  -0.52  0.00471742662895
-0.46  -0.5  0.00588662933184
-0.46  -0.48  0.00734561607759
-0.46  -0.46  0.00916620913559
-0.46  -0.44  0.0114380317498
-0.46  -0.42  0.014272920067
-0.46  -0.4  0.0178104285505
-0.46  -0.38  0.0222246998978
-0.46  -0.36  0.0277330376495
-0.46  -0.34  0.0346066035
-0.46  -0.32  0.0431837659092
-0.46  -0.3  0.0538867571359
-0.46  -0.28  0.0672424586758
-0.46  -0.26  0.0839083383209
-0.46  -0.24  0.104704815654
-0.46  -0.22  0.130655649254
-0.46  -0.2  0.11846580171
-0.46  -0.18  0.118871655688
-0.46  -0.16  0.121297434714
-0.46  -0.14  0.125384464691
-0.46  -0.12  0.130575888055
-0.46  -0.1  0.136239046561
-0.46  -0.08  0.141763703395
-0.46  -0.06  0.146621012478
-0.46  -0.04  0.150391215328
-0.46  -0.02  0.15277341819
-0.46  6.17561557e-16  0.153587460375
-0.46  0.02  0.15277341819
-0.46  0.04  0.150391215328
-0.46  0.06  0.146621012478
-0.46  0.08  0.141763703395
-0.46  0.1  0.136239046561
-0.46  0.12  0.130575888055
-0.46  0.14  0.125384464691
-0.46  0.16  0.121297434714
-0.46  0.18  0.118871655688
-0.46  0.2  0.163038333771
-0.46  0.22  0.130655649254
-0.46  0.24  0.104704815654
-0.46  0.26  0.0839083383209
-0.46  0.28  0.0672424586758
-0.46  0.3  0.0538867571358
-0.46  0.32  0.0431837659092
-0.46  0.34  0.0346066035
-0.46  0.36  0.0277330376495
-0.46  0.38  0.0222246998978
-0.46  0.4  0.0178104285505
-0.46  0.42  0.014272920067
-0.46  0.44  0.0114380317498
-0.46  0.46  0.00916620913558
-0.46  0.48  0.00734561607758
-0.46  0.5  0.00588662933184
-0.46  0.52  0.00471742662895
-0.46  0.54  0.00378045104338
-0.46  0.56  0.00302957760989
-0.46  0.58  0.00242784270688
-0.46  0.6  0.00194562442965
-0.46  0.62  0.00155918437818
-0.46  0.64  0.00124949907502
-0.46  0.66  0.00100132348702
-0.46  0.68  0.000802440550537
-0.46  0.7  0.000643059755908
-0.46  0.72  0.000515335185132
-0.46  0.74  0.000412979276957
-0.46  0.76  0.000330953305958
-0.46  0.78  0.000265219338684
-0.46  0.8  0.000212541456288
-0.46  0.82  0.00017032645834
-0.46  0.84  0.000136496206045
-0.46  0.86  0.000109385320673
-0.46  0.88  0.0000876592011268
-0.46  0.9  0.0000702483248659
-0.46  0.92  0.0000562955979867
-0.46  0.94  0.0000451141626327
-0.46  0.96  0.0000361535847
-0.46  0.98  0.0000289727573424
-0.44  -1  0.0000293558606804
-0.44  -0.98  0.0000366316392675
-0.44  -0.96  0.0000457107018606
-0.44  -0.94  0.0000570399880097
-0.44  -0.92  0.0000711772101435
-0.44  -0.9  0.0000888183083586
-0.44  -0.88  0.00011083170981
-0.44  -0.86  0.000138301079207
-0.44  -0.84  0.00017257866492
-0.44  -0.82  0.000215351866786
-0.44  -0.8  0.000268726302579
-0.44  -0.78  0.000335329462316
-0.44  -0.76  0.000418440053012
-0.44  -0.74  0.000522149401234
-0.44  -0.72  0.000651562858878
-0.44  -0.7  0.000813051126873
-0.44  -0.68  0.00101456386886
-0.44  -0.66  0.00126602105326
-0.44  -0.64  0.00157980128851
-0.44  -0.62  0.00197135119099
-0.44  -0.6  0.00245994578337
-0.44  -0.58  0.00306963735572
-0.44  -0.56  0.00383043949966
-0.44  -0.54  0.0047798046024
-0.44  -0.52  0.00596446753412
-0.44  -0.5  0.00744274628876
-0.44  -0.48  0.00928741283309
-0.44  -0.46  0.0115892754886
-0.44  -0.44  0.0144616491982
-0.44  -0.42  0.0180459337373
-0.44  -0.4  0.0225185744716
-0.44  -0.38  0.0280997483209
-0.44  -0.36  0.0350642025183
-0.44  -0.34  0.04375477973
-0.44  -0.32  0.0545992953416
-0.44  -0.3  0.0681315977409
-0.44  -0.28  0.0850178483381
-0.44  -0.26  0.106089315027
-0.44  -0.24  0.132383293426
-0.44  -0.22  0.165194170343
-0.44  -0.2  0.149781964571
-0.44  -0.18  0.150295105117
-0.44  -0.16  0.153362133262
-0.44  -0.14  0.158529560236
-0.44  -0.12  0.165093324455
-0.44  -0.1  0.172253525918
-0.44  -0.08  0.179238613109
-0.44  -0.06  0.185379940703
-0.44  -0.04  0.190146788025
-0.44  -0.02  0.193158720747
-0.44  6.17561557e-16  0.194187953117
-0.44  0.02  0.193158720747
-0.44  0.04  0.190146788025
-0.44  0.06  0.185379940703
-0.44  0.08  0.179238613109
-0.44  0.1  0.172253525918
-0.44  0.12  0.165093324455
-0.44  0.14  0.158529560236
-0.44  0.16  0.153362133262
-0.44  0.18  0.150295105117
-0.44  0.2  0.206137143209
-0.44  0.22  0.165194170343
-0.44  0.24  0.132383293426
-0.44  0.26  0.106089315027
-0.44  0.28  0.0850178483381
-0.44  0.3  0.0681315977408
-0.44  0.32  0.0545992953416
-0.44  0.34  0.04375477973
-0.44  0.36  0.0350642025183
-0.44  0.38  0.0280997483209
-0.44  0.4  0.0225185744716
-0.44  0.42  0.0180459337373
-0.44  0.44  0.0144616491981
-0.44  0.46  0.0115892754886
-0.44  0.48  0.00928741283308
-0.44  0.5  0.00744274628876
-0.44  0.52  0.00596446753412
-0.44  0.54  0.0047798046024
-0.44  0.56  0.00383043949966
-0.44  0.58  0.00306963735572
-0.44  0.6  0.00245994578337
-0.44  0.62  0.00197135119099
-0.44  0.64  0.0015798012885
-0.44  0.66  0.00126602105326
-0.44  0.68  0.00101456386886
-0.44  0.7  0.000813051126873
-0.44  0.72  0.000651562858878
-0.44  0.74  0.000522149401234
-0.44  0.76  0.000418440053012
-0.44  0.78  0.000335329462316
-0.44  0.8  0.000268726302579
-0.44  0.82  0.000215351866786
-0.44  0.84  0.00017257866492
-0.44  0.86  0.000138301079207
-0.44  0.88  0.00011083170981
-0.44  0.9  0.0000888183083586
-0.44  0.92  0.0000711772101435
-0.44  0.94  0.0000570399880096
-0.44  0.96  0.0000457107018606
-0.44  0.98  0.0000366316392675
-0.42  -1  0.0000371160150939
-0.42  -0.98  0.0000463151290561
-0.42  -0.96  0.0000577942210137
-0.42  -0.94  0.000072118377961
-0.42  -0.92  0.0000899927423279
-0.42  -0.9  0.000112297224378
-0.42  -0.88  0.000140129817993
-0.42  -0.86  0.000174860652162
-0.42  -0.84  0.000218199439008
-0.42  -0.82  0.000272279638643
-0.42  -0.8  0.00033976348407
-0.42  -0.78  0.000423973036261
-0.42  -0.76  0.000529053720909
-0.42  -0.74  0.000660178397372
-0.42  -0.72  0.000823802005604
-0.42  -0.7  0.00102797932671
-0.42  -0.68  0.00128276149966
-0.42  -0.66  0.00160069081379
-0.42  -0.64  0.00199741813425
-0.42  -0.62  0.00249247335504
-0.42  -0.6  0.00311022680682
-0.42  -0.58  0.00388108894739
-0.42  -0.56  0.00484300739241
-0.42  -0.54  0.00604333498173
-0.42  -0.52  0.00754116084121
-0.42  -0.5  0.00941021919272
-0.42  -0.48  0.0117425191054
-0.42  -0.46  0.0146528738723
-0.42  -0.44  0.0182845529812
-0.42  -0.42  0.0228163349141
-0.42  -0.4  0.028471307964
-0.42  -0.38  0.0355278523143
-0.42  -0.36  0.0443333439988
-0.42  -0.34  0.0553212553557
-0.42  -0.32  0.0690324937864
-0.42  -0.3  0.0861420292748
-0.42  -0.28  0.107492121472
-0.42  -0.26  0.134133782031
-0.42  -0.24  0.167378513288
-0.42  -0.22  0.208862870233
-0.42  -0.2  0.189376483229
-0.42  -0.18  0.190025271301
-0.42  -0.16  0.193903061299
-0.42  -0.14  0.200436485736
-0.42  -0.12  0.208735365966
-0.42  -0.1  0.217788350256
-0.42  -0.08  0.226619929219
-0.42  -0.06  0.234384702671
-0.42  -0.04  0.240411655145
-0.42  -0.02  0.244219785372
-0.42  6.17561557e-16  0.245521092956
-0.42  0.02  0.244219785372
-0.42  0.04  0.240411655145
-0.42  0.06  0.234384702671
-0.42  0.08  0.226619929219
-0.42  0.1  0.217788350256
-0.42  0.12  0.208735365966
-0.42  0.14  0.200436485736
-0.42  0.16  0.193903061299
-0.42  0.18  0.190025271301
-0.42  0.2  0.260629024032
-0.42  0.22  0.208862870233
-0.42  0.24  0.167378513288
-0.42  0.26  0.134133782031
-0.42  0.28  0.107492121472
-0.42  0.3  0.0861420292748
-0.42  0.32  0.0690324937864
-0.42  0.34  0.0553212553557
-0.42  0.36  0.0443333439988
-0.42  0.38  0.0355278523143
-0.42  0.4  0.028471307964
-0.42  0.42  0.0228163349141
-0.42  0.44  0.0182845529812
-0.42  0.46  0.0146528738723
-0.42  0.48  0.0117425191054
-0.42  0.5  0.00941021919272
-0.42  0.52  0.00754116084121
-0.42  0.54  0.00604333498172
-0.42  0.56  0.00484300739241
-0.42  0.58  0.00388108894738
-0.42  0.6  0.00311022680682
-0.42  0.62  0.00249247335504
-0.42  0.64  0.00199741813425
-0.42  0.66  0.00160069081379
-0.42  0.68  0.00128276149966
-0.42  0.7  0.00102797932671
-0.42  0.72  0.000823802005604
-0.42  0.74  0.000660178397372
-0.42  0.76  0.000529053720909
-0.42  0.78  0.000423973036261
-0.42  0.8  0.00033976348407
-0.42  0.82  0.000272279638643
-0.42  0.84  0.000218199439008
-0.42  0.86  0.000174860652161
-0.42  0.88  0.000140129817993
-0.42  0.9  0.000112297224378
-0.42  0.92  0.0000899927423279
-0.42  0.94  0.000072118377961
-0.42  0.96  0.0000577942210137
-0.42  0.98  0.0000463151290561
-0.4  -1  0.0000469275485208
-0.4  -0.98  0.0000585584271514
-0.4  -0.96  0.0000730719907291
-0.4  -0.94  0.0000911827056985
-0.4  -0.92  0.000113782117273
-0.4  -0.9  0.000141982737975
-0.4  -0.88  0.00017717281385
-0.4  -0.86  0.00022108466434
-0.4  -0.84  0.000275879960048
-0.4  -0.82  0.000344256136369
-0.4  -0.8  0.000429579181492
-0.4  -0.78  0.000536049335585
-0.4  -0.76  0.000668907858111
-0.4  -0.74  0.00083469504193
-0.4  -0.72  0.00104157217556
-0.4  -0.7  0.00129972330301
-0.4  -0.68  0.00162185655879
-0.4  -0.66  0.00202382975761
-0.4  -0.64  0.00252543103493
-0.4  -0.62  0.00315135296743
-0.4  -0.6  0.00393240812675
-0.4  -0.58  0.00490704590542
-0.4  -0.56  0.00612324528425
-0.4  -0.54  0.00764087671763
-0.4  -0.52  0.0095346494063
-0.4  -0.5  0.0118977890444
-0.4  -0.48  0.0148466270876
-0.4  -0.46  0.0185263274592
-0.4  -0.44  0.0231180326077
-0.4  -0.42  0.0288477806963
-0.4  -0.4  0.0359976328965
-0.4  -0.38  0.0449195585544
-0.4  -0.36  0.0560527617615
-0.4  -0.34  0.0699453022736
-0.4  -0.32  0.0872810751229
-0.4  -0.3  0.10891347706
-0.4  -0.28  0.135907417141
-0.4  -0.26  0.16959173954
-0.4  -0.24  0.211624639223
-0.4  -0.22  0.264075290741
-0.4  -0.2  0.239437722044
-0.4  -0.18  0.240258015754
-0.4  -0.16  0.24516089064
-0.4  -0.14  0.253421410836
-0.4  -0.12  0.263914081013
-0.4  -0.1  0.275360200928
-0.4  -0.08  0.286526387526
-0.4  -0.06  0.296343761023
-0.4  -0.04  0.303963924555
-0.4  -0.02  0.308778725269
-0.4  6.17561557e-16  0.310424030528
-0.4  0.02  0.308778725269
-0.4  0.04  0.303963924555
-0.4  0.06  0.296343761023
-0.4  0.08  0.286526387526
-0.4  0.1  0.275360200928
-0.4  0.12  0.263914081013
-0.4  0.14  0.253421410836
-0.4  0.16  0.24516089064
-0.4  0.18  0.240258015754
-0.4  0.2  0.329525708519
-0.4  0.22  0.264075290741
-0.4  0.24  0.211624639223
-0.4  0.26  0.16959173954
-0.4  0.28  0.135907417141
-0.4  0.3  0.10891347706
-0.4  0.32  0.0872810751229
-0.4  0.34  0.0699453022736
-0.4  0.36  0.0560527617615
-0.4  0.38  0.0449195585544
-0.4  0.4  0.0359976328965
-0.4  0.42  0.0288477806963
-0.4  0.44  0.0231180326077
-0.4  0.46  0.0185263274592
-0.4  0.48  0.0148466270876
-0.4  0.5  0.0118977890444
-0.4  0.52  0.0095346494063
-0.4  0.54  0.00764087671763
-0.4  0.56  0.00612324528425
-0.4  0.58  0.00490704590542
-0.4  0.6  0.00393240812675
-0.4  0.62  0.00315135296743
-0.4  0.64  0.00252543103493
-0.4  0.66  0.00202382975761
-0.4  0.68  0.00162185655879
-0.4  0.7  0.00129972330301
-0.4  0.72  0.00104157217556
-0.4  0.74  0.00083469504193
-0.4  0.76  0.000668907858111
-0.4  0.78  0.000536049335585
-0.4  0.8  0.000429579181492
-0.4  0.82  0.000344256136369
-0.4  0.84  0.000275879960048
-0.4  0.86  0.00022108466434
-0.4  0.88  0.00017717281385
-0.4  0.9  0.000141982737975
-0.4  0.92  0.000113782117273
-0.4  0.94  0.0000911827056985
-0.4  0.96  0.0000730719907291
-0.4  0.98  0.0000585584271514
-0.38  -1  0.0000593327382964
-0.38  -0.98  0.0000740382130059
-0.38  -0.96  0.0000923884038137
-0.38  -0.94  0.00011528664473
-0.38  -0.92  0.000143860158899
-0.38  -0.9  0.000179515548978
-0.38  -0.88  0.000224008040666
-0.38  -0.86  0.000279527888077
-0.38  -0.84  0.000348808194477
-0.38  -0.82  0.000435259456118
-0.38  -0.8  0.000543137452445
-0.38  -0.78  0.000677752747475
-0.38  -0.76  0.000845732115585
-0.38  -0.74  0.00105534476105
-0.38  -0.72  0.00131690939027
-0.38  -0.7  0.00164330217593
-0.38  -0.68  0.00205059061873
-0.38  -0.66  0.00255882451033
-0.38  -0.64  0.00319302293439
-0.38  -0.62  0.00398440589355
-0.38  -0.6  0.0049719311921
-0.38  -0.58  0.00620421223124
-0.38  -0.56  0.00774191112528
-0.38  -0.54  0.00966072494585
-0.38  -0.52  0.0120551120995
-0.38  -0.5  0.0150429422787
-0.38  -0.48  0.0187712988924
-0.38  -0.46  0.0234237196141
-0.38  -0.44  0.0292292314829
-0.38  -0.42  0.0364736253318
-0.38  -0.4  0.0455135245557
-0.38  -0.38  0.0567939407898
-0.38  -0.36  0.0708701807193
-0.38  -0.34  0.0884351824393
-0.38  -0.32  0.110353627064
-0.38  -0.3  0.137704504817
-0.38  -0.28  0.171834231021
-0.38  -0.26  0.214422926757
-0.38  -0.24  0.267567127026
-0.38  -0.22  0.333882987924
-0.38  -0.2  0.302732534473
-0.38  -0.18  0.303769670943
-0.38  -0.16  0.309968609556
-0.38  -0.14  0.320412779312
-0.38  -0.12  0.333679162775
-0.38  -0.1  0.348151038226
-0.38  -0.08  0.36226898063
-0.38  -0.06  0.374681554285
-0.38  -0.04  0.384316090562
-0.38  -0.02  0.390403672798
-0.38  6.17561557e-16  0.392483910726
-0.38  0.02  0.390403672798
-0.38  0.04  0.384316090562
-0.38  0.06  0.374681554285
-0.38  0.08  0.36226898063
-0.38  0.1  0.348151038226
-0.38  0.12  0.333679162775
-0.38  0.14  0.320412779312
-0.38  0.16  0.309968609556
-0.38  0.18  0.303769670943
-0.38  0.2  0.416635073465
-0.38  0.22  0.333882987924
-0.38  0.24  0.267567127026
-0.38  0.26  0.214422926757
-0.38  0.28  0.171834231021
-0.38  0.3  0.137704504817
-0.38  0.32  0.110353627064
-0.38  0.34  0.0884351824393
-0.38  0.36  0.0708701807193
-0.38  0.38  0.0567939407898
-0.38  0.4  0.0455135245557
-0.38  0.42  0.0364736253318
-0.38  0.44  0.0292292314829
-0.38  0.46  0.0234237196141
-0.38  0.48  0.0187712988924
-0.38  0.5  0.0150429422787
-0.38  0.52  0.0120551120995
-0.38  0.54  0.00966072494585
-0.38  0.56  0.00774191112527
-0.38  0.58  0.00620421223123
-0.38  0.6  0.0049719311921
-0.38  0.62  0.00398440589355
-0.38  0.64  0.00319302293438
-0.38  0.66  0.00255882451033
-0.38  0.68  0.00205059061873
-0.38  0.7  0.00164330217593
-0.38  0.72  0.00131690939027
-0.38  0.74  0.00105534476105
-0.38  0.76  0.000845732115585
-0.38  0.78  0.000677752747475
-0.38  0.8  0.000543137452445
-0.38  0.82  0.000435259456118
-0.38  0.84  0.000348808194477
-0.38  0.86  0.000279527888077
-0.38  0.88  0.000224008040666
-0.38  0.9  0.000179515548978
-0.38  0.92  0.000143860158899
-0.38  0.94  0.00011528664473
-0.38  0.96  0.0000923884038137
-0.38  0.98  0.0000740382130058
-0.36  -1  0.0000750172115253
-0.36  -0.98  0.0000936100447323
-0.36  -0.96  0.000116811066376
-0.36  -0.94  0.000145762404738
-0.36  -0.92  0.000181889261815
-0.36  -0.9  0.00022697007245
-0.36  -0.88  0.000283224052226
-0.36  -0.86  0.00035342044391
-0.36  -0.84  0.000441014840342
-0.36  -0.82  0.000550319294635
-0.36  -0.8  0.000686714591763
-0.36  -0.78  0.000856915131158
-0.36  -0.76  0.0010692994598
-0.36  -0.74  0.00133432272713
-0.36  -0.72  0.00166503136592
-0.36  -0.7  0.00207770533556
-0.36  -0.68  0.00259265954369
-0.36  -0.66  0.00323524389838
-0.36  -0.64  0.00403709122066
-0.36  -0.62  0.00503767444924
-0.36  -0.6  0.00628624979457
-0.36  -0.58  0.00784428149892
-0.36  -0.56  0.00978846756733
-0.36  -0.54  0.0122145154186
-0.36  -0.52  0.0152418533224
-0.36  -0.5  0.0190195095539
-0.36  -0.48  0.0237334486836
-0.36  -0.46  0.0296157261481
-0.36  -0.44  0.0369559117586
-0.36  -0.42  0.046115344499
-0.36  -0.4  0.0575449203406
-0.36  -0.38  0.0718072887232
-0.36  -0.36  0.08960455038
-0.36  -0.34  0.111812820001
-0.36  -0.32  0.139525355171
-0.36  -0.3  0.174106374701
-0.36  -0.28  0.217258215715
-0.36  -0.26  0.271105135449
-0.36  -0.24  0.338297883119
-0.36  -0.22  0.422144189683
-0.36  -0.2  0.382759185338
-0.36  -0.18  0.384070486453
-0.36  -0.16  0.391908100265
-0.36  -0.14  0.405113162332
-0.36  -0.12  0.421886483823
-0.36  -0.1  0.440183966344
-0.36  -0.08  0.458033954429
-0.36  -0.06  0.473727763449
-0.36  -0.04  0.485909167284
-0.36  -0.02  0.493605987916
-0.36  6.17561557e-16  0.496236131967
-0.36  0.02  0.493605987916
-0.36  0.04  0.485909167284
-0.36  0.06  0.473727763449
-0.36  0.08  0.458033954429
-0.36  0.1  0.440183966344
-0.36  0.12  0.421886483823
-0.36  0.14  0.405113162332
-0.36  0.16  0.391908100265
-0.36  0.18  0.384070486453
-0.36  0.2  0.52677159916
-0.36  0.22  0.422144189683
-0.36  0.24  0.338297883119
-0.36  0.26  0.271105135449
-0.36  0.28  0.217258215715
-0.36  0.3  0.174106374701
-0.36  0.32  0.139525355171
-0.36  0.34  0.111812820001
-0.36  0.36  0.0896045503799
-0.36  0.38  0.0718072887232
-0.36  0.4  0.0575449203406
-0.36  0.42  0.046115344499
-0.36  0.44  0.0369559117586
-0.36  0.46  0.0296157261481
-0.36  0.48  0.0237334486836
-0.36  0.5  0.0190195095539
-0.36  0.52  0.0152418533224
-0.36  0.54  0.0122145154186
-0.36  0.56  0.00978846756733
-0.36  0.58  0.00784428149892
-0.36  0.6  0.00628624979457
-0.36  0.62  0.00503767444924
-0.36  0.64  0.00403709122066
-0.36  0.66  0.00323524389838
-0.36  0.68  0.00259265954369
-0.36  0.7  0.00207770533556
-0.36  0.72  0.00166503136592
-0.36  0.74  0.00133432272713
-0.36  0.76  0.0010692994598
-0.36  0.78  0.000856915131157
-0.36  0.8  0.000686714591763
-0.36  0.82  0.000550319294634
-0.36  0.84  0.000441014840342
-0.36  0.86  0.00035342044391
-0.36  0.88  0.000283224052226
-0.36  0.9  0.00022697007245
-0.36  0.92  0.000181889261815
-0.36  0.94  0.000145762404738
-0.36  0.96  0.000116811066376
-0.36  0.98  0.0000936100447323
-0.34  -1  0.0000948478392641
-0.34  -0.98  0.000118355645268
-0.34  -0.96  0.000147689803747
-0.34  -0.94  0.000184294361976
-0.34  -0.92  0.000229971270829
-0.34  -0.9  0.000286969090316
-0.34  -0.88  0.000358093680571
-0.34  -0.86  0.00044684632733
-0.34  -0.84  0.000557596101473
-0.34  -0.82  0.000695794937457
-0.34  -0.8  0.00086824601842
-0.34  -0.78  0.00108343867988
-0.34  -0.76  0.00135196631847
-0.34  -0.74  0.00168704787842
-0.34  -0.72  0.00210517858707
-0.34  -0.7  0.00262694197369
-0.34  -0.68  0.00327802314517
-0.34  -0.66  0.0040904731996
-0.34  -0.64  0.00510428702168
-0.34  -0.62  0.00636937213089
-0.34  -0.6  0.00794800550389
-0.34  -0.58  0.00991789931436
-0.34  -0.56  0.012376026509
-0.34  -0.54  0.0154433945432
-0.34  -0.52  0.0192710022755
-0.34  -0.5  0.0240472732639
-0.34  -0.48  0.0300073313865
-0.34  -0.46  0.0374445754017
-0.34  -0.44  0.0467251222362
-0.34  -0.42  0.0583058300051
-0.34  -0.4  0.0727567879951
-0.34  -0.38  0.0907893807344
-0.34  -0.36  0.113291307674
-0.34  -0.34  0.141370282413
-0.34  -0.32  0.176408562667
-0.34  -0.3  0.220130995363
-0.34  -0.28  0.274689926538
-0.34  -0.26  0.342771155951
-0.34  -0.24  0.427726152293
-0.34  -0.22  0.533737037611
-0.34  -0.2  0.483940697736
-0.34  -0.18  0.485598638293
-0.34  -0.16  0.495508107332
-0.34  -0.14  0.512203897258
-0.34  -0.12  0.533411207798
-0.34  -0.1  0.55654558784
-0.34  -0.08  0.579114179317
-0.34  -0.06  0.598956610742
-0.34  -0.04  0.61435814073
-0.34  -0.02  0.624089598236
-0.34  6.17561557e-16  0.627415014833
-0.34  0.02  0.624089598236
-0.34  0.04  0.61435814073
-0.34  0.06  0.598956610742
-0.34  0.08  0.579114179317
-0.34  0.1  0.55654558784
-0.34  0.12  0.533411207798
-0.34  0.14  0.512203897258
-0.34  0.16  0.495508107332
-0.34  0.18  0.485598638293
-0.34  0.2  0.666022462714
-0.34  0.22  0.533737037611
-0.34  0.24  0.427726152293
-0.34  0.26  0.34277115595
-0.34  0.28  0.274689926538
-0.34  0.3  0.220130995363
-0.34  0.32  0.176408562667
-0.34  0.34  0.141370282413
-0.34  0.36  0.113291307674
-0.34  0.38  0.0907893807344
-0.34  0.4  0.0727567879951
-0.34  0.42  0.0583058300051
-0.34  0.44  0.0467251222361
-0.34  0.46  0.0374445754017
-0.34  0.48  0.0300073313864
-0.34  0.5  0.0240472732639
-0.34  0.52  0.0192710022755
-0.34  0.54  0.0154433945432
-0.34  0.56  0.012376026509
-0.34  0.58  0.00991789931435
-0.34  0.6  0.00794800550388
-0.34  0.62  0.00636937213089
-0.34  0.64  0.00510428702168
-0.34  0.66  0.0040904731996
-0.34  0.68  0.00327802314517
-0.34  0.7  0.00262694197369
-0.34  0.72  0.00210517858707
-0.34  0.74  0.00168704787842
-0.34  0.76  0.00135196631847
-0.34  0.78  0.00108343867988
-0.34  0.8  0.00086824601842
-0.34  0.82  0.000695794937456
-0.34  0.84  0.000557596101472
-0.34  0.86  0.00044684632733
-0.34  0.88  0.000358093680571
-0.34  0.9  0.000286969090316
-0.34  0.92  0.000229971270829
-0.34  0.94  0.000184294361976
-0.34  0.96  0.000147689803747
-0.34  0.98  0.000118355645268
-0.32  -1  0.000119920647944
-0.32  -0.98  0.000149642688526
-0.32  -0.96  0.000186731264492
-0.32  -0.94  0.000233012153699
-0.32  -0.92  0.000290763648601
-0.32  -0.9  0.000362828710887
-0.32  -0.88  0.00045275492338
-0.32  -0.86  0.000564969128665
-0.32  -0.84  0.000704995351485
-0.32  -0.82  0.000879726732663
-0.32  -0.8  0.00109776486119
-0.32  -0.78  0.00136984320894
-0.32  -0.76  0.00170935551266
-0.32  -0.74  0.00213301511413
-0.32  -0.72  0.0026616777162
-0.32  -0.7  0.00332136805688
-0.32  -0.68  0.00414456104213
-0.32  -0.66  0.00517178040428
-0.32  -0.64  0.00645359358401
-0.32  -0.62  0.00805310103908
-0.32  -0.6  0.010049042522
-0.32  -0.58  0.0125396732414
-0.32  -0.56  0.0156476007197
-0.32  -0.54  0.0195258204556
-0.32  -0.52  0.0243652475095
-0.32  -0.5  0.0304041147745
-0.32  -0.48  0.0379397005863
-0.32  -0.46  0.0473429629921
-0.32  -0.44  0.0590768010879
-0.32  -0.42  0.0737188423835
-0.32  -0.4  0.0919898779603
-0.32  -0.38  0.114789345214
-0.32  -0.36  0.143239604909
-0.32  -0.34  0.178741192193
-0.32  -0.32  0.223041761437
-0.32  -0.3  0.278322118894
-0.32  -0.28  0.347303578338
-0.32  -0.26  0.433381924533
-0.32  -0.24  0.540794579229
-0.32  -0.22  0.674829198837
-0.32  -0.2  0.611869310775
-0.32  -0.18  0.613965524113
-0.32  -0.16  0.626494538556
-0.32  -0.14  0.647603822239
-0.32  -0.12  0.67441723666
-0.32  -0.1  0.703667136984
-0.32  -0.08  0.732201683835
-0.32  -0.06  0.757289416478
-0.32  -0.04  0.77676230558
-0.32  -0.02  0.789066251548
-0.32  6.17561557e-16  0.793270734392
-0.32  0.02  0.789066251548
-0.32  0.04  0.77676230558
-0.32  0.06  0.757289416478
-0.32  0.08  0.732201683835
-0.32  0.1  0.703667136984
-0.32  0.12  0.67441723666
-0.32  0.14  0.647603822239
-0.32  0.16  0.626494538556
-0.32  0.18  0.613965524113
-0.32  0.2  0.842083972536
-0.32  0.22  0.674829198837
-0.32  0.24  0.540794579229
-0.32  0.26  0.433381924533
-0.32  0.28  0.347303578338
-0.32  0.3  0.278322118894
-0.32  0.32  0.223041761437
-0.32  0.34  0.178741192193
-0.32  0.36  0.143239604909
-0.32  0.38  0.114789345214
-0.32  0.4  0.0919898779602
-0.32  0.42  0.0737188423834
-0.32  0.44  0.0590768010879
-0.32  0.46  0.0473429629921
-0.32  0.48  0.0379397005862
-0.32  0.5  0.0304041147745
-0.32  0.52  0.0243652475095
-0.32  0.54  0.0195258204556
-0.32  0.56  0.0156476007197
-0.32  0.58  0.0125396732414
-0.32  0.6  0.010049042522
-0.32  0.62  0.00805310103908
-0.32  0.64  0.00645359358401
-0.32  0.66  0.00517178040428
-0.32  0.68  0.00414456104213
-0.32  0.7  0.00332136805688
-0.32  0.72  0.0026616777162
-0.32  0.74  0.00213301511413
-0.32  0.76  0.00170935551266
-0.32  0.78  0.00136984320894
-0.32  0.8  0.00109776486119
-0.32  0.82  0.000879726732663
-0.32  0.84  0.000704995351485
-0.32  0.86  0.000564969128665
-0.32  0.88  0.000452754923379
-0.32  0.9  0.000362828710887
-0.32  0.92  0.000290763648601
-0.32  0.94  0.000233012153699
-0.32  0.96  0.000186731264492
-0.32  0.98  0.000149642688526
-0.3  -1  0.000151621396068
-0.3  -0.98  0.000189200389881
-0.3  -0.96  0.000236093245803
-0.3  -0.94  0.00029460838188
-0.3  -0.92  0.000367626351947
-0.3  -0.9  0.000458741648095
-0.3  -0.88  0.000572439648523
-0.3  -0.86  0.000714317421499
-0.3  -0.84  0.00089135925503
-0.3  -0.82  0.0011122804759
-0.3  -0.8  0.00138795648341
-0.3  -0.78  0.0017319581181
-0.3  -0.76  0.00216121972029
-0.3  -0.74  0.00269687276532
-0.3  -0.72  0.00336528611322
-0.3  -0.7  0.0041993640818
-0.3  -0.68  0.00524016624387
-0.3  -0.66  0.00653892868743
-0.3  -0.64  0.00815958624009
-0.3  -0.62  0.0101819198208
-0.3  -0.6  0.0127054838551
-0.3  -0.58  0.0158545070903
-0.3  -0.56  0.0197840080663
-0.3  -0.54  0.0246874262908
-0.3  -0.52  0.0308061447822
-0.3  -0.5  0.0384413727525
-0.3  -0.48  0.0479689733831
-0.3  -0.46  0.05985796663
-0.3  -0.44  0.074693617903
-0.3  -0.42  0.0932062492187
-0.3  -0.4  0.116307191127
-0.3  -0.38  0.145133645236
-0.3  -0.36  0.181104665802
-0.3  -0.34  0.225991016225
-0.3  -0.32  0.2820023393
-0.3  -0.3  0.351895932411
-0.3  -0.28  0.43911248238
-0.3  -0.26  0.547945441883
-0.3  -0.24  0.683752385388
-0.3  -0.22  0.853218749145
-0.3  -0.2  0.773615559136
-0.3  -0.18  0.776265901661
-0.3  -0.16  0.792106932323
-0.3  -0.14  0.818796406713
-0.3  -0.12  0.852697885712
-0.3  -0.1  0.889679930073
-0.3  -0.08  0.925757518911
-0.3  -0.06  0.957477136114
-0.3  -0.04  0.982097638769
-0.3  -0.02  0.997654104622
-0.3  6.17561557e-16  1.00297003286
-0.3  0.02  0.997654104622
-0.3  0.04  0.982097638769
-0.3  0.06  0.957477136114
-0.3  0.08  0.925757518911
-0.3  0.1  0.889679930073
-0.3  0.12  0.852697885712
-0.3  0.14  0.818796406713
-0.3  0.16  0.792106932323
-0.3  0.18  0.776265901661
-0.3  0.2  1.0646869385
-0.3  0.22  0.853218749145
-0.3  0.24  0.683752385388
-0.3  0.26  0.547945441883
-0.3  0.28  0.43911248238
-0.3  0.3  0.35189593241
-0.3  0.32  0.2820023393
-0.3  0.34  0.225991016225
-0.3  0.36  0.181104665802
-0.3  0.38  0.145133645236
-0.3  0.4  0.116307191127
-0.3  0.42  0.0932062492187
-0.3  0.44  0.074693617903
-0.3  0.46  0.05985796663
-0.3  0.48  0.0479689733831
-0.3  0.5  0.0384413727525
-0.3  0.52  0.0308061447822
-0.3  0.54  0.0246874262908
-0.3  0.56  0.0197840080663
-0.3  0.58  0.0158545070903
-0.3  0.6  0.0127054838551
-0.3  0.62  0.0101819198208
-0.3  0.64  0.00815958624009
-0.3  0.66  0.00653892868743
-0.3  0.68  0.00524016624387
-0.3  0.7  0.0041993640818
-0.3  0.72  0.00336528611322
-0.3  0.74  0.00269687276532
-0.3  0.76  0.00216121972029
-0.3  0.78  0.0017319581181
-0.3  0.8  0.00138795648341
-0.3  0.82  0.0011122804759
-0.3  0.84  0.00089135925503
-0.3  0.86  0.000714317421499
-0.3  0.88  0.000572439648523
-0.3  0.9  0.000458741648095
-0.3  0.92  0.000367626351947
-0.3  0.94  0.00029460838188
-0.3  0.96  0.000236093245803
-0.3  0.98  0.000189200389881
-0.28  -1  0.000191702164222
-0.28  -0.98  0.000239215078823
-0.28  -0.96  0.000298503953612
-0.28  -0.94  0.000372487431647
-0.28  -0.92  0.000464807534561
-0.28  -0.9  0.00058000895018
-0.28  -0.88  0.00072376275614
-0.28  -0.86  0.000903145592862
-0.28  -0.84  0.00112698802886
-0.28  -0.82  0.00140630926756
-0.28  -0.8  0.00175485959511
-0.28  -0.78  0.00218979727262
-0.28  -0.76  0.0027325331944
-0.28  -0.74  0.00340978489282
-0.28  -0.72  0.00425489177556
-0.28  -0.7  0.00530945634133
-0.28  -0.68  0.00662539216681
-0.28  -0.66  0.0082674794823
-0.28  -0.64  0.0103165541404
-0.28  -0.62  0.0128734869629
-0.28  -0.6  0.0160641493593
-0.28  -0.58  0.0200456096612
-0.28  -0.56  0.025013865204
-0.28  -0.54  0.0312134907852
-0.28  -0.52  0.0389496784703
-0.28  -0.5  0.0486032614354
-0.28  -0.48  0.0606494614315
-0.28  -0.46  0.0756812827638
-0.28  -0.44  0.0944387044102
-0.28  -0.42  0.117845107337
-0.28  -0.4  0.147052730233
-0.28  -0.38  0.183499391343
-0.28  -0.36  0.22897926866
-0.28  -0.34  0.285731222825
-0.28  -0.32  0.356549010637
-0.28  -0.3  0.444918814714
-0.28  -0.28  0.555190859547
-0.28  -0.26  0.692793562177
-0.28  -0.24  0.864500759586
-0.28  -0.22  1.07876516776
-0.28  -0.2  0.978119057123
-0.28  -0.18  0.981470011613
-0.28  -0.16  1.00149858238
-0.28  -0.14  1.03524335809
-0.28  -0.12  1.07810661527
-0.28  -0.1  1.12486477821
-0.28  -0.08  1.17047939487
-0.28  -0.06  1.2105840201
-0.28  -0.04  1.24171289614
-0.28  -0.02  1.26138167805
-0.28  6.17561557e-16  1.26810285972
-0.28  0.02  1.26138167805
-0.28  0.04  1.24171289614
-0.28  0.06  1.2105840201
-0.28  0.08  1.17047939487
-0.28  0.1  1.12486477821
-0.28  0.12  1.07810661527
-0.28  0.14  1.03524335809
-0.28  0.16  1.00149858238
-0.28  0.18  0.981470011613
-0.28  0.2  1.34613448776
-0.28  0.22  1.07876516776
-0.28  0.24  0.864500759586
-0.28  0.26  0.692793562177
-0.28  0.28  0.555190859547
-0.28  0.3  0.444918814713
-0.28  0.32  0.356549010636
-0.28  0.34  0.285731222825
-0.28  0.36  0.22897926866
-0.28  0.38  0.183499391343
-0.28  0.4  0.147052730233
-0.28  0.42  0.117845107337
-0.28  0.44  0.0944387044102
-0.28  0.46  0.0756812827637
-0.28  0.48  0.0606494614315
-0.28  0.5  0.0486032614354
-0.28  0.52  0.0389496784703
-0.28  0.54  0.0312134907852
-0.28  0.56  0.025013865204
-0.28  0.58  0.0200456096612
-0.28  0.6  0.0160641493593
-0.28  0.62  0.0128734869629
-0.28  0.64  0.0103165541404
-0.28  0.66  0.0082674794823
-0.28  0.68  0.00662539216681
-0.28  0.7  0.00530945634133
-0.28  0.72  0.00425489177556
-0.28  0.74  0.00340978489282
-0.28  0.76  0.0027325331944
-0.28  0.78  0.00218979727262
-0.28  0.8  0.00175485959511
-0.28  0.82  0.00140630926756
-0.28  0.84  0.00112698802886
-0.28  0.86  0.000903145592862
-0.28  0.88  0.00072376275614
-0.28  0.9  0.00058000895018
-0.28  0.92  0.000464807534561
-0.28  0.94  0.000372487431647
-0.28  0.96  0.000298503953612
-0.28  0.98  0.000239215078823
-0.26  -1  0.000242378191471
-0.26  -0.98  0.000302451036028
-0.26  -0.96  0.000377412788828
-0.26  -0.94  0.000470953629526
-0.26  -0.92  0.000587678339816
-0.26  -0.9  0.000733332985322
-0.26  -0.88  0.000915087780043
-0.26  -0.86  0.00114189005806
-0.26  -0.84  0.0014249047284
-0.26  -0.82  0.00177806389564
-0.26  -0.8  0.00221875270253
-0.26  -0.78  0.00276866515712
-0.26  -0.76  0.00345487207451
-0.26  -0.74  0.00431115370544
-0.26  -0.72  0.00537966265353
-0.26  -0.7  0.00671299894254
-0.26  -0.68  0.00837679938406
-0.26  -0.66  0.0104529687136
-0.26  -0.64  0.0130437115559
-0.26  -0.62  0.0162765637032
-0.26  -0.6  0.020310670383
-0.26  -0.58  0.0253446205803
-0.26  -0.56  0.031626223076
-0.26  -0.54  0.0394647054545
-0.26  -0.52  0.0492459366034
-0.26  -0.5  0.061451422075
-0.26  -0.48  0.0766820074
-0.26  -0.46  0.0956874562107
-0.26  -0.44  0.11940335923
-0.26  -0.42  0.148997191064
-0.26  -0.4  0.185925782056
-0.26  -0.38  0.232007034403
-0.26  -0.36  0.289509412934
-0.26  -0.34  0.361263615965
-0.26  -0.32  0.450801923492
-0.26  -0.3  0.562532082511
-0.26  -0.28  0.701954289376
-0.26  -0.26  0.875931950715
-0.26  -0.24  1.09302955178
-0.26  -0.22  1.36393426462
-0.26  -0.2  1.23668258557
-0.26  -0.18  1.24091935719
-0.26  -0.16  1.26624243469
-0.26  -0.14  1.30890756442
-0.26  -0.12  1.36310162529
-0.26  -0.1  1.42222020131
-0.26  -0.08  1.47989293723
-0.26  -0.06  1.53059912812
-0.26  -0.04  1.56995685111
-0.26  -0.02  1.59482503038
-0.26  6.17561557e-16  1.60332294101
-0.26  0.02  1.59482503038
-0.26  0.04  1.56995685111
-0.26  0.06  1.53059912812
-0.26  0.08  1.47989293723
-0.26  0.1  1.42222020131
-0.26  0.12  1.36310162529
-0.26  0.14  1.30890756442
-0.26  0.16  1.26624243469
-0.26  0.18  1.24091935719
-0.26  0.2  1.70198205088
-0.26  0.22  1.36393426462
-0.26  0.24  1.09302955177
-0.26  0.26  0.875931950715
-0.26  0.28  0.701954289376
-0.26  0.3  0.562532082511
-0.26  0.32  0.450801923492
-0.26  0.34  0.361263615965
-0.26  0.36  0.289509412934
-0.26  0.38  0.232007034403
-0.26  0.4  0.185925782056
-0.26  0.42  0.148997191064
-0.26  0.44  0.11940335923
-0.26  0.46  0.0956874562107
-0.26  0.48  0.0766820074
-0.26  0.5  0.061451422075
-0.26  0.52  0.0492459366034
-0.26  0.54  0.0394647054545
-0.26  0.56  0.031626223076
-0.26  0.58  0.0253446205802
-0.26  0.6  0.020310670383
-0.26  0.62  0.0162765637032
-0.26  0.64  0.0130437115559
-0.26  0.66  0.0104529687136
-0.26  0.68  0.00837679938406
-0.26  0.7  0.00671299894254
-0.26  0.72  0.00537966265353
-0.26  0.74  0.00431115370544
-0.26  0.76  0.00345487207451
-0.26  0.78  0.00276866515712
-0.26  0.8  0.00221875270253
-0.26  0.82  0.00177806389564
-0.26  0.84  0.0014249047284
-0.26  0.86  0.00114189005806
-0.26  0.88  0.000915087780043
-0.26  0.9  0.000733332985322
-0.26  0.92  0.000587678339816
-0.26  0.94  0.000470953629526
-0.26  0.96  0.000377412788828
-0.26  0.98  0.000302451036028
-0.24  -1  0.000306450310246
-0.24  -0.98  0.000382403273424
-0.24  -0.96  0.000477180993577
-0.24  -0.94  0.000595449140882
-0.24  -0.92  0.000743029760511
-0.24  -0.9  0.00092718787735
-0.24  -0.88  0.00115698913502
-0.24  -0.86  0.00144374607482
-0.24  -0.84  0.00180157502389
-0.24  -0.82  0.00224809100667
-0.24  -0.8  0.00280527488849
-0.24  -0.78  0.00350055543866
-0.24  -0.76  0.00436815958016
-0.24  -0.74  0.00545079729548
-0.24  -0.72  0.00680176413229
-0.24  -0.7  0.00848756480994
-0.24  -0.68  0.0105911870806
-0.24  -0.66  0.0132161870086
-0.24  -0.64  0.0164917867768
-0.24  -0.62  0.0205792359713
-0.24  -0.6  0.0256797494957
-0.24  -0.58  0.0320444128771
-0.24  -0.56  0.0399865425794
-0.24  -0.54  0.0498971097891
-0.24  -0.52  0.0622639869491
-0.24  -0.5  0.0776959644995
-0.24  -0.48  0.0969527201083
-0.24  -0.46  0.120982215704
-0.24  -0.44  0.15096736327
-0.24  -0.42  0.188384256646
-0.24  -0.4  0.235074835933
-0.24  -0.38  0.293337561604
-0.24  -0.36  0.366040561961
-0.24  -0.34  0.456762823921
-0.24  -0.32  0.569970377596
-0.24  -0.3  0.711236147786
-0.24  -0.28  0.88751429513
-0.24  -0.26  1.10748255205
-0.24  -0.24  1.38196940582
-0.24  -0.22  1.7244871579
-0.24  -0.2  1.56359678948
-0.24  -0.18  1.56895354195
-0.24  -0.16  1.60097071689
-0.24  -0.14  1.65491427577
-0.24  -0.12  1.72343441228
-0.24  -0.1  1.79818084822
-0.24  -0.08  1.87109923955
-0.24  -0.06  1.93520949565
-0.24  -0.04  1.98497134242
-0.24  -0.02  2.01641336782
-0.24  6.17561557e-16  2.02715768162
-0.24  0.02  2.01641336782
-0.24  0.04  1.98497134242
-0.24  0.06  1.93520949565
-0.24  0.08  1.87109923955
-0.24  0.1  1.79818084822
-0.24  0.12  1.72343441228
-0.24  0.14  1.65491427577
-0.24  0.16  1.60097071689
-0.24  0.18  1.56895354195
-0.24  0.2  2.1518971008
-0.24  0.22  1.7244871579
-0.24  0.24  1.38196940582
-0.24  0.26  1.10748255205
-0.24  0.28  0.88751429513
-0.24  0.3  0.711236147786
-0.24  0.32  0.569970377596
-0.24  0.34  0.456762823921
-0.24  0.36  0.36604056196
-0.24  0.38  0.293337561604
-0.24  0.4  0.235074835933
-0.24  0.42  0.188384256646
-0.24  0.44  0.15096736327
-0.24  0.46  0.120982215704
-0.24  0.48  0.0969527201083
-0.24  0.5  0.0776959644995
-0.24  0.52  0.0622639869491
-0.24  0.54  0.0498971097891
-0.24  0.56  0.0399865425794
-0.24  0.58  0.0320444128771
-0.24  0.6  0.0256797494957
-0.24  0.62  0.0205792359713
-0.24  0.64  0.0164917867768
-0.24  0.66  0.0132161870086
-0.24  0.68  0.0105911870806
-0.24  0.7  0.00848756480994
-0.24  0.72  0.00680176413228
-0.24  0.74  0.00545079729548
-0.24  0.76  0.00436815958016
-0.24  0.78  0.00350055543866
-0.24  0.8  0.00280527488849
-0.24  0.82  0.00224809100667
-0.24  0.84  0.00180157502389
-0.24  0.86  0.00144374607482
-0.24  0.88  0.00115698913502
-0.24  0.9  0.00092718787735
-0.24  0.92  0.000743029760511
-0.24  0.94  0.000595449140882
-0.24  0.96  0.000477180993577
-0.24  0.98  0.000382403273424
-0.22  -1  0.000387459746606
-0.22  -0.98  0.000483490701324
-0.22  -0.96  0.000603322694331
-0.22  -0.94  0.000752854755009
-0.22  -0.92  0.00093944797281
-0.22  -0.9  0.00117228786528
-0.22  -0.88  0.00146283655813
-0.22  -0.86  0.00182539703701
-0.22  -0.84  0.00227781724772
-0.22  -0.82  0.00284236870601
-0.22  -0.8  0.00354684286852
-0.22  -0.78  0.0044259192368
-0.22  -0.76  0.00552287254238
-0.22  -0.74  0.00689170305362
-0.22  -0.72  0.00859979487392
-0.22  -0.7  0.0107312330926
-0.22  -0.68  0.0133909430837
-0.22  -0.66  0.0167098557196
-0.22  -0.64  0.0208513527706
-0.22  -0.62  0.026019309781
-0.22  -0.6  0.0324681323523
-0.22  -0.58  0.0405152798948
-0.22  -0.56  0.0505568933606
-0.22  -0.54  0.0630872962723
-0.22  -0.52  0.0787233290336
-0.22  -0.5  0.0982347144405
-0.22  -0.48  0.12258194921
-0.22  -0.46  0.15296358683
-0.22  -0.44  0.190875239354
-0.22  -0.42  0.23818320264
-0.22  -0.4  0.29721632943
-0.22  -0.38  0.370880672947
-0.22  -0.36  0.46280254463
-0.22  -0.34  0.577507028376
-0.22  -0.32  0.72064073911
-0.22  -0.3  0.899249791513
-0.22  -0.28  1.12212666263
-0.22  -0.26  1.40024302355
-0.22  -0.24  1.7472898473
-0.22  -0.22  2.18035138124
-0.22  -0.2  1.97693001308
-0.22  -0.18  1.98370281079
-0.22  -0.16  2.02418365245
-0.22  -0.14  2.09238706735
-0.22  -0.12  2.17902034473
-0.22  -0.1  2.2735258295
-0.22  -0.08  2.36572003026
-0.22  -0.06  2.44677768547
-0.22  -0.04  2.50969396224
-0.22  -0.02  2.54944761492
-0.22  6.17561557e-16  2.56303216341
-0.22  0.02  2.54944761492
-0.22  0.04  2.50969396224
-0.22  0.06  2.44677768547
-0.22  0.08  2.36572003026
-0.22  0.1  2.2735258295
-0.22  0.12  2.17902034473
-0.22  0.14  2.09238706735
-0.22  0.16  2.02418365245
-0.22  0.18  1.98370281079
-0.22  0.2  2.72074616185
-0.22  0.22  2.18035138124
-0.22  0.24  1.7472898473
-0.22  0.26  1.40024302355
-0.22  0.28  1.12212666263
-0.22  0.3  0.899249791513
-0.22  0.32  0.72064073911
-0.22  0.34  0.577507028376
-0.22  0.36  0.46280254463
-0.22  0.38  0.370880672947
-0.22  0.4  0.29721632943
-0.22  0.42  0.23818320264
-0.22  0.44  0.190875239354
-0.22  0.46  0.15296358683
-0.22  0.48  0.12258194921
-0.22  0.5  0.0982347144405
-0.22  0.52  0.0787233290336
-0.22  0.54  0.0630872962723
-0.22  0.56  0.0505568933606
-0.22  0.58  0.0405152798948
-0.22  0.6  0.0324681323523
-0.22  0.62  0.026019309781
-0.22  0.64  0.0208513527706
-0.22  0.66  0.0167098557196
-0.22  0.68  0.0133909430837
-0.22  0.7  0.0107312330926
-0.22  0.72  0.00859979487392
-0.22  0.74  0.00689170305362
-0.22  0.76  0.00552287254238
-0.22  0.78  0.0044259192368
-0.22  0.8  0.00354684286852
-0.22  0.82  0.00284236870601
-0.22  0.84  0.00227781724772
-0.22  0.86  0.00182539703701
-0.22  0.88  0.00146283655813
-0.22  0.9  0.00117228786528
-0.22  0.92  0.00093944797281
-0.22  0.94  0.000752854755009
-0.22  0.96  0.000603322694331
-0.22  0.98  0.000483490701324
-0.2  -1  0.00048988384159
-0.2  -0.98  0.000611300358844
-0.2  -0.96  0.000762809664246
-0.2  -0.94  0.000951870182061
-0.2  -0.92  0.00118778888885
-0.2  -0.9  0.00148217947264
-0.2  -0.88  0.00184953404578
-0.2  -0.86  0.00230793655534
-0.2  -0.84  0.00287995301068
-0.2  -0.82  0.00359374235159
-0.2  -0.8  0.00448444264254
-0.2  -0.78  0.00559590083172
-0.2  -0.76  0.00698283122665
-0.2  -0.74  0.00871350894274
-0.2  -0.72  0.0108731309165
-0.2  -0.7  0.0135680099377
-0.2  -0.68  0.0169308081622
-0.2  -0.66  0.0211270677381
-0.2  -0.64  0.0263633600318
-0.2  -0.62  0.03289745462
-0.2  -0.6  0.0410510086411
-0.2  -0.58  0.0512254011722
-0.2  -0.56  0.0639214921171
-0.2  -0.54  0.0797642782873
-0.2  -0.52  0.099533660432
-0.2  -0.5  0.124202835802
-0.2  -0.48  0.154986206217
-0.2  -0.46  0.193399160032
-0.2  -0.44  0.241332670912
-0.2  -0.42  0.301146385744
-0.2  -0.4  0.375784784148
-0.2  -0.38  0.468922127851
-0.2  -0.36  0.585143335397
-0.2  -0.34  0.73016968623
-0.2  -0.32  0.911140464974
-0.2  -0.3  1.13696441056
-0.2  -0.28  1.41875827117
-0.2  -0.26  1.77039405395
-0.2  -0.24  2.20918190925
-0.2  -0.22  2.75672226603
-0.2  -0.2  2.49952692595
-0.2  -0.18  2.50809009719
-0.2  -0.16  2.55927195646
-0.2  -0.14  2.64550478759
-0.2  -0.12  2.75503937307
-0.2  -0.1  2.87452716589
-0.2  -0.08  2.99109269209
-0.2  -0.06  3.09357775246
-0.2  -0.04  3.17312580264
-0.2  -0.02  3.22338824218
-0.2  6.17561557e-16  3.2405638349
-0.2  0.02  3.22338824218
-0.2  0.04  3.17312580264
-0.2  0.06  3.09357775246
-0.2  0.08  2.99109269209
-0.2  0.1  2.87452716589
-0.2  0.12  2.75503937307
-0.2  0.14  2.64550478759
-0.2  0.16  2.55927195646
-0.2  0.18  2.50809009719
-0.2  0.2  3.43996916694
-0.2  0.22  2.75672226602
-0.2  0.24  2.20918190925
-0.2  0.26  1.77039405395
-0.2  0.28  1.41875827117
-0.2  0.3  1.13696441056
-0.2  0.32  0.911140464974
-0.2  0.34  0.73016968623
-0.2  0.36  0.585143335397
-0.2  0.38  0.46892212785
-0.2  0.4  0.375784784148
-0.2  0.42  0.301146385744
-0.2  0.44  0.241332670912
-0.2  0.46  0.193399160032
-0.2  0.48  0.154986206217
-0.2  0.5  0.124202835802
-0.2  0.52  0.0995336604319
-0.2  0.54  0.0797642782872
-0.2  0.56  0.0639214921171
-0.2  0.58  0.0512254011722
-0.2  0.6  0.0410510086411
-0.2  0.62  0.03289745462
-0.2  0.64  0.0263633600318
-0.2  0.66  0.0211270677381
-0.2  0.68  0.0169308081622
-0.2  0.7  0.0135680099377
-0.2  0.72  0.0108731309165
-0.2  0.74  0.00871350894274
-0.2  0.76  0.00698283122665
-0.2  0.78  0.00559590083172
-0.2  0.8  0.00448444264254
-0.2  0.82  0.00359374235159
-0.2  0.84  0.00287995301068
-0.2  0.86  0.00230793655534
-0.2  0.88  0.00184953404578
-0.2  0.9  0.00148217947264
-0.2  0.92  0.00118778888885
-0.2  0.94  0.000951870182061
-0.2  0.96  0.000762809664245
-0.2  0.98  0.000611300358844
-0.18  -1  0.00061938351107
-0.18  -0.98  0.000772896206068
-0.18  -0.96  0.000964456648712
-0.18  -0.94  0.00120349488061
-0.18  -0.92  0.00150177815622
-0.18  -0.9  0.00187399021535
-0.18  -0.88  0.002338454127
-0.18  -0.86  0.00291803428816
-0.18  -0.84  0.00364126198096
-0.18  -0.82  0.00454373989634
-0.18  -0.8  0.00566989476549
-0.18  -0.78  0.00707516437672
-0.18  -0.76  0.00882872663922
-0.18  -0.74  0.0110169050385
-0.18  -0.72  0.0137474181257
-0.18  -0.7  0.0171546822328
-0.18  -0.68  0.0214064284519
-0.18  -0.66  0.0267119596183
