0.1  -0.74  1.17211488068
0.1  -0.72  1.37650872343
0.1  -0.7  1.61654484294
0.1  -0.68  1.89843855309
0.1  -0.66  2.22948899662
0.1  -0.64  2.61826814354
0.1  -0.62  3.07484274732
0.1  -0.6  3.61103500574
0.1  -0.58  4.24072867599
0.1  -0.56  4.98022857013
0.1  -0.54  5.84868273963
0.1  -0.52  6.86857828053
0.1  -0.5  8.0663235973
0.1  -0.48  9.47293220211
0.1  -0.46  11.1248257553
0.1  -0.44  13.0647771403
0.1  -0.42  15.3430179924
0.1  -0.4  18.0185393586
0.1  -0.38  21.1606191676
0.1  -0.36  24.8506160597
0.1  -0.34  29.184076026
0.1  -0.32  34.2732064044
0.1  -0.3  40.2497812915
0.1  -0.28  47.2685536013
0.1  -0.26  55.5112621203
0.1  -0.24  65.1913373144
0.1  -0.22  76.5594277362
0.1  -0.2  66.8082839255
0.1  -0.18  66.8406542588
0.1  -0.16  66.4460962539
0.1  -0.14  65.6610060499
0.1  -0.12  64.5596005787
0.1  -0.1  63.2502551897
0.1  -0.08  61.8687916305
0.1  -0.06  60.5675380485
0.1  -0.04  59.4993318482
0.1  -0.02  58.7970845366
0.1  6.17561557e-16  58.5521243413
0.1  0.02  58.7970845366
0.1  0.04  59.4993318482
0.1  0.06  60.5675380485
0.1  0.08  61.8687916305
0.1  0.1  63.2502551897
0.1  0.12  64.5596005787
0.1  0.14  65.6610060499
0.1  0.16  66.4460962539
0.1  0.18  66.8406542588
0.1  0.2  89.9098901289
0.1  0.22  76.5594277362
0.1  0.24  65.1913373145
0.1  0.26  55.5112621203
0.1  0.28  47.2685536013
0.1  0.3  40.2497812915
0.1  0.32  34.2732064044
0.1  0.34  29.184076026
0.1  0.36  24.8506160597
0.1  0.38  21.1606191676
0.1  0.4  18.0185393586
0.1  0.42  15.3430179924
0.1  0.44  13.0647771403
0.1  0.46  11.1248257553
0.1  0.48  9.47293220211
0.1  0.5  8.0663235973
0.1  0.52  6.86857828053
0.1  0.54  5.84868273963
0.1  0.56  4.98022857013
0.1  0.58  4.24072867599
0.1  0.6  3.61103500574
0.1  0.62  3.07484274732
0.1  0.64  2.61826814354
0.1  0.66  2.22948899662
0.1  0.68  1.89843855309
0.1  0.7  1.61654484294
0.1  0.72  1.37650872344
0.1  0.74  1.17211488068
0.1  0.76  0.998070894949
0.1  0.78  0.849870202799
0.1  0.8  0.723675407489
0.1  0.82  0.616218916348
0.1  0.84  0.52471833219
0.1  0.86  0.446804408031
0.1  0.88  0.380459699593
0.1  0.9  0.323966327128
0.1  0.92  0.275861493937
0.1  0.94  0.234899609821
0.1  0.96  0.200020038703
0.1  0.98  0.170319635325
0.12  -1  0.149945860526
0.12  -0.98  0.176093477235
0.12  -0.96  0.206800725381
0.12  -0.94  0.242862715245
0.12  -0.92  0.285213208741
0.12  -0.9  0.334948797548
0.12  -0.88  0.393357297421
0.12  -0.86  0.461951093918
0.12  -0.84  0.542506302975
0.12  -0.82  0.637108760306
0.12  -0.8  0.748208030455
0.12  -0.78  0.878680833973
0.12  -0.76  1.03190553505
0.12  -0.74  1.2118496183
0.12  -0.72  1.42317241985
0.12  -0.7  1.67134577265
0.12  -0.68  1.96279568996
0.12  -0.66  2.30506875571
0.12  -0.64  2.70702753003
0.12  -0.62  3.1790800297
0.12  -0.6  3.73344922543
0.12  -0.58  4.38448953428
0.12  -0.56  5.14905850207
0.12  -0.54  6.0469532999
0.12  -0.52  7.1014233372
0.12  -0.5  8.33977226432
0.12  -0.48  9.79406495263
0.12  -0.46  11.5019577581
0.12  -0.44  13.5076735665
0.12  -0.42  15.8631468674
0.12  -0.4  18.6293685065
0.12  -0.38  21.8779649367
0.12  -0.36  25.6930528593
0.12  -0.34  30.1734172781
0.12  -0.32  35.4350693638
0.12  -0.3  41.6142503597
0.12  -0.28  48.8709593092
0.12  -0.26  57.3930959506
0.12  -0.24  67.4013260503
0.12  -0.22  79.154795156
0.12  -0.2  69.073087211
0.12  -0.18  69.1065548999
0.12  -0.16  68.698621364
0.12  -0.14  67.8869165731
0.12  -0.12  66.748173416
0.12  -0.1  65.3944411701
0.12  -0.08  63.9661459453
0.12  -0.06  62.620779819
0.12  -0.04  61.5163613891
0.12  -0.02  60.7903078678
0.12  6.17561557e-16  60.5370435129
0.12  0.02  60.7903078678
0.12  0.04  61.5163613891
0.12  0.06  62.620779819
0.12  0.08  63.9661459453
0.12  0.1  65.3944411701
0.12  0.12  66.748173416
0.12  0.14  67.8869165731
0.12  0.16  68.698621364
0.12  0.18  69.1065548999
0.12  0.2  92.9578387155
0.12  0.22  79.1547951561
0.12  0.24  67.4013260503
0.12  0.26  57.3930959506
0.12  0.28  48.8709593092
0.12  0.3  41.6142503597
0.12  0.32  35.4350693638
0.12  0.34  30.1734172781
0.12  0.36  25.6930528593
0.12  0.38  21.8779649367
0.12  0.4  18.6293685065
0.12  0.42  15.8631468674
0.12  0.44  13.5076735665
0.12  0.46  11.5019577581
0.12  0.48  9.79406495263
0.12  0.5  8.33977226432
0.12  0.52  7.1014233372
0.12  0.54  6.0469532999
0.12  0.56  5.14905850207
0.12  0.58  4.38448953428
0.12  0.6  3.73344922543
0.12  0.62  3.1790800297
0.12  0.64  2.70702753003
0.12  0.66  2.30506875571
0.12  0.68  1.96279568996
0.12  0.7  1.67134577265
0.12  0.72  1.42317241985
0.12  0.74  1.2118496183
0.12  0.76  1.03190553505
0.12  0.78  0.878680833973
0.12  0.8  0.748208030455
0.12  0.82  0.637108760306
0.12  0.84  0.542506302976
0.12  0.86  0.461951093918
0.12  0.88  0.393357297421
0.12  0.9  0.334948797548
0.12  0.92  0.285213208741
0.12  0.94  0.242862715245
0.12  0.96  0.206800725381
0.12  0.98  0.176093477235
0.14  -1  0.152254206202
0.14  -0.98  0.178804353115
0.14  -0.96  0.209984324838
0.14  -0.94  0.246601471996
0.14  -0.92  0.289603931331
0.14  -0.9  0.340105176028
0.14  -0.88  0.399412847159
0.14  -0.86  0.469062612743
0.14  -0.84  0.550857931183
0.14  -0.82  0.646916748646
0.14  -0.8  0.759726339566
0.14  -0.78  0.892207710248
0.14  -0.76  1.0477912332
0.14  -0.74  1.23050547059
0.14  -0.72  1.44508148683
0.14  -0.7  1.69707535113
0.14  -0.68  1.99301200221
0.14  -0.66  2.34055420009
0.14  -0.64  2.74870093983
0.14  -0.62  3.22802046468
0.14  -0.6  3.79092391225
0.14  -0.58  4.45198667905
0.14  -0.56  5.22832582485
0.14  -0.54  6.14004328885
0.14  -0.52  7.21074639415
0.14  -0.5  8.4681591179
0.14  -0.48  9.94483995502
0.14  -0.46  11.6790249633
0.14  -0.44  13.7156178189
0.14  -0.42  16.1073525183
0.14  -0.4  18.9161588325
0.14  -0.38  22.2147658699
0.14  -0.36  26.0885852684
0.14  -0.34  30.6379227805
0.14  -0.32  35.9805755141
0.14  -0.3  42.2548820818
0.14  -0.28  49.6233046369
0.14  -0.26  58.2766355453
0.14  -0.24  68.4389376187
0.14  -0.22  80.3733458279
0.14  -0.2  70.1364347526
0.14  -0.18  70.1704176607
0.14  -0.16  69.7562041807
0.14  -0.14  68.9320035782
0.14  -0.12  67.7757300081
0.14  -0.1  66.4011576939
0.14  -0.08  64.9508745391
0.14  -0.06  63.5847971368
0.14  -0.04  62.4633767071
0.14  -0.02  61.7261459349
0.14  6.17561557e-16  61.4689826949
0.14  0.02  61.7261459349
0.14  0.04  62.4633767071
0.14  0.06  63.5847971368
0.14  0.08  64.9508745391
0.14  0.1  66.4011576939
0.14  0.12  67.7757300081
0.14  0.14  68.9320035782
0.14  0.16  69.7562041807
0.14  0.18  70.1704176607
0.14  0.2  94.3888807213
0.14  0.22  80.373345828
0.14  0.24  68.4389376187
0.14  0.26  58.2766355453
0.14  0.28  49.6233046369
0.14  0.3  42.2548820818
0.14  0.32  35.9805755141
0.14  0.34  30.6379227805
0.14  0.36  26.0885852685
0.14  0.38  22.2147658699
0.14  0.4  18.9161588325
0.14  0.42  16.1073525183
0.14  0.44  13.7156178189
0.14  0.46  11.6790249633
0.14  0.48  9.94483995502
0.14  0.5  8.4681591179
0.14  0.52  7.21074639416
0.14  0.54  6.14004328885
0.14  0.56  5.22832582485
0.14  0.58  4.45198667905
0.14  0.6  3.79092391225
0.14  0.62  3.22802046468
0.14  0.64  2.74870093983
0.14  0.66  2.34055420009
0.14  0.68  1.99301200221
0.14  0.7  1.69707535113
0.14  0.72  1.44508148683
0.14  0.74  1.23050547059
0.14  0.76  1.0477912332
0.14  0.78  0.892207710248
0.14  0.8  0.759726339566
0.14  0.82  0.646916748646
0.14  0.84  0.550857931183
0.14  0.86  0.469062612744
0.14  0.88  0.399412847159
0.14  0.9  0.340105176028
0.14  0.92  0.289603931331
0.14  0.94  0.246601471997
0.14  0.96  0.209984324838
0.14  0.98  0.178804353115
0.16  -1  0.151914245598
0.16  -0.98  0.178405110051
0.16  -0.96  0.209515461615
0.16  -0.94  0.246050848225
0.16  -0.92  0.288957289574
0.16  -0.9  0.339345772634
0.16  -0.88  0.398521018709
0.16  -0.86  0.468015266907
0.16  -0.84  0.549627948777
0.16  -0.82  0.645472281436
0.16  -0.8  0.75802998561
0.16  -0.78  0.890215545437
0.16  -0.76  1.04545167392
0.16  -0.74  1.22775793807
0.16  -0.72  1.44185483853
0.16  -0.7  1.69328603867
0.16  -0.68  1.98856190799
0.16  -0.66  2.33532809673
0.16  -0.64  2.74256350655
0.16  -0.62  3.22081278344
0.16  -0.6  3.78245935279
0.16  -0.58  4.44204606646
0.16  -0.56  5.21665176442
0.16  -0.54  6.12633350129
0.16  -0.52  7.19464588857
0.16  -0.5  8.44925099997
0.16  -0.48  9.92263463223
0.16  -0.46  11.6529474678
0.16  -0.44  13.6849929197
0.16  -0.42  16.0713872374
0.16  -0.4  18.8739219122
0.16  -0.38  22.1651636592
0.16  -0.36  26.0303334052
0.16  -0.34  30.569512935
0.16  -0.32  35.9002363334
0.16  -0.3  42.160533324
0.16  -0.28  49.5125033066
0.16  -0.26  58.1465126364
0.16  -0.24  68.286123827
0.16  -0.22  80.1938843086
0.16  -0.2  69.9798307067
0.16  -0.18  70.013737736
0.16  -0.16  69.6004491321
0.16  -0.14  68.7780888448
0.16  -0.12  67.6243970587
0.16  -0.1  66.2528939565
0.16  -0.08  64.8058490644
0.16  -0.06  63.4428219063
0.16  -0.04  62.3239054387
0.16  -0.02  61.5883207913
0.16  6.17561557e-16  61.3317317579
0.16  0.02  61.5883207913
0.16  0.04  62.3239054387
0.16  0.06  63.4428219063
0.16  0.08  64.8058490644
0.16  0.1  66.2528939565
0.16  0.12  67.6243970587
0.16  0.14  68.7780888448
0.16  0.16  69.6004491321
0.16  0.18  70.013737736
0.16  0.2  94.1781246333
0.16  0.22  80.1938843086
0.16  0.24  68.286123827
0.16  0.26  58.1465126364
0.16  0.28  49.5125033066
0.16  0.3  42.160533324
0.16  0.32  35.9002363334
0.16  0.34  30.569512935
0.16  0.36  26.0303334052
0.16  0.38  22.1651636592
0.16  0.4  18.8739219122
0.16  0.42  16.0713872374
0.16  0.44  13.6849929197
0.16  0.46  11.6529474678
0.16  0.48  9.92263463223
0.16  0.5  8.44925099997
0.16  0.52  7.19464588857
0.16  0.54  6.12633350129
0.16  0.56  5.21665176442
0.16  0.58  4.44204606646
0.16  0.6  3.78245935279
0.16  0.62  3.22081278344
0.16  0.64  2.74256350655
0.16  0.66  2.33532809673
0.16  0.68  1.98856190799
0.16  0.7  1.69328603867
0.16  0.72  1.44185483854
0.16  0.74  1.22775793807
0.16  0.76  1.04545167392
0.16  0.78  0.890215545438
0.16  0.8  0.75802998561
0.16  0.82  0.645472281436
0.16  0.84  0.549627948777
0.16  0.86  0.468015266907
0.16  0.88  0.398521018709
0.16  0.9  0.339345772634
0.16  0.92  0.288957289574
0.16  0.94  0.246050848225
0.16  0.96  0.209515461615
0.16  0.98  0.178405110051
0.18  -1  0.148931891982
0.18  -0.98  0.174902692467
0.18  -0.96  0.205402291108
0.18  -0.94  0.241220421467
0.18  -0.92  0.283284531144
0.18  -0.9  0.332683796412
0.18  -0.88  0.390697324516
0.18  -0.86  0.458827273918
0.18  -0.84  0.538837750045
0.18  -0.82  0.632800483707
0.18  -0.8  0.743148474929
0.18  -0.78  0.872738991213
0.18  -0.76  1.02492755146
0.18  -0.74  1.20365481126
0.18  -0.72  1.41354859922
0.18  -0.7  1.66004374648
0.18  -0.68  1.94952281213
0.18  -0.66  2.28948134835
0.18  -0.64  2.6887219846
0.18  -0.62  3.15758235622
0.18  -0.6  3.7082027794
0.18  -0.58  4.3548406033
0.18  -0.56  5.11423937913
0.18  -0.54  6.00606240494
0.18  -0.52  7.05340187228
0.18  -0.5  8.28337679791
0.18  -0.48  9.72783522315
0.18  -0.46  11.424178863
0.18  -0.44  13.4163315578
0.18  -0.42  15.7558766041
0.18  -0.4  18.5033924135
0.18  -0.38  21.7300210844
0.18  -0.36  25.5193105012
0.18  -0.34  29.9693776609
0.18  -0.32  35.1954492398
0.18  -0.3  41.3328451865
0.18  -0.28  48.540482594
0.18  -0.26  57.0049905789
0.18  -0.24  66.9455427149
0.18  -0.22  78.6195321477
0.18  -0.2  68.6059990406
0.18  -0.18  68.6392404131
0.18  -0.16  68.234065418
0.18  -0.14  67.4278495625
0.18  -0.12  66.2968068496
0.18  -0.1  64.9522288538
0.18  -0.08  63.5335920913
0.18  -0.06  62.1973236414
0.18  -0.04  61.1003735441
0.18  -0.02  60.3792297645
0.18  6.17561557e-16  60.1276780416
0.18  0.02  60.3792297645
0.18  0.04  61.1003735441
0.18  0.06  62.1973236414
0.18  0.08  63.5335920913
0.18  0.1  64.9522288538
0.18  0.12  66.2968068496
0.18  0.14  67.4278495625
0.18  0.16  68.234065418
0.18  0.18  68.6392404131
0.18  0.2  92.3292363384
0.18  0.22  78.6195321477
0.18  0.24  66.9455427149
0.18  0.26  57.0049905789
0.18  0.28  48.540482594
0.18  0.3  41.3328451865
0.18  0.32  35.1954492398
0.18  0.34  29.9693776609
0.18  0.36  25.5193105012
0.18  0.38  21.7300210844
0.18  0.4  18.5033924135
0.18  0.42  15.7558766041
0.18  0.44  13.4163315578
0.18  0.46  11.424178863
0.18  0.48  9.72783522315
0.18  0.5  8.28337679792
0.18  0.52  7.05340187228
0.18  0.54  6.00606240494
0.18  0.56  5.11423937913
0.18  0.58  4.3548406033
0.18  0.6  3.7082027794
0.18  0.62  3.15758235622
0.18  0.64  2.6887219846
0.18  0.66  2.28948134835
0.18  0.68  1.94952281213
0.18  0.7  1.66004374648
0.18  0.72  1.41354859922
0.18  0.74  1.20365481126
0.18  0.76  1.02492755146
0.18  0.78  0.872738991213
0.18  0.8  0.743148474929
0.18  0.82  0.632800483707
0.18  0.84  0.538837750045
0.18  0.86  0.458827273918
0.18  0.88  0.390697324516
0.18  0.9  0.332683796412
0.18  0.92  0.283284531144
0.18  0.94  0.241220421467
0.18  0.96  0.205402291108
0.18  0.98  0.174902692467
0.2  -1  0.143359020347
0.2  -0.98  0.168358021337
0.2  -0.96  0.197716357715
0.2  -0.94  0.232194212058
0.2  -0.92  0.272684327875
0.2  -0.9  0.320235125628
0.2  -0.88  0.376077849743
0.2  -0.86  0.441658449523
0.2  -0.84  0.518675019462
0.2  -0.82  0.609121768427
0.2  -0.8  0.71534065619
0.2  -0.78  0.840082034369
0.2  -0.76  0.986575861952
0.2  -0.74  1.15861533941
0.2  -0.72  1.36065512699
0.2  -0.7  1.59792669026
0.2  -0.68  1.8765737598
0.2  -0.66  2.20381141228
0.2  -0.64  2.58811289219
0.2  -0.62  3.03942901166
0.2  -0.6  3.56944580927
0.2  -0.58  4.19188713947
0.2  -0.56  4.92287002772
0.2  -0.54  5.78132199259
0.2  -0.52  6.78947114057
0.2  -0.5  7.97342172391
0.2  -0.48  9.36383006438
0.2  -0.46  10.9966983449
0.2  -0.44  12.9143068229
0.2  -0.42  15.1663086033
0.2  -0.4  17.8110153185
0.2  -0.38  20.9169070057
0.2  -0.36  24.5644052774
0.2  -0.34  28.8479556976
0.2  -0.32  33.8784732842
0.2  -0.3  39.7862144583
0.2  -0.28  46.7241498058
0.2  -0.26  54.871924982
0.2  -0.24  64.4405123206
0.2  -0.22  75.6776735918
0.2  -0.2  66.0388361517
0.2  -0.18  66.0708336678
0.2  -0.16  65.6808198864
0.2  -0.14  64.9047717633
0.2  -0.12  63.8160514554
0.2  -0.1  62.5217861259
0.2  -0.08  61.1562332292
0.2  -0.06  59.8699665113
0.2  -0.04  58.8140631099
0.2  -0.02  58.1199037569
0.2  6.17561557e-16  57.8777648296
0.2  0.02  58.1199037569
0.2  0.04  58.8140631099
0.2  0.06  59.8699665113
0.2  0.08  61.1562332292
0.2  0.1  62.5217861259
0.2  0.12  63.8160514554
0.2  0.14  64.9047717633
0.2  0.16  65.6808198864
0.2  0.18  66.0708336678
0.2  0.2  88.8743753583
0.2  0.22  75.6776735918
0.2  0.24  64.4405123206
0.2  0.26  54.871924982
0.2  0.28  46.7241498058
0.2  0.3  39.7862144584
0.2  0.32  33.8784732843
0.2  0.34  28.8479556976
0.2  0.36  24.5644052774
0.2  0.38  20.9169070057
0.2  0.4  17.8110153185
0.2  0.42  15.1663086033
0.2  0.44  12.9143068229
0.2  0.46  10.9966983449
0.2  0.48  9.36383006438
0.2  0.5  7.97342172391
0.2  0.52  6.78947114057
0.2  0.54  5.78132199259
0.2  0.56  4.92287002773
0.2  0.58  4.19188713947
0.2  0.6  3.56944580927
0.2  0.62  3.03942901166
0.2  0.64  2.58811289219
0.2  0.66  2.20381141228
0.2  0.68  1.8765737598
0.2  0.7  1.59792669026
0.2  0.72  1.36065512699
0.2  0.74  1.15861533941
0.2  0.76  0.986575861952
0.2  0.78  0.840082034369
0.2  0.8  0.71534065619
0.2  0.82  0.609121768427
0.2  0.84  0.518675019462
0.2  0.86  0.441658449523
0.2  0.88  0.376077849743
0.2  0.9  0.320235125628
0.2  0.92  0.272684327875
0.2  0.94  0.232194212058
0.2  0.96  0.197716357715
0.2  0.98  0.168358021337
0.22  -1  0.135292565098
0.22  -0.98  0.158884934526
0.22  -0.96  0.186591350389
0.22  -0.94  0.219129221685
0.22  -0.92  0.257341059466
0.22  -0.9  0.302216292185
0.22  -0.88  0.354916885209
0.22  -0.86  0.416807427871
0.22  -0.84  0.489490467117
0.22  -0.82  0.574848002643
0.22  -0.8  0.675090217974
0.22  -0.78  0.792812709289
0.22  -0.76  0.931063693821
0.22  -0.74  1.0934229381
0.22  -0.72  1.28409444971
0.22  -0.7  1.50801533269
0.22  -0.68  1.77098362519
0.22  -0.66  2.07980842947
0.22  -0.64  2.44248622165
0.22  -0.62  2.86840790642
0.22  -0.6  3.36860197806
0.22  -0.58  3.95602008388
0.22  -0.56  4.64587238446
0.22  -0.54  5.45602139398
0.22  -0.52  6.40744449872
0.22  -0.5  7.52477712963
0.22  -0.48  8.83695065356
0.22  -0.46  10.3779415002
0.22  -0.44  12.1876509221
0.22  -0.42  14.3129381676
0.22  -0.4  16.8088338187
0.22  -0.38  19.7399647114
0.22  -0.36  23.1822273341
0.22  -0.34  27.2247530341
0.22  -0.32  31.9722159172
0.22  -0.3  37.5475432
0.22  -0.28  44.0950981943
0.22  -0.26  51.7844183414
0.22  -0.24  60.814605087
0.22  -0.22  71.4194792631
0.22  -0.2  62.3229952144
0.22  -0.18  62.3531923099
0.22  -0.16  61.9851236332
0.22  -0.14  61.2527418064
0.22  -0.12  60.2252810804
0.22  -0.1  59.0038408395
0.22  -0.08  57.7151242054
0.22  -0.06  56.5012325141
0.22  -0.04  55.504742169
0.22  -0.02  54.849641435
0.22  6.17561557e-16  54.6211270625
0.22  0.02  54.849641435
0.22  0.04  55.504742169
0.22  0.06  56.5012325141
0.22  0.08  57.7151242054
0.22  0.1  59.0038408395
0.22  0.12  60.2252810804
0.22  0.14  61.2527418064
0.22  0.16  61.9851236332
0.22  0.18  62.3531923099
0.22  0.2  83.8736354683
0.22  0.22  71.4194792631
0.22  0.24  60.814605087
0.22  0.26  51.7844183414
0.22  0.28  44.0950981943
0.22  0.3  37.5475432001
0.22  0.32  31.9722159172
0.22  0.34  27.2247530341
0.22  0.36  23.1822273341
0.22  0.38  19.7399647114
0.22  0.4  16.8088338187
0.22  0.42  14.3129381676
0.22  0.44  12.1876509221
0.22  0.46  10.3779415002
0.22  0.48  8.83695065356
0.22  0.5  7.52477712963
0.22  0.52  6.40744449872
0.22  0.54  5.45602139398
0.22  0.56  4.64587238446
0.22  0.58  3.95602008388
0.22  0.6  3.36860197806
0.22  0.62  2.86840790642
0.22  0.64  2.44248622165
0.22  0.66  2.07980842947
0.22  0.68  1.77098362519
0.22  0.7  1.50801533269
0.22  0.72  1.28409444971
0.22  0.74  1.0934229381
0.22  0.76  0.931063693822
0.22  0.78  0.792812709289
0.22  0.8  0.675090217974
0.22  0.82  0.574848002643
0.22  0.84  0.489490467117
0.22  0.86  0.416807427871
0.22  0.88  0.354916885209
0.22  0.9  0.302216292185
0.22  0.92  0.257341059466
0.22  0.94  0.219129221685
0.22  0.96  0.186591350389
0.22  0.98  0.158884934526
0.24  -1  0.124872833978
0.24  -0.98  0.146648206694
0.24  -0.96  0.172220777261
0.24  -0.94  0.2022527025
0.24  -0.92  0.237521606388
0.24  -0.9  0.278940715272
0.24  -0.88  0.32758250426
0.24  -0.86  0.384706467082
0.24  -0.84  0.451791728465
0.24  -0.82  0.530575343475
0.24  -0.8  0.623097275509
0.24  -0.78  0.731753217561
0.24  -0.76  0.859356624491
0.24  -0.74  1.0092115625
0.24  -0.72  1.18519826211
0.24  -0.7  1.39187358994
0.24  -0.68  1.63458904077
0.24  -0.66  1.91962930506
0.24  -0.64  2.25437500005
0.24  -0.62  2.6474937778
0.24  -0.6  3.1091647589
0.24  -0.58  3.65134210287
0.24  -0.56  4.28806454018
0.24  -0.54  5.03581888049
0.24  -0.52  5.91396690965
0.24  -0.5  6.94524672918
0.24  -0.48  8.15636151944
0.24  -0.46  9.57867097167
0.24  -0.44  11.2490032921
0.24  -0.42  13.2106088036
0.24  -0.4  15.5142798371
0.24  -0.38  18.2196659096
0.24  -0.36  21.3968182437
0.24  -0.34  25.1280036213
0.24  -0.32  29.5098345371
0.24  -0.3  34.6557708097
0.24  -0.28  40.6990574247
0.24  -0.26  47.7961746789
0.24  -0.24  56.130889964
0.24  -0.22  65.9190160993
0.24  -0.2  57.5231094834
0.24  -0.18  57.5509809106
0.24  -0.16  57.211259517
0.24  -0.14  56.5352830198
0.24  -0.12  55.5869535046
0.24  -0.1  54.4595840567
0.24  -0.08  53.2701195937
0.24  -0.06  52.1497173342
0.24  -0.04  51.2299729762
0.24  -0.02  50.6253256688
0.24  6.17561557e-16  50.414410625
0.24  0.02  50.6253256688
0.24  0.04  51.2299729762
0.24  0.06  52.1497173342
0.24  0.08  53.2701195937
0.24  0.1  54.4595840567
0.24  0.12  55.5869535046
0.24  0.14  56.5352830198
0.24  0.16  57.211259517
0.24  0.18  57.5509809106
0.24  0.2  77.4139994269
0.24  0.22  65.9190160993
0.24  0.24  56.130889964
0.24  0.26  47.796174679
0.24  0.28  40.6990574247
0.24  0.3  34.6557708097
0.24  0.32  29.5098345371
0.24  0.34  25.1280036213
0.24  0.36  21.3968182437
0.24  0.38  18.2196659096
0.24  0.4  15.5142798371
0.24  0.42  13.2106088036
0.24  0.44  11.2490032921
0.24  0.46  9.57867097167
0.24  0.48  8.15636151944
0.24  0.5  6.94524672918
0.24  0.52  5.91396690965
0.24  0.54  5.03581888049
0.24  0.56  4.28806454018
0.24  0.58  3.65134210287
0.24  0.6  3.1091647589
0.24  0.62  2.6474937778
0.24  0.64  2.25437500005
0.24  0.66  1.91962930506
0.24  0.68  1.63458904077
0.24  0.7  1.39187358994
0.24  0.72  1.18519826211
0.24  0.74  1.0092115625
0.24  0.76  0.859356624491
0.24  0.78  0.731753217561
0.24  0.8  0.623097275509
0.24  0.82  0.530575343475
0.24  0.84  0.451791728465
0.24  0.86  0.384706467082
0.24  0.88  0.327582504261
0.24  0.9  0.278940715272
0.24  0.92  0.237521606388
0.24  0.94  0.2022527025
0.24  0.96  0.172220777261
0.24  0.98  0.146648206694
0.26  -1  0.112281067558
0.26  -0.98  0.131860683213
0.26  -0.96  0.154854599761
0.26  -0.94  0.181858204302
0.26  -0.92  0.213570707766
0.26  -0.9  0.250813249756
0.26  -0.88  0.294550160513
0.26  -0.86  0.345913930553
0.26  -0.84  0.406234534527
0.26  -0.82  0.477073868574
0.26  -0.8  0.56026619288
0.26  -0.78  0.657965626629
0.26  -0.76  0.772701925132
0.26  -0.74  0.907445983405
0.26  -0.72  1.06568676227
0.26  -0.7  1.2515216289
0.26  -0.68  1.46976245089
0.26  -0.66  1.72606019118
0.26  -0.64  2.02705122979
0.26  -0.62  2.38052920124
0.26  -0.6  2.79564679701
0.26  -0.58  3.28315275847
0.26  -0.56  3.85567019658
0.26  -0.54  4.5280234453
0.26  -0.52  5.31762191158
0.26  -0.5  6.24491086146
0.26  -0.48  7.33390081432
0.26  -0.46  8.61278925312
0.26  -0.44  10.1146907487
0.26  -0.42  11.8784944036
0.26  -0.4  13.9498708167
0.26  -0.38  16.3824546438
0.26  -0.36  19.2392333723
0.26  -0.34  22.5941782719
0.26  -0.32  26.5341597508
0.26  -0.3  31.1611967121
0.26  -0.28  36.5950981546
0.26  -0.26  42.9765654163
0.26  -0.24  50.4708353883
0.26  -0.22  59.2719590343
0.26  -0.2  51.7226680642
0.26  -0.18  51.7477290283
0.26  -0.16  51.4422640242
0.26  -0.14  50.8344507766
0.26  -0.12  49.9817476948
0.26  -0.1  48.9680584791
0.26  -0.08  47.8985357057
0.26  -0.06  46.8911111299
0.26  -0.04  46.0641107719
0.26  -0.02  45.520434113
0.26  6.17561557e-16  45.3307870494
0.26  0.02  45.520434113
0.26  0.04  46.0641107719
0.26  0.06  46.8911111299
0.26  0.08  47.8985357057
0.26  0.1  48.9680584791
0.26  0.12  49.9817476948
0.26  0.14  50.8344507766
0.26  0.16  51.4422640242
0.26  0.18  51.7477290283
0.26  0.2  69.6078259997
0.26  0.22  59.2719590343
0.26  0.24  50.4708353883
0.26  0.26  42.9765654163
0.26  0.28  36.5950981546
0.26  0.3  31.1611967121
0.26  0.32  26.5341597508
0.26  0.34  22.5941782719
0.26  0.36  19.2392333723
0.26  0.38  16.3824546438
0.26  0.4  13.9498708167
0.26  0.42  11.8784944036
0.26  0.44  10.1146907487
0.26  0.46  8.61278925312
0.26  0.48  7.33390081432
0.26  0.5  6.24491086146
0.26  0.52  5.31762191158
0.26  0.54  4.5280234453
0.26  0.56  3.85567019658
0.26  0.58  3.28315275847
0.26  0.6  2.79564679701
0.26  0.62  2.38052920124
0.26  0.64  2.02705122979
0.26  0.66  1.72606019118
0.26  0.68  1.46976245089
0.26  0.7  1.2515216289
0.26  0.72  1.06568676228
0.26  0.74  0.907445983405
0.26  0.76  0.772701925132
0.26  0.78  0.657965626629
0.26  0.8  0.56026619288
0.26  0.82  0.477073868574
0.26  0.84  0.406234534527
0.26  0.86  0.345913930553
0.26  0.88  0.294550160513
0.26  0.9  0.250813249756
0.26  0.92  0.213570707766
0.26  0.94  0.181858204302
0.26  0.96  0.154854599761
0.26  0.98  0.131860683213
0.28  -1  0.0977362867449
0.28  -0.98  0.114779577939
0.28  -0.96  0.134794884794
0.28  -0.94  0.158300468539
0.28  -0.92  0.185904965
0.28  -0.9  0.218323144148
0.28  -0.88  0.256394417819
0.28  -0.86  0.301104574804
0.28  -0.84  0.353611306124
0.28  -0.82  0.415274181405
0.28  -0.8  0.487689852543
0.28  -0.78  0.572733396208
0.28  -0.76  0.672606865658
0.28  -0.74  0.789896309043
0.28  -0.72  0.927638730581
0.28  -0.7  1.08940072845
0.28  -0.68  1.2793708456
0.28  -0.66  1.50246802469
0.28  -0.64  1.76446897549
0.28  -0.62  2.07215775265
0.28  -0.6  2.43350141687
0.28  -0.58  2.85785632794
0.28  -0.56  3.35621041127
0.28  -0.54  3.94146767092
0.28  -0.52  4.62878231614
0.28  -0.5  5.43595115299
0.28  -0.48  6.3838744014
0.28  -0.46  7.4970968697
0.28  -0.44  8.80444349927
0.28  -0.42  10.3397657359
0.28  -0.4  12.1428180534
0.28  -0.38  14.260287326
0.28  -0.36  16.7470017031
0.28  -0.34  19.6673502877
0.28  -0.32  23.0969503794
0.28  -0.3  27.1246054513
0.28  -0.28  31.8546045605
0.28  -0.26  37.4094227298
0.28  -0.24  43.9328922234
0.28  -0.22  51.5939268311
0.28  -0.2  45.0225637062
0.28  -0.18  45.0443782973
0.28  -0.16  44.7784829341
0.28  -0.14  44.2494052263
0.28  -0.12  43.5071604764
0.28  -0.1  42.6247835805
0.28  -0.08  41.6938057519
0.28  -0.06  40.8168819806
0.28  -0.04  40.0970104485
0.28  -0.02  39.6237611378
0.28  6.17561557e-16  39.4586807712
0.28  0.02  39.6237611378
0.28  0.04  40.0970104485
0.28  0.06  40.8168819806
0.28  0.08  41.6938057519
0.28  0.1  42.6247835805
0.28  0.12  43.5071604764
0.28  0.14  44.2494052263
0.28  0.16  44.7784829341
0.28  0.18  45.0443782973
0.28  0.2  60.590895594
0.28  0.22  51.5939268311
0.28  0.24  43.9328922234
0.28  0.26  37.4094227298
0.28  0.28  31.8546045605
0.28  0.3  27.1246054513
0.28  0.32  23.0969503794
0.28  0.34  19.6673502877
0.28  0.36  16.7470017031
0.28  0.38  14.260287326
0.28  0.4  12.1428180534
0.28  0.42  10.3397657359
0.28  0.44  8.80444349927
0.28  0.46  7.4970968697
0.28  0.48  6.3838744014
0.28  0.5  5.43595115299
0.28  0.52  4.62878231614
0.28  0.54  3.94146767092
0.28  0.56  3.35621041127
0.28  0.58  2.85785632794
0.28  0.6  2.43350141687
0.28  0.62  2.07215775265
0.28  0.64  1.76446897549
0.28  0.66  1.50246802469
0.28  0.68  1.2793708456
0.28  0.7  1.08940072845
0.28  0.72  0.927638730581
0.28  0.74  0.789896309043
0.28  0.76  0.672606865658
0.28  0.78  0.572733396208
0.28  0.8  0.487689852543
0.28  0.82  0.415274181405
0.28  0.84  0.353611306124
0.28  0.86  0.301104574804
0.28  0.88  0.256394417819
0.28  0.9  0.218323144148
0.28  0.92  0.185904965
0.28  0.94  0.158300468539
0.28  0.96  0.134794884794
0.28  0.98  0.114779577939
0.3  -1  0.081491483132
0.3  -0.98  0.0957019992376
0.3  -0.96  0.112390550596
0.3  -0.94  0.131989257945
0.3  -0.92  0.155005595404
0.3  -0.9  0.182035530622
0.3  -0.88  0.213778956319
0.3  -0.86  0.251057812772
0.3  -0.84  0.29483737052
0.3  -0.82  0.346251224352
0.3  -0.8  0.406630645749
0.3  -0.78  0.477539053822
0.3  -0.76  0.56081249731
0.3  -0.74  0.658607195835
0.3  -0.72  0.773455371422
0.3  -0.7  0.908330815949
0.3  -0.68  1.06672589226
0.3  -0.66  1.25274196277
0.3  -0.64  1.47119558704
0.3  -0.62  1.72774323817
0.3  -0.6  2.02902776716
0.3  -0.58  2.38285040795
0.3  -0.56  2.79837277665
0.3  -0.54  3.28635409547
0.3  -0.52  3.85942978397
0.3  -0.5  4.53243863097
0.3  -0.48  5.32280701902
0.3  -0.46  6.25100014993
0.3  -0.44  7.34105195525
0.3  -0.42  8.62118741275
0.3  -0.4  10.1245533827
0.3  -0.38  11.8900768874
0.3  -0.36  13.9634730585
0.3  -0.34  16.3984288497
0.3  -0.32  19.2579931664
0.3  -0.3  22.6162094061
0.3  -0.28  26.5600326826
0.3  -0.26  31.1915813757
0.3  -0.24  36.6307813075
0.3  -0.22  43.0184710111
0.3  -0.2  37.5393378756
0.3  -0.18  37.5575266511
0.3  -0.16  37.335825907
0.3  -0.14  36.8946865048
0.3  -0.12  36.2758106755
0.3  -0.1  35.5400941436
0.3  -0.08  34.7638546675
0.3  -0.06  34.0326848932
0.3  -0.04  33.4324636165
0.3  -0.02  33.0378733419
0.3  6.17561557e-16  32.9002310766
0.3  0.02  33.0378733419
0.3  0.04  33.4324636165
0.3  0.06  34.0326848932
0.3  0.08  34.7638546675
0.3  0.1  35.5400941436
0.3  0.12  36.2758106755
0.3  0.14  36.8946865048
0.3  0.16  37.335825907
0.3  0.18  37.5575266511
0.3  0.2  50.5200484968
0.3  0.22  43.0184710111
0.3  0.24  36.6307813075
0.3  0.26  31.1915813757
0.3  0.28  26.5600326826
0.3  0.3  22.6162094061
0.3  0.32  19.2579931664
0.3  0.34  16.3984288497
0.3  0.36  13.9634730585
0.3  0.38  11.8900768874
0.3  0.4  10.1245533827
0.3  0.42  8.62118741275
0.3  0.44  7.34105195525
0.3  0.46  6.25100014993
0.3  0.48  5.32280701902
0.3  0.5  4.53243863097
0.3  0.52  3.85942978397
0.3  0.54  3.28635409547
0.3  0.56  2.79837277665
0.3  0.58  2.38285040795
0.3  0.6  2.02902776716
0.3  0.62  1.72774323817
0.3  0.64  1.47119558704
0.3  0.66  1.25274196277
0.3  0.68  1.06672589226
0.3  0.7  0.908330815949
0.3  0.72  0.773455371423
0.3  0.74  0.658607195835
0.3  0.76  0.56081249731
0.3  0.78  0.477539053822
0.3  0.8  0.406630645749
0.3  0.82  0.346251224352
0.3  0.84  0.29483737052
0.3  0.86  0.251057812772
0.3  0.88  0.213778956319
0.3  0.9  0.182035530622
0.3  0.92  0.155005595404
0.3  0.94  0.131989257945
0.3  0.96  0.112390550596
0.3  0.98  0.0957019992376
0.32  -1  0.0661452270337
0.32  -0.98  0.0776796571108
0.32  -0.96  0.0912254655318
0.32  -0.94  0.107133397224
0.32  -0.92  0.125815360151
0.32  -0.9  0.147755090943
0.32  -0.88  0.173520680411
0.32  -0.86  0.203779283259
0.32  -0.84  0.239314392886
0.32  -0.82  0.281046128568
0.32  -0.8  0.330055060335
0.32  -0.78  0.387610188433
0.32  -0.76  0.45520180186
0.32  -0.74  0.534580066778
0.32  -0.72  0.627800343998
0.32  -0.7  0.737276408938
0.32  -0.68  0.865842952101
0.32  -0.66  1.0168289784
0.32  -0.64  1.19414400592
0.32  -0.62  1.402379296
0.32  -0.6  1.64692673588
0.32  -0.58  1.93411845218
0.32  -0.56  2.2713907702
0.32  -0.54  2.66747676449
0.32  -0.52  3.13263238647
0.32  -0.5  3.67890202435
0.32  -0.48  4.32043037135
0.32  -0.46  5.07382867771
0.32  -0.44  5.9586048699
0.32  -0.42  6.99766867407
0.32  -0.4  8.21792482321
0.32  -0.38  9.65096970798
0.32  -0.36  11.3339095098
0.32  -0.34  13.3103210001
0.32  -0.32  15.6313798847
0.32  -0.3  18.3571859084
0.32  -0.28  21.5583190328
0.32  -0.26  25.3176669799
0.32  -0.24  29.732571465
0.32  -0.22  34.9173486886
0.32  -0.2  30.470031113
0.32  -0.18  30.4847946274
0.32  -0.16  30.3048439689
0.32  -0.14  29.946778748
0.32  -0.12  29.444447944
0.32  -0.1  28.8472795632
0.32  -0.08  28.2172194096
0.32  -0.06  27.6237415532
0.32  -0.04  27.1365523269
0.32  -0.02  26.8162702275
0.32  6.17561557e-16  26.7045483821
0.32  0.02  26.8162702275
0.32  0.04  27.1365523269
0.32  0.06  27.6237415532
0.32  0.08  28.2172194096
0.32  0.1  28.8472795632
0.32  0.12  29.444447944
0.32  0.14  29.946778748
0.32  0.16  30.3048439689
0.32  0.18  30.4847946274
0.32  0.2  41.0062493544
0.32  0.22  34.9173486886
0.32  0.24  29.732571465
0.32  0.26  25.3176669799
0.32  0.28  21.5583190328
0.32  0.3  18.3571859084
0.32  0.32  15.6313798847
0.32  0.34  13.3103210001
0.32  0.36  11.3339095098
0.32  0.38  9.65096970798
0.32  0.4  8.21792482321
0.32  0.42  6.99766867407
0.32  0.44  5.9586048699
0.32  0.46  5.07382867771
0.32  0.48  4.32043037135
0.32  0.5  3.67890202435
0.32  0.52  3.13263238647
0.32  0.54  2.66747676449
0.32  0.56  2.2713907702
0.32  0.58  1.93411845218
0.32  0.6  1.64692673588
0.32  0.62  1.402379296
0.32  0.64  1.19414400593
0.32  0.66  1.0168289784
0.32  0.68  0.865842952101
0.32  0.7  0.737276408938
0.32  0.72  0.627800343998
0.32  0.74  0.534580066778
0.32  0.76  0.45520180186
0.32  0.78  0.387610188433
0.32  0.8  0.330055060335
0.32  0.82  0.281046128568
0.32  0.84  0.239314392886
0.32  0.86  0.203779283259
0.32  0.88  0.173520680411
0.32  0.9  0.147755090943
0.32  0.92  0.125815360151
0.32  0.94  0.107133397224
0.32  0.96  0.0912254655318
0.32  0.98  0.0776796571108
0.34  -1  0.053688936453
0.34  -0.98  0.0630512337979
0.34  -0.96  0.0740461321471
0.34  -0.94  0.0869583250903
0.34  -0.92  0.102122151195
0.34  -0.9  0.119930251115
0.34  -0.88  0.140843734335
0.34  -0.86  0.165404118785
0.34  -0.84  0.194247352502
0.34  -0.82  0.228120280385
0.34  -0.8  0.267899982432
0.34  -0.78  0.314616484191
0.34  -0.76  0.369479427456
0.34  -0.74  0.433909391825
0.34  -0.72  0.509574678108
0.34  -0.7  0.598434506055
0.34  -0.68  0.702789744904
0.34  -0.66  0.825342490356
0.34  -0.64  0.969266030597
0.34  -0.62  1.13828701302
0.34  -0.6  1.33678193924
0.34  -0.58  1.56989048687
0.34  -0.56  1.8436485925
0.34  -0.54  2.16514474167
0.34  -0.52  2.54270351272
0.34  -0.5  2.98610112717
0.34  -0.48  3.50681858782
0.34  -0.46  4.1183389591
0.34  -0.44  4.83649648743
0.34  -0.42  5.67988660119
0.34  -0.4  6.67034740669
0.34  -0.38  7.83352514759
0.34  -0.36  9.19953826939
0.34  -0.34  10.8037572837
0.34  -0.32  12.6877206253
0.34  -0.3  14.9002102176
0.34  -0.28  17.4985145942
0.34  -0.26  20.5499122852
0.34  -0.24  24.1334138766
0.34  -0.22  28.341807851
0.34  -0.2  24.7319971147
0.34  -0.18  24.7439804039
0.34  -0.16  24.5979175676
0.34  -0.14  24.3072822224
0.34  -0.12  23.8995489993
0.34  -0.1  23.4148377557
0.34  -0.08  22.9034288293
0.34  -0.06  22.4217131206
0.34  -0.04  22.0262700541
0.34  -0.02  21.766302615
0.34  6.17561557e-16  21.6756199259
0.34  0.02  21.766302615
0.34  0.04  22.0262700541
0.34  0.06  22.4217131206
0.34  0.08  22.9034288293
0.34  0.1  23.4148377557
0.34  0.12  23.8995489993
0.34  0.14  24.3072822224
0.34  0.16  24.5979175676
0.34  0.18  24.7439804039
0.34  0.2  33.2840631819
0.34  0.22  28.341807851
0.34  0.24  24.1334138766
0.34  0.26  20.5499122852
0.34  0.28  17.4985145942
0.34  0.3  14.9002102176
0.34  0.32  12.6877206253
0.34  0.34  10.8037572837
0.34  0.36  9.1995382694
0.34  0.38  7.8335251476
0.34  0.4  6.67034740669
0.34  0.42  5.6798866012
0.34  0.44  4.83649648744
0.34  0.46  4.1183389591
0.34  0.48  3.50681858782
0.34  0.5  2.98610112717
0.34  0.52  2.54270351272
0.34  0.54  2.16514474167
0.34  0.56  1.8436485925
0.34  0.58  1.56989048687
0.34  0.6  1.33678193924
0.34  0.62  1.13828701302
0.34  0.64  0.969266030597
0.34  0.66  0.825342490357
0.34  0.68  0.702789744905
0.34  0.7  0.598434506055
0.34  0.72  0.509574678108
0.34  0.74  0.433909391825
0.34  0.76  0.369479427456
0.34  0.78  0.314616484191
0.34  0.8  0.267899982432
0.34  0.82  0.228120280385
0.34  0.84  0.194247352502
0.34  0.86  0.165404118785
0.34  0.88  0.140843734335
0.34  0.9  0.119930251115
0.34  0.92  0.102122151195
0.34  0.94  0.0869583250903
0.34  0.96  0.0740461321471
0.34  0.98  0.0630512337979
0.36  -1  0.0435783808859
0.36  -0.98  0.0511775956705
0.36  -0.96  0.0601019644458
0.36  -0.94  0.0705825680734
0.36  -0.92  0.0828907833842
0.36  -0.9  0.0973453100047
0.36  -0.88  0.114320422525
0.36  -0.86  0.134255661682
0.36  -0.84  0.157667215494
0.36  -0.82  0.185161285046
0.36  -0.8  0.217449780999
0.36  -0.78  0.255368757268
0.36  -0.76  0.299900059173
0.36  -0.74  0.352196746595
0.36  -0.72  0.413612950442
0.36  -0.7  0.485738935487
0.36  -0.68  0.570442277488
0.36  -0.66  0.669916220775
0.36  -0.64  0.786736468473
0.36  -0.62  0.9239278758
0.36  -0.6  1.08504277339
0.36  -0.58  1.27425294866
0.36  -0.56  1.49645766692
0.36  -0.54  1.75741052923
0.36  -0.52  2.06386845182
0.36  -0.5  2.42376662457
0.36  -0.48  2.84642397883
0.36  -0.46  3.34278448473
0.36  -0.44  3.92570052616
0.36  -0.42  4.61026569062
0.36  -0.4  5.41420559121
0.36  -0.38  6.35833684021
0.36  -0.36  7.46710605878
0.36  -0.34  8.76922287924
0.36  -0.32  10.2984033306
0.36  -0.3  12.094242856
0.36  -0.28  14.2032415671
0.36  -0.26  16.6800082829
0.36  -0.24  19.5886745291
0.36  -0.22  23.0045551118
0.36  -0.2  20.0745341878
0.36  -0.18  20.0842608164
0.36  -0.16  19.965704139
0.36  -0.14  19.7298004574
0.36  -0.12  19.3988504541
0.36  -0.1  19.0054187233
0.36  -0.08  18.5903169453
0.36  -0.06  18.1993166383
0.36  -0.04  17.8783423425
0.36  -0.02  17.6673312697
0.36  6.17561557e-16  17.5937256998
0.36  0.02  17.6673312697
0.36  0.04  17.8783423425
0.36  0.06  18.1993166383
0.36  0.08  18.5903169453
0.36  0.1  19.0054187233
0.36  0.12  19.3988504541
0.36  0.14  19.7298004574
0.36  0.16  19.965704139
0.36  0.18  20.0842608164
0.36  0.2  27.0160982615
0.36  0.22  23.0045551118
0.36  0.24  19.5886745291
0.36  0.26  16.6800082829
0.36  0.28  14.2032415671
0.36  0.3  12.094242856
0.36  0.32  10.2984033306
0.36  0.34  8.76922287924
0.36  0.36  7.46710605878
0.36  0.38  6.35833684021
0.36  0.4  5.41420559121
0.36  0.42  4.61026569063
0.36  0.44  3.92570052616
0.36  0.46  3.34278448473
0.36  0.48  2.84642397883
0.36  0.5  2.42376662457
0.36  0.52  2.06386845182
0.36  0.54  1.75741052923
0.36  0.56  1.49645766692
0.36  0.58  1.27425294866
0.36  0.6  1.08504277339
0.36  0.62  0.9239278758
0.36  0.64  0.786736468473
0.36  0.66  0.669916220776
0.36  0.68  0.570442277488
0.36  0.7  0.485738935487
0.36  0.72  0.413612950442
0.36  0.74  0.352196746595
0.36  0.76  0.299900059173
0.36  0.78  0.255368757268
0.36  0.8  0.217449780999
0.36  0.82  0.185161285046
0.36  0.84  0.157667215494
0.36  0.86  0.134255661682
0.36  0.88  0.114320422525
0.36  0.9  0.0973453100048
0.36  0.92  0.0828907833842
0.36  0.94  0.0705825680734
0.36  0.96  0.0601019644458
0.36  0.98  0.0511775956705
0.38  -1  0.0353718178474
0.38  -0.98  0.0415399690196
0.38  -0.96  0.0487837247605
0.38  -0.94  0.0572906494078
0.38  -0.92  0.0672810148401
0.38  -0.9  0.0790135040308
0.38  -0.88  0.0927919091897
0.38  -0.86  0.108972997928
0.38  -0.84  0.127975751132
0.38  -0.82  0.150292211732
0.38  -0.8  0.176500225297
0.38  -0.78  0.207278402326
0.38  -0.76  0.243423689679
0.38  -0.74  0.285872006113
0.38  -0.72  0.335722476258
0.38  -0.7  0.394265890521
0.38  -0.68  0.463018127832
0.38  -0.66  0.543759406673
0.38  -0.64  0.638580380707
0.38  -0.62  0.749936272586
0.38  -0.6  0.880710447631
0.38  -0.58  1.03428907351
0.38  -0.56  1.21464879912
0.38  -0.54  1.4264597229
0.38  -0.52  1.67520631686
0.38  -0.5  1.96732943735
0.38  -0.48  2.31039309971
0.38  -0.46  2.71328033519
0.38  -0.44  3.18642320141
0.38  -0.42  3.74207290225
0.38  -0.4  4.39461701117
0.38  -0.38  5.16095201226
0.38  -0.36  6.06092080497
0.38  -0.34  7.11782650117
0.38  -0.32  8.35903581831
0.38  -0.3  9.81668769257
0.38  -0.28  11.5285254601
0.38  -0.26  13.5388741546
0.38  -0.24  15.899788226
0.38  -0.22  18.6723993992
0.38  -0.2  16.2941521054
0.38  -0.18  16.3020470415
0.38  -0.16  16.2058166376
0.38  -0.14  16.0143377004
0.38  -0.12  15.7457113083
0.38  -0.1  15.4263695789
0.38  -0.08  15.089438647
0.38  -0.06  14.7720704623
0.38  -0.04  14.5115411793
0.38  -0.02  14.340267142
0.38  6.17561557e-16  14.2805227743
0.38  0.02  14.340267142
0.38  0.04  14.5115411793
0.38  0.06  14.7720704623
0.38  0.08  15.089438647
0.38  0.1  15.4263695789
0.38  0.12  15.7457113083
0.38  0.14  16.0143377004
0.38  0.16  16.2058166376
0.38  0.18  16.3020470415
0.38  0.2  21.9284995731
0.38  0.22  18.6723993993
0.38  0.24  15.899788226
0.38  0.26  13.5388741546
0.38  0.28  11.5285254601
0.38  0.3  9.81668769257
0.38  0.32  8.35903581831
0.38  0.34  7.11782650117
0.38  0.36  6.06092080497
0.38  0.38  5.16095201227
0.38  0.4  4.39461701117
0.38  0.42  3.74207290225
0.38  0.44  3.18642320141
0.38  0.46  2.71328033519
0.38  0.48  2.31039309971
0.38  0.5  1.96732943735
0.38  0.52  1.67520631686
0.38  0.54  1.4264597229
0.38  0.56  1.21464879912
0.38  0.58  1.03428907351
0.38  0.6  0.880710447631
0.38  0.62  0.749936272587
0.38  0.64  0.638580380707
0.38  0.66  0.543759406673
0.38  0.68  0.463018127832
0.38  0.7  0.394265890521
0.38  0.72  0.335722476258
0.38  0.74  0.285872006113
0.38  0.76  0.243423689679
0.38  0.78  0.207278402326
0.38  0.8  0.176500225297
0.38  0.82  0.150292211732
0.38  0.84  0.127975751132
0.38  0.86  0.108972997928
0.38  0.88  0.0927919091897
0.38  0.9  0.0790135040308
0.38  0.92  0.0672810148401
0.38  0.94  0.0572906494078
0.38  0.96  0.0487837247605
0.38  0.98  0.0415399690196
0.4  -1  0.0287106926048
0.4  -0.98  0.0337172742006
0.4  -0.96  0.0395969054166
0.4  -0.94  0.0465018289807
0.4  -0.92  0.0546108357661
0.4  -0.9  0.064133894267
0.4  -0.88  0.0753175873643
0.4  -0.86  0.0884514971563
0.4  -0.84  0.103875703179
0.4  -0.82  0.121989588167
0.4  -0.8  0.143262179372
0.4  -0.78  0.168244293196
0.4  -0.76  0.197582797617
0.4  -0.74  0.232037361699
0.4  -0.72  0.27250012589
0.4  -0.7  0.32001880243
0.4  -0.68  0.375823804023
0.4  -0.66  0.441360103213
0.4  -0.64  0.518324647408
0.4  -0.62  0.608710298359
0.4  -0.6  0.714857433814
0.4  -0.58  0.83951454749
0.4  -0.56  0.985909416493
0.4  -0.54  1.15783267894
0.4  -0.52  1.35973598588
0.4  -0.5  1.59684726897
0.4  -0.48  1.87530610862
0.4  -0.46  2.20232270759
0.4  -0.44  2.58636458661
0.4  -0.42  3.03737583589
0.4  -0.4  3.56703459991
0.4  -0.38  4.1890554625
0.4  -0.36  4.91954456184
0.4  -0.34  5.77741663069
0.4  -0.32  6.78488476016
0.4  -0.3  7.96803556872
0.4  -0.28  9.35750466938
0.4  -0.26  10.9892699251
0.4  -0.24  12.9055830324
0.4  -0.22  15.1560635548
0.4  -0.2  13.2256813707
0.4  -0.18  13.2320895538
0.4  -0.16  13.1539809998
0.4  -0.14  12.9985608591
0.4  -0.12  12.7805214639
0.4  -0.1  12.5213173068
0.4  -0.08  12.2478362984
0.4  -0.06  11.9902340334
0.4  -0.04  11.7787669217
0.4  -0.02  11.6397467487
0.4  6.17561557e-16  11.591253279
0.4  0.02  11.6397467487
0.4  0.04  11.7787669217
0.4  0.06  11.9902340334
0.4  0.08  12.2478362984
0.4  0.1  12.5213173068
0.4  0.12  12.7805214639
0.4  0.14  12.9985608591
0.4  0.16  13.1539809998
0.4  0.18  13.2320895538
0.4  0.2  17.7989837345
0.4  0.22  15.1560635548
0.4  0.24  12.9055830324
0.4  0.26  10.9892699251
0.4  0.28  9.35750466938
0.4  0.3  7.96803556872
0.4  0.32  6.78488476016
0.4  0.34  5.77741663069
0.4  0.36  4.91954456184
0.4  0.38  4.1890554625
0.4  0.4  3.56703459991
0.4  0.42  3.03737583589
0.4  0.44  2.58636458661
0.4  0.46  2.20232270759
0.4  0.48  1.87530610862
0.4  0.5  1.59684726897
0.4  0.52  1.35973598588
0.4  0.54  1.15783267894
0.4  0.56  0.985909416493
0.4  0.58  0.83951454749
0.4  0.6  0.714857433815
0.4  0.62  0.608710298359
0.4  0.64  0.518324647408
0.4  0.66  0.441360103213
0.4  0.68  0.375823804023
0.4  0.7  0.32001880243
0.4  0.72  0.27250012589
0.4  0.74  0.232037361699
0.4  0.76  0.197582797617
0.4  0.78  0.168244293196
0.4  0.8  0.143262179372
0.4  0.82  0.121989588167
0.4  0.84  0.103875703179
0.4  0.86  0.0884514971563
0.4  0.88  0.0753175873643
0.4  0.9  0.064133894267
0.4  0.92  0.0546108357661
0.4  0.94  0.0465018289807
0.4  0.96  0.0395969054166
0.4  0.98  0.0337172742006
0.42  -1  0.0233039724846
0.42  -0.98  0.0273677281507
0.42  -0.96  0.0321401230895
0.42  -0.94  0.0377447300895
0.42  -0.92  0.0443266706092
0.42  -0.9  0.0520563724429
0.42  -0.88  0.0611339826491
0.42  -0.86  0.0717945500071
0.42  -0.84  0.0843141111926
0.42  -0.82  0.0990168382627
0.42  -0.8  0.116283432522
0.42  -0.78  0.136560982116
0.42  -0.76  0.16037453859
0.42  -0.74  0.188340712183
0.42  -0.72  0.221183637859
0.42  -0.7  0.259753725521
0.42  -0.68  0.305049679873
0.42  -0.66  0.358244360129
0.42  -0.64  0.420715149145
0.42  -0.62  0.494079618327
0.42  -0.6  0.580237411802
0.42  -0.58  0.681419434371
0.42  -0.56  0.80024561687
0.42  -0.54  0.939792754679
0.42  -0.52  1.10367417594
0.42  -0.5  1.29613330234
0.42  -0.48  1.52215352506
0.42  -0.46  1.78758724098
0.42  -0.44  2.09930739015
0.42  -0.42  2.46538541857
0.42  -0.4  2.89530027409
0.42  -0.38  3.40018384713
0.42  -0.36  3.9931092114
0.42  -0.34  4.68942912827
0.42  -0.32  5.50717357949
0.42  -0.3  6.46751662197
0.42  -0.28  7.59532465279
0.42  -0.26  8.91980028088
0.42  -0.24  10.4752384773
0.42  -0.22  12.3019145835
0.42  -0.2  10.7350567608
0.42  -0.18  10.7402581721
0.42  -0.16  10.6768588101
0.42  -0.14  10.5507069707
0.42  -0.12  10.3737281658
0.42  -0.1  10.1633366358
0.42  -0.08  9.94135683257
0.42  -0.06  9.73226553067
0.42  -0.04  9.56062133449
0.42  -0.02  9.44778106519
0.42  6.17561557e-16  9.4084197548
0.42  0.02  9.44778106519
0.42  0.04  9.56062133449
0.42  0.06  9.73226553067
0.42  0.08  9.94135683257
0.42  0.1  10.1633366358
0.42  0.12  10.3737281658
0.42  0.14  10.5507069707
0.42  0.16  10.6768588101
0.42  0.18  10.7402581721
0.42  0.2  14.4471271701
0.42  0.22  12.3019145835
0.42  0.24  10.4752384773
0.42  0.26  8.91980028089
0.42  0.28  7.59532465279
0.42  0.3  6.46751662198
0.42  0.32  5.50717357949
0.42  0.34  4.68942912827
0.42  0.36  3.9931092114
0.42  0.38  3.40018384713
0.42  0.4  2.89530027409
0.42  0.42  2.46538541857
0.42  0.44  2.09930739015
0.42  0.46  1.78758724098
0.42  0.48  1.52215352506
0.42  0.5  1.29613330234
0.42  0.52  1.10367417594
0.42  0.54  0.939792754679
0.42  0.56  0.80024561687
0.42  0.58  0.681419434371
0.42  0.6  0.580237411802
0.42  0.62  0.494079618327
0.42  0.64  0.420715149145
0.42  0.66  0.358244360129
0.42  0.68  0.305049679873
0.42  0.7  0.259753725521
0.42  0.72  0.221183637859
0.42  0.74  0.188340712183
0.42  0.76  0.16037453859
0.42  0.78  0.136560982116
0.42  0.8  0.116283432522
0.42  0.82  0.0990168382627
0.42  0.84  0.0843141111926
0.42  0.86  0.0717945500071
0.42  0.88  0.0611339826491
0.42  0.9  0.0520563724429
0.42  0.92  0.0443266706092
0.42  0.94  0.0377447300895
0.42  0.96  0.0321401230895
0.42  0.98  0.0273677281507
0.44  -1  0.0189154313008
0.44  -0.98  0.0222139114709
0.44  -0.96  0.026087581879
0.44  -0.94  0.0306367444197
0.44  -0.92  0.0359791916702
0.44  -0.9  0.0422532569227
0.44  -0.88  0.0496213960819
0.44  -0.86  0.0582743941757
0.44  -0.84  0.0684363053982
0.44  -0.82  0.0803702545999
0.44  -0.8  0.0943852504437
0.44  -0.78  0.110844186642
0.44  -0.76  0.130173238451
0.44  -0.74  0.152872897734
0.44  -0.72  0.179530932314
0.44  -0.7  0.210837605196
0.44  -0.68  0.247603547711
0.44  -0.66  0.290780749393
0.44  -0.64  0.341487208076
0.44  -0.62  0.401035878486
0.44  -0.6  0.470968668896
0.44  -0.58  0.553096366139
0.44  -0.56  0.649545522749
0.44  -0.54  0.762813520306
0.44  -0.52  0.89583323475
0.44  -0.5  1.05204897805
0.44  -0.48  1.23550568263
0.44  -0.46  1.45095363776
0.44  -0.44  1.70397149
0.44  -0.42  2.00111069242
0.44  -0.4  2.35006514301
0.44  -0.38  2.75987040462
0.44  -0.36  3.24113766503
0.44  -0.34  3.80632849503
0.44  -0.32  4.47007751889
0.44  -0.3  5.24957135228
0.44  -0.28  6.16499361951
0.44  -0.26  7.24004757305
0.44  -0.24  8.50256984762
0.44  -0.22  9.98525124099
0.44  -0.2  8.71345985336
0.44  -0.18  8.71768174896
0.44  -0.16  8.66622158363
0.44  -0.14  8.56382631808
0.44  -0.12  8.42017568388
0.44  -0.1  8.24940451883
0.44  -0.08  8.06922735285
0.44  -0.06  7.89951156044
0.44  -0.04  7.76019093589
0.44  -0.02  7.66860044147
0.44  6.17561557e-16  7.63665154678
0.44  0.02  7.66860044147
0.44  0.04  7.76019093589
0.44  0.06  7.89951156044
0.44  0.08  8.06922735285
0.44  0.1  8.24940451883
0.44  0.12  8.42017568388
0.44  0.14  8.56382631808
0.44  0.16  8.66622158363
0.44  0.18  8.71768174896
0.44  0.2  11.7264831848
0.44  0.22  9.985251241
0.44  0.24  8.50256984762
0.44  0.26  7.24004757305
0.44  0.28  6.16499361951
0.44  0.3  5.24957135228
0.44  0.32  4.47007751889
0.44  0.34  3.80632849503
0.44  0.36  3.24113766503
0.44  0.38  2.75987040462
0.44  0.4  2.35006514301
0.44  0.42  2.00111069242
0.44  0.44  1.70397149
0.44  0.46  1.45095363776
0.44  0.48  1.23550568263
0.44  0.5  1.05204897805
0.44  0.52  0.89583323475
0.44  0.54  0.762813520306
0.44  0.56  0.649545522749
0.44  0.58  0.553096366139
0.44  0.6  0.470968668896
0.44  0.62  0.401035878486
0.44  0.64  0.341487208076
0.44  0.66  0.290780749393
0.44  0.68  0.247603547711
0.44  0.7  0.210837605196
0.44  0.72  0.179530932314
0.44  0.74  0.152872897734
0.44  0.76  0.130173238451
0.44  0.78  0.110844186642
0.44  0.8  0.0943852504437
0.44  0.82  0.0803702545999
0.44  0.84  0.0684363053982
0.44  0.86  0.0582743941758
0.44  0.88  0.0496213960819
0.44  0.9  0.0422532569227
0.44  0.92  0.0359791916702
0.44  0.94  0.0306367444197
0.44  0.96  0.026087581879
0.44  0.98  0.0222139114709
0.46  -1  0.0153533283448
0.46  -0.98  0.0180306476343
0.46  -0.96  0.021174838889
0.46  -0.94  0.0248673154215
0.46  -0.92  0.029203687429
0.46  -0.9  0.0342962376514
0.46  -0.88  0.0402768287362
0.46  -0.86  0.0473003175898
0.46  -0.84  0.0555485651253
0.46  -0.82  0.0652351452317
0.46  -0.8  0.076610874895
0.46  -0.78  0.0899703086629
0.46  -0.76  0.105659365619
0.46  -0.74  0.124084286348
0.46  -0.72  0.145722151826
0.46  -0.7  0.171133236591
0.46  -0.68  0.200975516069
0.46  -0.66  0.236021703697
0.46  -0.64  0.277179258975
0.46  -0.62  0.325513884538
0.46  -0.6  0.382277120658
0.46  -0.58  0.44893875168
0.46  -0.56  0.527224863503
0.46  -0.54  0.619162537553
0.46  -0.52  0.727132338491
0.46  -0.5  0.853929954755
0.46  -0.48  1.00283858801
