-0.28  0.16  1.0463101301
-0.28  0.18  1.02694550932
-0.28  0.2  1.40805540337
-0.28  0.22  1.13152813829
-0.28  0.24  0.90930791834
-0.28  0.26  0.730729411293
-0.28  0.28  0.587221843954
-0.28  0.3  0.471897652794
-0.28  0.32  0.379221919288
-0.28  0.34  0.30474672467
-0.28  0.36  0.244897674617
-0.28  0.38  0.196802348237
-0.28  0.4  0.158152437879
-0.28  0.42  0.127092963226
-0.28  0.44  0.102133242573
-0.28  0.46  0.0820753484201
-0.28  0.48  0.0659566136213
-0.28  0.5  0.053003428729
-0.28  0.52  0.0425941130507
-0.28  0.54  0.0342290774405
-0.28  0.56  0.0275068468038
-0.28  0.58  0.02210479153
-0.28  0.6  0.0177636430693
-0.28  0.62  0.0142750504869
-0.28  0.64  0.0114715807793
-0.28  0.66  0.00921868302298
-0.28  0.68  0.00740823068008
-0.28  0.7  0.005953332127
-0.28  0.72  0.00478416034069
-0.28  0.74  0.0038446015907
-0.28  0.76  0.00308956229278
-0.28  0.78  0.00248280476814
-0.28  0.8  0.00199520803678
-0.28  0.82  0.00160337017276
-0.28  0.84  0.00128848514216
-0.28  0.86  0.00103544021822
-0.28  0.88  0.00083209065469
-0.28  0.9  0.000668676805713
-0.28  0.92  0.000537355717166
-0.28  0.94  0.000431824708595
-0.28  0.96  0.000347018879666
-0.28  0.98  0.000278868023176
-0.26  -1  0.000282760352928
-0.26  -0.98  0.000351862432161
-0.26  -0.96  0.000437851947363
-0.26  -0.94  0.000544855916081
-0.26  -0.92  0.000678009932528
-0.26  -0.9  0.000843704647482
-0.26  -0.88  0.00104989248392
-0.26  -0.86  0.00130646930899
-0.26  -0.84  0.00162574938052
-0.26  -0.82  0.00202305636271
-0.26  -0.8  0.00251745877671
-0.26  -0.78  0.00313268518329
-0.26  -0.76  0.00389826302159
-0.26  -0.74  0.00485093576161
-0.26  -0.72  0.00603642638604
-0.26  -0.7  0.00751163183864
-0.26  -0.68  0.00934735376046
-0.26  -0.66  0.0116316965741
-0.26  -0.64  0.0144742960049
-0.26  -0.62  0.018011580985
-0.26  -0.6  0.0224133214817
-0.26  -0.58  0.0278907765099
-0.26  -0.56  0.0347068333875
-0.26  -0.54  0.0431886248616
-0.26  -0.52  0.0537432296578
-0.26  -0.5  0.0668772099901
-0.26  -0.48  0.0832209237245
-0.26  -0.46  0.103558778044
-0.26  -0.44  0.128866876621
-0.26  -0.42  0.160359867158
-0.26  -0.4  0.199549237703
-0.26  -0.38  0.248315859657
-0.26  -0.36  0.309000259119
-0.26  -0.34  0.384514949095
-0.26  -0.32  0.478484213894
-0.26  -0.3  0.595418054577
-0.26  -0.28  0.740928643875
-0.26  -0.26  0.921999679207
-0.26  -0.24  1.14732156124
-0.26  -0.22  1.42770848469
-0.26  -0.2  1.29182960987
-0.26  -0.18  1.2957510886
-0.26  -0.16  1.32018444775
-0.26  -0.14  1.36158118099
-0.26  -0.12  1.41436804539
-0.26  -0.1  1.47214106202
-0.26  -0.08  1.52865664117
-0.26  -0.06  1.57845431086
-0.26  -0.04  1.61716928062
-0.26  -0.02  1.64165719094
-0.26  6.17561557e-16  1.65002951826
-0.26  0.02  1.64165719094
-0.26  0.04  1.61716928062
-0.26  0.06  1.57845431086
-0.26  0.08  1.52865664117
-0.26  0.1  1.47214106202
-0.26  0.12  1.41436804539
-0.26  0.14  1.36158118099
-0.26  0.16  1.32018444775
-0.26  0.18  1.2957510886
-0.26  0.2  1.77661745942
-0.26  0.22  1.42770848469
-0.26  0.24  1.14732156124
-0.26  0.26  0.921999679208
-0.26  0.28  0.740928643875
-0.26  0.3  0.595418054577
-0.26  0.32  0.478484213894
-0.26  0.34  0.384514949095
-0.26  0.36  0.309000259119
-0.26  0.38  0.248315859657
-0.26  0.4  0.199549237703
-0.26  0.42  0.160359867158
-0.26  0.44  0.128866876621
-0.26  0.46  0.103558778044
-0.26  0.48  0.0832209237245
-0.26  0.5  0.0668772099901
-0.26  0.52  0.0537432296579
-0.26  0.54  0.0431886248617
-0.26  0.56  0.0347068333875
-0.26  0.58  0.0278907765099
-0.26  0.6  0.0224133214817
-0.26  0.62  0.018011580985
-0.26  0.64  0.0144742960049
-0.26  0.66  0.0116316965741
-0.26  0.68  0.00934735376046
-0.26  0.7  0.00751163183865
-0.26  0.72  0.00603642638605
-0.26  0.74  0.00485093576161
-0.26  0.76  0.00389826302159
-0.26  0.78  0.0031326851833
-0.26  0.8  0.00251745877671
-0.26  0.82  0.00202305636271
-0.26  0.84  0.00162574938052
-0.26  0.86  0.00130646930899
-0.26  0.88  0.00104989248392
-0.26  0.9  0.000843704647483
-0.26  0.92  0.000678009932528
-0.26  0.94  0.000544855916082
-0.26  0.96  0.000437851947364
-0.26  0.98  0.000351862432161
-0.24  -1  0.00035677358905
-0.24  -0.98  0.000443963311951
-0.24  -0.96  0.000552460799812
-0.24  -0.94  0.000687473327442
-0.24  -0.92  0.0008554807438
-0.24  -0.9  0.00106454646864
-0.24  -0.88  0.00132470449173
-0.24  -0.86  0.00164844094841
-0.24  -0.84  0.00205129338458
-0.24  -0.82  0.00255259647225
-0.24  -0.8  0.00317640996609
-0.24  -0.78  0.00395267343755
-0.24  -0.76  0.0049186432075
-0.24  -0.74  0.00612068044195
-0.24  -0.72  0.00761647622975
-0.24  -0.7  0.00947782043328
-0.24  -0.68  0.0117940472019
-0.24  -0.66  0.0146763225131
-0.24  -0.64  0.0182629795202
-0.24  -0.62  0.0227261577726
-0.24  -0.6  0.0282800649553
-0.24  -0.58  0.0351912576633
-0.24  -0.56  0.0437914346337
-0.24  -0.54  0.054493356436
-0.24  -0.52  0.0678106556795
-0.24  -0.5  0.0843824885166
-0.24  -0.48  0.105004210576
-0.24  -0.46  0.1306655496
-0.24  -0.44  0.162598106863
-0.24  -0.42  0.202334467167
-0.24  -0.4  0.251781754374
-0.24  -0.38  0.313313162721
-0.24  -0.36  0.389881856922
-0.24  -0.34  0.485162707614
-0.24  -0.32  0.603728664671
-0.24  -0.3  0.751270233317
-0.24  -0.28  0.934868586662
-0.24  -0.26  1.16333542255
-0.24  -0.24  1.44763587597
-0.24  -0.22  1.80141478438
-0.24  -0.2  1.6299692711
-0.24  -0.18  1.63491720677
-0.24  -0.16  1.66574605935
-0.24  -0.14  1.71797849203
-0.24  -0.12  1.78458245142
-0.24  -0.1  1.85747770098
-0.24  -0.08  1.92878637564
-0.24  -0.06  1.99161871107
-0.24  -0.04  2.04046742188
-0.24  -0.02  2.07136510455
-0.24  6.17561557e-16  2.08192890967
-0.24  0.02  2.07136510455
-0.24  0.04  2.04046742188
-0.24  0.06  1.99161871107
-0.24  0.08  1.92878637564
-0.24  0.1  1.85747770098
-0.24  0.12  1.78458245142
-0.24  0.14  1.71797849203
-0.24  0.16  1.66574605935
-0.24  0.18  1.63491720677
-0.24  0.2  2.24165156396
-0.24  0.22  1.80141478439
-0.24  0.24  1.44763587597
-0.24  0.26  1.16333542255
-0.24  0.28  0.934868586663
-0.24  0.3  0.751270233318
-0.24  0.32  0.603728664672
-0.24  0.34  0.485162707614
-0.24  0.36  0.389881856922
-0.24  0.38  0.313313162722
-0.24  0.4  0.251781754374
-0.24  0.42  0.202334467167
-0.24  0.44  0.162598106863
-0.24  0.46  0.1306655496
-0.24  0.48  0.105004210576
-0.24  0.5  0.0843824885166
-0.24  0.52  0.0678106556796
-0.24  0.54  0.054493356436
-0.24  0.56  0.0437914346337
-0.24  0.58  0.0351912576633
-0.24  0.6  0.0282800649553
-0.24  0.62  0.0227261577726
-0.24  0.64  0.0182629795202
-0.24  0.66  0.0146763225131
-0.24  0.68  0.0117940472019
-0.24  0.7  0.00947782043328
-0.24  0.72  0.00761647622975
-0.24  0.74  0.00612068044196
-0.24  0.76  0.0049186432075
-0.24  0.78  0.00395267343755
-0.24  0.8  0.00317640996609
-0.24  0.82  0.00255259647226
-0.24  0.84  0.00205129338458
-0.24  0.86  0.00164844094841
-0.24  0.88  0.00132470449173
-0.24  0.9  0.00106454646864
-0.24  0.92  0.000855480743801
-0.24  0.94  0.000687473327442
-0.24  0.96  0.000552460799813
-0.24  0.98  0.000443963311951
-0.22  -1  0.000450159976553
-0.22  -0.98  0.000560171829507
-0.22  -0.96  0.000697068808685
-0.22  -0.94  0.000867421206221
-0.22  -0.92  0.0010794049879
-0.22  -0.9  0.00134319419394
-0.22  -0.88  0.00167144923626
-0.22  -0.86  0.00207992452766
-0.22  -0.84  0.00258822460588
-0.22  -0.82  0.00322074504213
-0.22  -0.8  0.00400784329261
-0.22  -0.78  0.00498729568717
-0.22  -0.76  0.0062061104827
-0.22  -0.74  0.00772278399746
-0.22  -0.72  0.0096101081084
-0.22  -0.7  0.0119586638556
-0.22  -0.68  0.0148811688275
-0.22  -0.66  0.0185178869769
-0.22  -0.64  0.023043360509
-0.22  -0.62  0.028674786935
-0.22  -0.6  0.0356824433419
-0.22  -0.58  0.0444026581865
-0.22  -0.56  0.0552539531874
-0.22  -0.54  0.0687571300353
-0.22  -0.52  0.0855602659714
-0.22  -0.5  0.106469817884
-0.22  -0.48  0.132489327746
-0.22  -0.46  0.164867587034
-0.22  -0.44  0.205158571765
-0.22  -0.42  0.255296024681
-0.22  -0.4  0.31768626413
-0.22  -0.38  0.395323673929
-0.22  -0.36  0.491934417112
-0.22  -0.34  0.61215527098
-0.22  -0.32  0.761756166582
-0.22  -0.3  0.947917113246
-0.22  -0.28  1.17957279902
-0.22  -0.26  1.4678414059
-0.22  -0.24  1.82655822063
-0.22  -0.22  2.27293965133
-0.22  -0.2  2.05661784218
-0.22  -0.18  2.06286091251
-0.22  -0.16  2.10175929507
-0.22  -0.14  2.16766369884
-0.22  -0.12  2.25170141272
-0.22  -0.1  2.34367717786
-0.22  -0.08  2.4336510781
-0.22  -0.06  2.51292993593
-0.22  -0.04  2.57456492011
-0.22  -0.02  2.6135501492
-0.22  6.17561557e-16  2.62687905699
-0.22  0.02  2.6135501492
-0.22  0.04  2.57456492011
-0.22  0.06  2.51292993593
-0.22  0.08  2.4336510781
-0.22  0.1  2.34367717786
-0.22  0.12  2.25170141272
-0.22  0.14  2.16766369884
-0.22  0.16  2.10175929507
-0.22  0.18  2.06286091251
-0.22  0.2  2.8284095192
-0.22  0.22  2.27293965133
-0.22  0.24  1.82655822063
-0.22  0.26  1.4678414059
-0.22  0.28  1.17957279902
-0.22  0.3  0.947917113246
-0.22  0.32  0.761756166582
-0.22  0.34  0.61215527098
-0.22  0.36  0.491934417112
-0.22  0.38  0.395323673929
-0.22  0.4  0.31768626413
-0.22  0.42  0.255296024681
-0.22  0.44  0.205158571765
-0.22  0.46  0.164867587034
-0.22  0.48  0.132489327746
-0.22  0.5  0.106469817884
-0.22  0.52  0.0855602659714
-0.22  0.54  0.0687571300353
-0.22  0.56  0.0552539531875
-0.22  0.58  0.0444026581865
-0.22  0.6  0.0356824433419
-0.22  0.62  0.028674786935
-0.22  0.64  0.023043360509
-0.22  0.66  0.0185178869769
-0.22  0.68  0.0148811688275
-0.22  0.7  0.0119586638556
-0.22  0.72  0.00961010810841
-0.22  0.74  0.00772278399747
-0.22  0.76  0.00620611048271
-0.22  0.78  0.00498729568718
-0.22  0.8  0.00400784329261
-0.22  0.82  0.00322074504214
-0.22  0.84  0.00258822460588
-0.22  0.86  0.00207992452766
-0.22  0.88  0.00167144923626
-0.22  0.9  0.00134319419394
-0.22  0.92  0.0010794049879
-0.22  0.94  0.000867421206221
-0.22  0.96  0.000697068808686
-0.22  0.98  0.000560171829508
-0.2  -1  0.00056799048671
-0.2  -0.98  0.000706798219867
-0.2  -0.96  0.000879528328901
-0.2  -0.94  0.0010944708965
-0.2  -0.92  0.00136194196811
-0.2  -0.9  0.00169477866469
-0.2  -0.88  0.00210895529292
-0.2  -0.86  0.00262435002292
-0.2  -0.84  0.00326569892967
-0.2  -0.82  0.00406378318672
-0.2  -0.8  0.00505690639106
-0.2  -0.78  0.00629273292223
-0.2  -0.76  0.00783057556703
-0.2  -0.74  0.00974424220266
-0.2  -0.72  0.0121255781636
-0.2  -0.7  0.0150888743059
-0.2  -0.68  0.0187763523312
-0.2  -0.66  0.0233649906359
-0.2  -0.64  0.0290750182883
-0.2  -0.62  0.0361804847962
-0.2  -0.6  0.0450224129563
-0.2  -0.58  0.056025166048
-0.2  -0.56  0.0697168149064
-0.2  -0.54  0.0867544823789
-0.2  -0.52  0.107955881561
-0.2  -0.5  0.134338561467
-0.2  -0.48  0.167168743713
-0.2  -0.46  0.208022094099
-0.2  -0.44  0.258859345786
-0.2  -0.42  0.32212040356
-0.2  -0.4  0.40084144567
-0.2  -0.38  0.498800643457
-0.2  -0.36  0.620699492532
-0.2  -0.34  0.772388458362
-0.2  -0.32  0.961147766011
-0.2  -0.3  1.19603681037
-0.2  -0.28  1.48832895664
-0.2  -0.26  1.85205259902
-0.2  -0.24  2.30466444547
-0.2  -0.22  2.86788734242
-0.2  -0.2  2.59494275368
-0.2  -0.18  2.60281996343
-0.2  -0.16  2.65190009582
-0.2  -0.14  2.73505514363
-0.2  -0.12  2.84108994125
-0.2  -0.1  2.95714059508
-0.2  -0.08  3.07066539082
-0.2  -0.06  3.17069568981
-0.2  -0.04  3.24846378667
-0.2  -0.02  3.29765349789
-0.2  6.17561557e-16  3.31447128092
-0.2  0.02  3.29765349789
-0.2  0.04  3.24846378667
-0.2  0.06  3.17069568981
-0.2  0.08  3.07066539082
-0.2  0.1  2.95714059508
-0.2  0.12  2.84108994125
-0.2  0.14  2.73505514363
-0.2  0.16  2.65190009582
-0.2  0.18  2.60281996343
-0.2  0.2  3.56875285033
-0.2  0.22  2.86788734243
-0.2  0.24  2.30466444548
-0.2  0.26  1.85205259902
-0.2  0.28  1.48832895664
-0.2  0.3  1.19603681037
-0.2  0.32  0.961147766011
-0.2  0.34  0.772388458363
-0.2  0.36  0.620699492533
-0.2  0.38  0.498800643457
-0.2  0.4  0.40084144567
-0.2  0.42  0.32212040356
-0.2  0.44  0.258859345786
-0.2  0.46  0.208022094099
-0.2  0.48  0.167168743713
-0.2  0.5  0.134338561467
-0.2  0.52  0.107955881561
-0.2  0.54  0.0867544823789
-0.2  0.56  0.0697168149064
-0.2  0.58  0.0560251660481
-0.2  0.6  0.0450224129563
-0.2  0.62  0.0361804847962
-0.2  0.64  0.0290750182883
-0.2  0.66  0.0233649906359
-0.2  0.68  0.0187763523312
-0.2  0.7  0.0150888743059
-0.2  0.72  0.0121255781636
-0.2  0.74  0.00974424220267
-0.2  0.76  0.00783057556703
-0.2  0.78  0.00629273292223
-0.2  0.8  0.00505690639106
-0.2  0.82  0.00406378318672
-0.2  0.84  0.00326569892967
-0.2  0.86  0.00262435002292
-0.2  0.88  0.00210895529292
-0.2  0.9  0.00169477866469
-0.2  0.92  0.00136194196811
-0.2  0.94  0.0010944708965
-0.2  0.96  0.000879528328902
-0.2  0.98  0.000706798219868
-0.18  -1  0.000716663430329
-0.18  -0.98  0.000891804438019
-0.18  -0.96  0.0011097470891
-0.18  -0.94  0.00138095141632
-0.18  -0.92  0.00171843371608
-0.18  -0.9  0.00213839125814
-0.18  -0.88  0.00266097966427
-0.18  -0.86  0.00331128026581
-0.18  -0.84  0.00412050386779
-0.18  -0.82  0.00512748869365
-0.18  -0.8  0.00638056440356
-0.18  -0.78  0.00793987164875
-0.18  -0.76  0.00988024848764
-0.18  -0.74  0.0122948221956
-0.18  -0.72  0.0152994788554
-0.18  -0.7  0.0190384252428
-0.18  -0.68  0.0236911099491
-0.18  -0.66  0.0294808359128
-0.18  -0.64  0.0366854777165
-0.18  -0.62  0.0456508180184
-0.18  -0.6  0.0568071431932
-0.18  -0.58  0.0706898946799
-0.18  -0.56  0.0879653671874
-0.18  -0.54  0.109462687127
-0.18  -0.52  0.136213606062
-0.18  -0.5  0.169502019028
-0.18  -0.48  0.210925584347
-0.18  -0.46  0.262472402319
-0.18  -0.44  0.326616432958
-0.18  -0.42  0.406436232289
-0.18  -0.4  0.505762705878
-0.18  -0.38  0.629362970955
-0.18  -0.36  0.783169151473
-0.18  -0.34  0.974563087003
-0.18  -0.32  1.21273061989
-0.18  -0.3  1.50910246452
-0.18  -0.28  1.87790281788
-0.18  -0.26  2.33683204177
-0.18  -0.24  2.90791618152
-0.18  -0.22  3.61856409343
-0.18  -0.2  3.27417556962
-0.18  -0.18  3.2841146589
-0.18  -0.16  3.34604163983
-0.18  -0.14  3.4509627313
-0.18  -0.12  3.58475240486
-0.18  -0.1  3.73117961026
-0.18  -0.08  3.87441980785
-0.18  -0.06  4.00063329009
-0.18  -0.04  4.09875738261
-0.18  -0.02  4.1608226249
-0.18  6.17561557e-16  4.1820425051
-0.18  0.02  4.1608226249
-0.18  0.04  4.09875738261
-0.18  0.06  4.00063329009
-0.18  0.08  3.87441980785
-0.18  0.1  3.73117961026
-0.18  0.12  3.58475240486
-0.18  0.14  3.4509627313
-0.18  0.16  3.34604163983
-0.18  0.18  3.2841146589
-0.18  0.2  4.50288291716
-0.18  0.22  3.61856409343
-0.18  0.24  2.90791618152
-0.18  0.26  2.33683204177
-0.18  0.28  1.87790281788
-0.18  0.3  1.50910246452
-0.18  0.32  1.2127306199
-0.18  0.34  0.974563087003
-0.18  0.36  0.783169151474
-0.18  0.38  0.629362970955
-0.18  0.4  0.505762705878
-0.18  0.42  0.406436232289
-0.18  0.44  0.326616432959
-0.18  0.46  0.262472402319
-0.18  0.48  0.210925584347
-0.18  0.5  0.169502019028
-0.18  0.52  0.136213606062
-0.18  0.54  0.109462687127
-0.18  0.56  0.0879653671874
-0.18  0.58  0.07068989468
-0.18  0.6  0.0568071431933
-0.18  0.62  0.0456508180185
-0.18  0.64  0.0366854777165
-0.18  0.66  0.0294808359128
-0.18  0.68  0.0236911099492
-0.18  0.7  0.0190384252428
-0.18  0.72  0.0152994788554
-0.18  0.74  0.0122948221956
-0.18  0.76  0.00988024848765
-0.18  0.78  0.00793987164876
-0.18  0.8  0.00638056440357
-0.18  0.82  0.00512748869366
-0.18  0.84  0.00412050386779
-0.18  0.86  0.00331128026581
-0.18  0.88  0.00266097966427
-0.18  0.9  0.00213839125814
-0.18  0.92  0.00171843371608
-0.18  0.94  0.00138095141632
-0.18  0.96  0.0011097470891
-0.18  0.98  0.000891804438019
-0.16  -1  0.00090425189222
-0.16  -0.98  0.00112523650076
-0.16  -0.96  0.00140022619089
-0.16  -0.94  0.00174241893534
-0.16  -0.92  0.00216823807894
-0.16  -0.9  0.00269812056769
-0.16  -0.88  0.00335749780824
-0.16  -0.86  0.00417801623372
-0.16  -0.84  0.00519905615616
-0.16  -0.82  0.00646962180203
-0.16  -0.8  0.00805069324203
-0.16  -0.78  0.0100181530946
-0.16  -0.76  0.012466428469
-0.16  -0.74  0.01551302294
-0.16  -0.72  0.0193041560647
-0.16  -0.7  0.024021781107
-0.16  -0.68  0.0298923177795
-0.16  -0.66  0.0371975191286
-0.16  -0.64  0.0462879941103
-0.16  -0.62  0.0576000348666
-0.16  -0.6  0.0716765563167
-0.16  -0.58  0.0891931530479
-0.16  -0.56  0.110990524091
-0.16  -0.54  0.138114821789
-0.16  -0.52  0.171867861279
-0.16  -0.5  0.213869600366
-0.16  -0.48  0.266135888469
-0.16  -0.46  0.331175216159
-0.16  -0.44  0.412109108731
-0.16  -0.42  0.512821942018
-0.16  -0.4  0.638147370789
-0.16  -0.38  0.794100317241
-0.16  -0.36  0.988165653748
-0.16  -0.34  1.22965743502
-0.16  -0.32  1.53016592083
-0.16  -0.3  1.90411384389
-0.16  -0.28  2.36944862067
-0.16  -0.26  2.94850372734
-0.16  -0.24  3.66907058219
-0.16  -0.22  4.56573237887
-0.16  -0.2  4.13119928964
-0.16  -0.18  4.14373996064
-0.16  -0.16  4.22187648514
-0.16  -0.14  4.35426093715
-0.16  -0.12  4.52307039546
-0.16  -0.1  4.7078252915
-0.16  -0.08  4.88855897237
-0.16  -0.06  5.04780915217
-0.16  -0.04  5.1716174736
-0.16  -0.02  5.24992844972
-0.16  6.17561557e-16  5.27670268713
-0.16  0.02  5.24992844972
-0.16  0.04  5.1716174736
-0.16  0.06  5.04780915217
-0.16  0.08  4.88855897237
-0.16  0.1  4.7078252915
-0.16  0.12  4.52307039546
-0.16  0.14  4.35426093715
-0.16  0.16  4.22187648514
-0.16  0.18  4.14373996064
-0.16  0.2  5.68152388691
-0.16  0.22  4.56573237887
-0.16  0.24  3.6690705822
-0.16  0.26  2.94850372734
-0.16  0.28  2.36944862067
-0.16  0.3  1.90411384389
-0.16  0.32  1.53016592083
-0.16  0.34  1.22965743502
-0.16  0.36  0.988165653748
-0.16  0.38  0.794100317242
-0.16  0.4  0.638147370789
-0.16  0.42  0.512821942018
-0.16  0.44  0.412109108731
-0.16  0.46  0.33117521616
-0.16  0.48  0.266135888469
-0.16  0.5  0.213869600366
-0.16  0.52  0.171867861279
-0.16  0.54  0.138114821789
-0.16  0.56  0.110990524091
-0.16  0.58  0.089193153048
-0.16  0.6  0.0716765563168
-0.16  0.62  0.0576000348667
-0.16  0.64  0.0462879941104
-0.16  0.66  0.0371975191286
-0.16  0.68  0.0298923177795
-0.16  0.7  0.024021781107
-0.16  0.72  0.0193041560647
-0.16  0.74  0.01551302294
-0.16  0.76  0.012466428469
-0.16  0.78  0.0100181530947
-0.16  0.8  0.00805069324203
-0.16  0.82  0.00646962180204
-0.16  0.84  0.00519905615617
-0.16  0.86  0.00417801623372
-0.16  0.88  0.00335749780824
-0.16  0.9  0.00269812056769
-0.16  0.92  0.00216823807894
-0.16  0.94  0.00174241893534
-0.16  0.96  0.00140022619089
-0.16  0.98  0.00112523650076
-0.14  -1  0.00114094210752
-0.14  -0.98  0.00141976999516
-0.14  -0.96  0.00176673893081
-0.14  -0.94  0.00219850148988
-0.14  -0.92  0.00273577986917
-0.14  -0.9  0.00340436043688
-0.14  -0.88  0.00423633133455
-0.14  -0.86  0.00527162252905
-0.14  -0.84  0.0065599222285
-0.14  -0.82  0.00816306163934
-0.14  -0.8  0.0101579825197
-0.14  -0.78  0.012640429955
-0.14  -0.76  0.0157295475886
-0.14  -0.74  0.0195735958525
-0.14  -0.72  0.0243570676422
-0.14  -0.7  0.0303095429475
-0.14  -0.68  0.0377167074125
-0.14  -0.66  0.0469340636545
-0.14  -0.64  0.0584039934089
-0.14  -0.62  0.0726769893871
-0.14  -0.6  0.0904380758587
-0.14  -0.58  0.112539686
-0.14  -0.56  0.140042573934
-0.14  -0.54  0.174266725022
-0.14  -0.52  0.216854707798
-0.14  -0.5  0.269850508112
-0.14  -0.48  0.335797629056
-0.14  -0.46  0.417861164942
-0.14  -0.44  0.519979708188
-0.14  -0.42  0.647054379807
-0.14  -0.4  0.805184055905
-0.14  -0.38  1.00195807975
-0.14  -0.36  1.24682050795
-0.14  -0.34  1.55152337254
-0.14  -0.32  1.93069071305
-0.14  -0.3  2.4025204489
-0.14  -0.28  2.98965777809
-0.14  -0.26  3.72028202058
-0.14  -0.24  4.62945906856
-0.14  -0.22  5.76082435387
-0.14  -0.2  5.21255113169
-0.14  -0.18  5.22837435497
-0.14  -0.16  5.32696331199
-0.14  -0.14  5.49399972848
-0.14  -0.12  5.70699548862
-0.14  -0.1  5.94011044505
-0.14  -0.08  6.1681516231
-0.14  -0.06  6.36908593944
-0.14  -0.04  6.52530140152
-0.14  -0.02  6.62411047331
-0.14  6.17561557e-16  6.65789293494
-0.14  0.02  6.62411047331
-0.14  0.04  6.52530140152
-0.14  0.06  6.36908593944
-0.14  0.08  6.1681516231
-0.14  0.1  5.94011044505
-0.14  0.12  5.70699548862
-0.14  0.14  5.49399972848
-0.14  0.16  5.32696331199
-0.14  0.18  5.22837435497
-0.14  0.2  7.16867710562
-0.14  0.22  5.76082435387
-0.14  0.24  4.62945906856
-0.14  0.26  3.72028202059
-0.14  0.28  2.9896577781
-0.14  0.3  2.4025204489
-0.14  0.32  1.93069071305
-0.14  0.34  1.55152337254
-0.14  0.36  1.24682050795
-0.14  0.38  1.00195807975
-0.14  0.4  0.805184055906
-0.14  0.42  0.647054379807
-0.14  0.44  0.519979708188
-0.14  0.46  0.417861164942
-0.14  0.48  0.335797629056
-0.14  0.5  0.269850508112
-0.14  0.52  0.216854707798
-0.14  0.54  0.174266725022
-0.14  0.56  0.140042573934
-0.14  0.58  0.112539686
-0.14  0.6  0.0904380758588
-0.14  0.62  0.0726769893871
-0.14  0.64  0.058403993409
-0.14  0.66  0.0469340636545
-0.14  0.68  0.0377167074125
-0.14  0.7  0.0303095429475
-0.14  0.72  0.0243570676423
-0.14  0.74  0.0195735958525
-0.14  0.76  0.0157295475886
-0.14  0.78  0.012640429955
-0.14  0.8  0.0101579825197
-0.14  0.82  0.00816306163935
-0.14  0.84  0.00655992222851
-0.14  0.86  0.00527162252906
-0.14  0.88  0.00423633133455
-0.14  0.9  0.00340436043688
-0.14  0.92  0.00273577986917
-0.14  0.94  0.00219850148988
-0.14  0.96  0.00176673893081
-0.14  0.98  0.00141976999516
-0.12  -1  0.00143958658413
-0.12  -0.98  0.00179139837518
-0.12  -0.96  0.00222918730556
-0.12  -0.94  0.00277396480432
-0.12  -0.92  0.00345187715559
-0.12  -0.9  0.00429546037453
-0.12  -0.88  0.00534520175472
-0.12  -0.86  0.00665148303267
-0.12  -0.84  0.00827699843038
-0.12  -0.82  0.0102997636287
-0.12  -0.8  0.012816860085
-0.12  -0.78  0.0159490944027
-0.12  -0.76  0.0198467963744
-0.12  -0.74  0.0246970339746
-0.12  -0.72  0.0307325915797
-0.12  -0.7  0.0382431423214
-0.12  -0.68  0.0475891507823
-0.12  -0.66  0.0592191732871
-0.12  -0.64  0.0736913861072
-0.12  -0.62  0.0917003748105
-0.12  -0.6  0.114110470499
-0.12  -0.58  0.141997232883
-0.12  -0.56  0.176699071157
-0.12  -0.54  0.21988148018
-0.12  -0.52  0.273616974949
-0.12  -0.5  0.340484559767
-0.12  -0.48  0.423693506083
-0.12  -0.46  0.527237379631
-0.12  -0.44  0.656085709339
-0.12  -0.42  0.816422497017
-0.12  -0.4  1.01594301499
-0.12  -0.38  1.26422313627
-0.12  -0.36  1.57317892313
-0.12  -0.34  1.95763853166
-0.12  -0.32  2.43605388065
-0.12  -0.3  3.03138624084
-0.12  -0.28  3.77220824801
-0.12  -0.26  4.69407523021
-0.12  -0.24  5.84123166544
-0.12  -0.22  7.26873466997
-0.12  -0.2  6.57694954794
-0.12  -0.18  6.59691453985
-0.12  -0.16  6.72130940523
-0.12  -0.14  6.93206802537
-0.12  -0.12  7.20081596337
-0.12  -0.1  7.49494934808
-0.12  -0.08  7.7826808801
-0.12  -0.06  8.03621026094
-0.12  -0.04  8.23331551454
-0.12  -0.02  8.35798811029
-0.12  6.17561557e-16  8.40061321653
-0.12  0.02  8.35798811029
-0.12  0.04  8.23331551454
-0.12  0.06  8.03621026094
-0.12  0.08  7.7826808801
-0.12  0.1  7.49494934808
-0.12  0.12  7.20081596337
-0.12  0.14  6.93206802537
-0.12  0.16  6.72130940523
-0.12  0.18  6.59691453985
-0.12  0.2  9.0450964332
-0.12  0.22  7.26873466998
-0.12  0.24  5.84123166544
-0.12  0.26  4.69407523021
-0.12  0.28  3.77220824801
-0.12  0.3  3.03138624084
-0.12  0.32  2.43605388065
-0.12  0.34  1.95763853166
-0.12  0.36  1.57317892313
-0.12  0.38  1.26422313627
-0.12  0.4  1.01594301499
-0.12  0.42  0.816422497017
-0.12  0.44  0.65608570934
-0.12  0.46  0.527237379632
-0.12  0.48  0.423693506083
-0.12  0.5  0.340484559767
-0.12  0.52  0.273616974949
-0.12  0.54  0.21988148018
-0.12  0.56  0.176699071157
-0.12  0.58  0.141997232883
-0.12  0.6  0.114110470499
-0.12  0.62  0.0917003748106
-0.12  0.64  0.0736913861072
-0.12  0.66  0.0592191732871
-0.12  0.68  0.0475891507823
-0.12  0.7  0.0382431423215
-0.12  0.72  0.0307325915798
-0.12  0.74  0.0246970339746
-0.12  0.76  0.0198467963744
-0.12  0.78  0.0159490944027
-0.12  0.8  0.012816860085
-0.12  0.82  0.0102997636287
-0.12  0.84  0.00827699843038
-0.12  0.86  0.00665148303267
-0.12  0.88  0.00534520175472
-0.12  0.9  0.00429546037453
-0.12  0.92  0.00345187715559
-0.12  0.94  0.00277396480432
-0.12  0.96  0.00222918730556
-0.12  0.98  0.00179139837518
-0.1  -1  0.00181640200634
-0.1  -0.98  0.00226030142174
-0.1  -0.96  0.00281268270971
-0.1  -0.94  0.00350005709389
-0.1  -0.92  0.0043554147143
-0.1  -0.9  0.00541980797017
-0.1  -0.88  0.00674432180639
-0.1  -0.86  0.00839252550615
-0.1  -0.84  0.0104435236623
-0.1  -0.82  0.0129957527571
-0.1  -0.8  0.0161717055646
-0.1  -0.78  0.0201238101214
-0.1  -0.76  0.0250417454227
-0.1  -0.74  0.0311615449577
-0.1  -0.72  0.038776925001
-0.1  -0.7  0.0482533813575
-0.1  -0.68  0.0600457311241
-0.1  -0.66  0.0747199413761
-0.1  -0.64  0.0929802924326
-0.1  -0.62  0.115703179387
-0.1  -0.6  0.14397917419
-0.1  -0.58  0.17916536702
-0.1  -0.56  0.222950499057
-0.1  -0.54  0.277436012643
-0.1  -0.52  0.345236908806
-0.1  -0.5  0.429607252738
-0.1  -0.48  0.534596350787
-0.1  -0.46  0.665243094603
-0.1  -0.44  0.827817799851
-0.1  -0.42  1.03012314643
-0.1  -0.4  1.2818686636
-0.1  -0.38  1.59513673334
-0.1  -0.36  1.98496247728
-0.1  -0.34  2.47005535879
-0.1  -0.32  3.073697133
-0.1  -0.3  3.82485924121
-0.1  -0.28  4.75959327874
-0.1  -0.26  5.92276127051
-0.1  -0.24  7.37018879831
-0.1  -0.22  9.17134431759
-0.1  -0.2  8.29848269365
-0.1  -0.18  8.3236735726
-0.1  -0.16  8.48062910799
-0.1  -0.14  8.74655432894
-0.1  -0.12  9.08564771809
-0.1  -0.1  9.4567712587
-0.1  -0.08  9.81981724552
-0.1  -0.06  10.1397085818
-0.1  -0.04  10.388406633
-0.1  -0.02  10.5457125954
-0.1  6.17561557e-16  10.5994949308
-0.1  0.02  10.5457125954
-0.1  0.04  10.388406633
-0.1  0.06  10.1397085818
-0.1  0.08  9.81981724552
-0.1  0.1  9.4567712587
-0.1  0.12  9.08564771809
-0.1  0.14  8.74655432894
-0.1  0.16  8.48062910799
-0.1  0.18  8.3236735726
-0.1  0.2  11.4126732562
-0.1  0.22  9.1713443176
-0.1  0.24  7.37018879832
-0.1  0.26  5.92276127052
-0.1  0.28  4.75959327874
-0.1  0.3  3.82485924121
-0.1  0.32  3.073697133
-0.1  0.34  2.4700553588
-0.1  0.36  1.98496247728
-0.1  0.38  1.59513673334
-0.1  0.4  1.2818686636
-0.1  0.42  1.03012314643
-0.1  0.44  0.827817799852
-0.1  0.46  0.665243094604
-0.1  0.48  0.534596350788
-0.1  0.5  0.429607252738
-0.1  0.52  0.345236908806
-0.1  0.54  0.277436012643
-0.1  0.56  0.222950499057
-0.1  0.58  0.17916536702
-0.1  0.6  0.14397917419
-0.1  0.62  0.115703179387
-0.1  0.64  0.0929802924327
-0.1  0.66  0.0747199413762
-0.1  0.68  0.0600457311242
-0.1  0.7  0.0482533813575
-0.1  0.72  0.038776925001
-0.1  0.74  0.0311615449577
-0.1  0.76  0.0250417454228
-0.1  0.78  0.0201238101214
-0.1  0.8  0.0161717055646
-0.1  0.82  0.0129957527571
-0.1  0.84  0.0104435236623
-0.1  0.86  0.00839252550616
-0.1  0.88  0.00674432180639
-0.1  0.9  0.00541980797017
-0.1  0.92  0.0043554147143
-0.1  0.94  0.00350005709389
-0.1  0.96  0.00281268270971
-0.1  0.98  0.00226030142174
-0.08  -1  0.00229184981646
-0.08  -0.98  0.00285194102433
-0.08  -0.96  0.00354890950875
-0.08  -0.94  0.00441620587307
-0.08  -0.92  0.00549545550971
-0.08  -0.9  0.00683845638705
-0.08  -0.88  0.00850966506323
-0.08  -0.86  0.0105892902418
-0.08  -0.84  0.0131771423425
-0.08  -0.82  0.0163974238452
-0.08  -0.8  0.0204046903168
-0.08  -0.78  0.0253912682172
-0.08  -0.76  0.0315964854976
-0.08  -0.74  0.0393181580084
-0.08  -0.72  0.0489268830008
-0.08  -0.7  0.0608838257291
-0.08  -0.68  0.0757628528134
-0.08  -0.66  0.0942780746395
-0.08  -0.64  0.117318118678
-0.08  -0.62  0.14598877865
-0.08  -0.6  0.181666086466
-0.08  -0.58  0.226062354087
-0.08  -0.56  0.281308354957
-0.08  -0.54  0.350055589256
-0.08  -0.52  0.435603541134
-0.08  -0.5  0.542058035557
-0.08  -0.48  0.674528295035
-0.08  -0.46  0.839372153823
-0.08  -0.44  1.04450119854
-0.08  -0.42  1.29976048024
-0.08  -0.4  1.617401022
-0.08  -0.38  2.01266779974
-0.08  -0.36  2.50453141615
-0.08  -0.34  3.11659858388
-0.08  -0.32  3.87824511619
-0.08  -0.3  4.82602580232
-0.08  -0.28  6.00542883362
-0.08  -0.26  7.47305898331
-0.08  -0.24  9.29935432011
-0.08  -0.22  11.571966843
-0.08  -0.2  10.4706314858
-0.08  -0.18  10.5024161409
-0.08  -0.16  10.7004551838
-0.08  -0.14  11.0359870026
-0.08  -0.12  11.4638389423
-0.08  -0.1  11.9321050065
-0.08  -0.08  12.3901791967
-0.08  -0.06  12.7938028977
-0.08  -0.04  13.1075982916
-0.08  -0.02  13.3060794868
-0.08  6.17561557e-16  13.3739394842
-0.08  0.02  13.3060794868
-0.08  0.04  13.1075982916
-0.08  0.06  12.7938028977
-0.08  0.08  12.3901791967
-0.08  0.1  11.9321050065
-0.08  0.12  11.4638389423
-0.08  0.14  11.0359870026
-0.08  0.16  10.7004551838
-0.08  0.18  10.5024161409
-0.08  0.2  14.3999692889
-0.08  0.22  11.571966843
-0.08  0.24  9.29935432012
-0.08  0.26  7.47305898332
-0.08  0.28  6.00542883362
-0.08  0.3  4.82602580232
-0.08  0.32  3.87824511619
-0.08  0.34  3.11659858388
-0.08  0.36  2.50453141615
-0.08  0.38  2.01266779974
-0.08  0.4  1.617401022
-0.08  0.42  1.29976048024
-0.08  0.44  1.04450119854
-0.08  0.46  0.839372153824
-0.08  0.48  0.674528295035
-0.08  0.5  0.542058035557
-0.08  0.52  0.435603541134
-0.08  0.54  0.350055589257
-0.08  0.56  0.281308354957
-0.08  0.58  0.226062354087
-0.08  0.6  0.181666086466
-0.08  0.62  0.14598877865
-0.08  0.64  0.117318118678
-0.08  0.66  0.0942780746396
-0.08  0.68  0.0757628528134
-0.08  0.7  0.0608838257291
-0.08  0.72  0.0489268830008
-0.08  0.74  0.0393181580084
-0.08  0.76  0.0315964854976
-0.08  0.78  0.0253912682172
-0.08  0.8  0.0204046903168
-0.08  0.82  0.0163974238452
-0.08  0.84  0.0131771423425
-0.08  0.86  0.0105892902418
-0.08  0.88  0.00850966506324
-0.08  0.9  0.00683845638705
-0.08  0.92  0.00549545550971
-0.08  0.94  0.00441620587307
-0.08  0.96  0.00354890950875
-0.08  0.98  0.00285194102433
-0.06  -1  0.00289174729101
-0.06  -0.98  0.00359844378633
-0.06  -0.96  0.00447784553083
-0.06  -0.94  0.00557215890774
-0.06  -0.92  0.00693390486101
-0.06  -0.9  0.008628439608
-0.06  -0.88  0.0107370913736
-0.06  -0.86  0.0133610636921
-0.06  -0.84  0.0166262926124
-0.06  -0.82  0.0206894909271
-0.06  -0.8  0.0257456695128
-0.06  -0.78  0.0320374967657
-0.06  -0.76  0.0398669453324
-0.06  -0.74  0.0496097851141
-0.06  -0.72  0.0617336181275
-0.06  -0.7  0.0768203207967
-0.06  -0.68  0.095593970778
-0.06  -0.66  0.118955598653
-0.06  -0.64  0.148026432376
-0.06  -0.62  0.184201709967
-0.06  -0.6  0.22921764316
-0.06  -0.58  0.285234745896
-0.06  -0.56  0.354941526946
-0.06  -0.54  0.441683523355
-0.06  -0.52  0.549623867576
-0.06  -0.5  0.683943094628
-0.06  -0.48  0.851087778906
-0.06  -0.46  1.05907993383
-0.06  -0.44  1.31790202379
-0.06  -0.42  1.6399760668
-0.06  -0.4  2.04075982215
-0.06  -0.38  2.5394886767
-0.06  -0.36  3.16009883627
-0.06  -0.34  3.93237613013
-0.06  -0.32  4.89338556482
-0.06  -0.3  6.08925023793
-0.06  -0.28  7.57736498973
-0.06  -0.26  9.4291510357
-0.06  -0.24  11.7334837868
-0.06  -0.22  14.6009583742
-0.06  -0.2  13.2113457071
-0.06  -0.18  13.2514500759
-0.06  -0.16  13.5013263383
-0.06  -0.14  13.9246844576
-0.06  -0.12  14.4645277225
-0.06  -0.1  15.0553636109
-0.06  -0.08  15.6333398768
-0.06  -0.06  16.1426131003
-0.06  -0.04  16.5385452307
-0.06  -0.02  16.7889793796
-0.06  6.17561557e-16  16.8746019027
-0.06  0.02  16.7889793796
-0.06  0.04  16.5385452307
-0.06  0.06  16.1426131003
-0.06  0.08  15.6333398768
-0.06  0.1  15.0553636109
-0.06  0.12  14.4645277225
-0.06  0.14  13.9246844576
-0.06  0.16  13.5013263383
-0.06  0.18  13.2514500759
-0.06  0.2  18.1691975987
-0.06  0.22  14.6009583742
-0.06  0.24  11.7334837869
-0.06  0.26  9.42915103571
-0.06  0.28  7.57736498974
-0.06  0.3  6.08925023794
-0.06  0.32  4.89338556483
-0.06  0.34  3.93237613013
-0.06  0.36  3.16009883627
-0.06  0.38  2.5394886767
-0.06  0.4  2.04075982215
-0.06  0.42  1.6399760668
-0.06  0.44  1.31790202379
-0.06  0.46  1.05907993383
-0.06  0.48  0.851087778906
-0.06  0.5  0.683943094628
-0.06  0.52  0.549623867577
-0.06  0.54  0.441683523355
-0.06  0.56  0.354941526946
-0.06  0.58  0.285234745896
-0.06  0.6  0.22921764316
-0.06  0.62  0.184201709967
-0.06  0.64  0.148026432376
-0.06  0.66  0.118955598653
-0.06  0.68  0.095593970778
-0.06  0.7  0.0768203207967
-0.06  0.72  0.0617336181276
-0.06  0.74  0.0496097851141
-0.06  0.76  0.0398669453325
-0.06  0.78  0.0320374967657
-0.06  0.8  0.0257456695128
-0.06  0.82  0.0206894909271
-0.06  0.84  0.0166262926124
-0.06  0.86  0.0133610636921
-0.06  0.88  0.0107370913737
-0.06  0.9  0.008628439608
-0.06  0.92  0.00693390486102
-0.06  0.94  0.00557215890774
-0.06  0.96  0.00447784553083
-0.06  0.98  0.00359844378633
-0.04  -1  0.00364866944379
-0.04  -0.98  0.00454034553059
-0.04  -0.96  0.00564993290151
-0.04  -0.94  0.00703068556709
-0.04  -0.92  0.00874887196096
-0.04  -0.9  0.0108869554553
-0.04  -0.88  0.0135475521433
-0.04  -0.86  0.0168583558395
-0.04  -0.84  0.0209782666719
-0.04  -0.82  0.0261050174017
-0.04  -0.8  0.032484663495
-0.04  -0.78  0.0404233924132
-0.04  -0.76  0.0503022189054
-0.04  -0.74  0.0625952715928
-0.04  -0.72  0.0778925485005
-0.04  -0.7  0.0969282336752
-0.04  -0.68  0.120615933928
-0.04  -0.66  0.150092526869
-0.04  -0.64  0.186772724699
-0.04  -0.62  0.232416972513
-0.04  -0.6  0.289215939849
-0.04  -0.58  0.359895660624
-0.04  -0.56  0.447848367568
-0.04  -0.54  0.557295300491
-0.04  -0.52  0.693489302276
-0.04  -0.5  0.862966926057
-0.04  -0.48  1.07386215335
-0.04  -0.46  1.33629677984
-0.04  -0.44  1.66286620517
-0.04  -0.42  2.06924394192
-0.04  -0.4  2.57493385688
-0.04  -0.38  3.204206248
-0.04  -0.36  3.98726268339
-0.04  -0.34  4.9616855083
-0.04  -0.32  6.17424158831
-0.04  -0.3  7.68312685821
-0.04  -0.28  9.56075940259
-0.04  -0.26  11.8972551204
-0.04  -0.24  14.8047527857
-0.04  -0.22  18.4227960844
-0.04  -0.2  16.6694487941
-0.04  -0.18  16.7200505827
-0.04  -0.16  17.0353325874
-0.04  -0.14  17.5695057631
-0.04  -0.12  18.2506543652
-0.04  -0.1  18.9961430389
-0.04  -0.08  19.7254060512
-0.04  -0.06  20.3679828265
-0.04  -0.04  20.8675511914
-0.04  -0.02  21.183537111
-0.04  6.17561557e-16  21.2915715456
-0.04  0.02  21.183537111
-0.04  0.04  20.8675511914
-0.04  0.06  20.3679828265
-0.04  0.08  19.7254060512
-0.04  0.1  18.9961430389
-0.04  0.12  18.2506543652
-0.04  0.14  17.5695057631
-0.04  0.16  17.0353325874
-0.04  0.18  16.7200505827
-0.04  0.2  22.9250309329
-0.04  0.22  18.4227960844
-0.04  0.24  14.8047527857
-0.04  0.26  11.8972551204
-0.04  0.28  9.5607594026
-0.04  0.3  7.68312685821
-0.04  0.32  6.17424158831
-0.04  0.34  4.9616855083
-0.04  0.36  3.98726268339
-0.04  0.38  3.204206248
-0.04  0.4  2.57493385689
-0.04  0.42  2.06924394192
-0.04  0.44  1.66286620517
-0.04  0.46  1.33629677984
-0.04  0.48  1.07386215335
-0.04  0.5  0.862966926057
-0.04  0.52  0.693489302276
-0.04  0.54  0.557295300492
-0.04  0.56  0.447848367568
-0.04  0.58  0.359895660624
-0.04  0.6  0.289215939849
-0.04  0.62  0.232416972513
-0.04  0.64  0.1867727247
-0.04  0.66  0.150092526869
-0.04  0.68  0.120615933928
-0.04  0.7  0.0969282336752
-0.04  0.72  0.0778925485006
-0.04  0.74  0.0625952715928
-0.04  0.76  0.0503022189054
-0.04  0.78  0.0404233924133
-0.04  0.8  0.032484663495
-0.04  0.82  0.0261050174017
-0.04  0.84  0.0209782666719
-0.04  0.86  0.0168583558395
-0.04  0.88  0.0135475521433
-0.04  0.9  0.0108869554553
-0.04  0.92  0.00874887196096
-0.04  0.94  0.00703068556709
-0.04  0.96  0.00564993290151
-0.04  0.98  0.0045403455306
-0.02  -1  0.00460371788068
-0.02  -0.98  0.00572879243397
-0.02  -0.96  0.00712881710005
-0.02  -0.94  0.00887098526114
-0.02  -0.92  0.0110389112807
-0.02  -0.9  0.0137366435266
-0.02  -0.88  0.0170936581135
-0.02  -0.86  0.0212710730344
-0.02  -0.84  0.0264693809266
-0.02  -0.82  0.0329380716009
-0.02  -0.8  0.0409876061627
-0.02  -0.78  0.0510043174142
-0.02  -0.76  0.0634689516768
-0.02  -0.74  0.0789797419353
-0.02  -0.72  0.098281119687
-0.02  -0.7  0.122299443506
-0.02  -0.68  0.152187459092
-0.02  -0.66  0.18937962464
-0.02  -0.64  0.235660956841
-0.02  -0.62  0.293252701736
-0.02  -0.6  0.364918942144
-0.02  -0.58  0.454099258241
-0.02  -0.56  0.565073808238
-0.02  -0.54  0.703168752121
-0.02  -0.52  0.875011877653
-0.02  -0.5  1.08885069725
-0.02  -0.48  1.35494828264
-0.02  -0.46  1.68607583505
-0.02  -0.44  2.09812563178
-0.02  -0.42  2.6108737669
-0.02  -0.4  3.24892929358
-0.02  -0.38  4.04291532148
-0.02  -0.36  5.03093875542
-0.02  -0.34  6.26041921439
-0.02  -0.32  7.79036490908
-0.02  -0.3  9.6942047071
-0.02  -0.28  12.0633123095
-0.02  -0.26  15.0113916792
-0.02  -0.24  18.6799341976
-0.02  -0.22  23.2450094623
-0.02  -0.2  21.032719093
-0.02  -0.18  21.0965660274
-0.02  -0.16  21.4943738928
-0.02  -0.14  22.1683682455
-0.02  -0.12  23.0278092137
-0.02  -0.1  23.9684314294
-0.02  -0.08  24.888580876
-0.02  -0.06  25.6993537443
-0.02  -0.04  26.3296853897
-0.02  -0.02  26.7283814214
-0.02  6.17561557e-16  26.8646941419
-0.02  0.02  26.7283814214
-0.02  0.04  26.3296853897
-0.02  0.06  25.6993537443
-0.02  0.08  24.888580876
-0.02  0.1  23.9684314294
-0.02  0.12  23.0278092137
-0.02  0.14  22.1683682455
-0.02  0.16  21.4943738928
-0.02  0.18  21.0965660274
-0.02  0.2  28.925715647
-0.02  0.22  23.2450094623
-0.02  0.24  18.6799341976
-0.02  0.26  15.0113916792
-0.02  0.28  12.0633123095
-0.02  0.3  9.69420470711
-0.02  0.32  7.79036490908
-0.02  0.34  6.26041921439
-0.02  0.36  5.03093875542
-0.02  0.38  4.04291532148
-0.02  0.4  3.24892929358
-0.02  0.42  2.6108737669
-0.02  0.44  2.09812563178
-0.02  0.46  1.68607583505
-0.02  0.48  1.35494828264
-0.02  0.5  1.08885069726
-0.02  0.52  0.875011877654
-0.02  0.54  0.703168752121
-0.02  0.56  0.565073808238
-0.02  0.58  0.454099258242
-0.02  0.6  0.364918942144
-0.02  0.62  0.293252701736
-0.02  0.64  0.235660956842
-0.02  0.66  0.18937962464
-0.02  0.68  0.152187459092
-0.02  0.7  0.122299443506
-0.02  0.72  0.0982811196871
-0.02  0.74  0.0789797419353
-0.02  0.76  0.0634689516769
-0.02  0.78  0.0510043174142
-0.02  0.8  0.0409876061627
-0.02  0.82  0.0329380716009
-0.02  0.84  0.0264693809266
-0.02  0.86  0.0212710730344
-0.02  0.88  0.0170936581135
-0.02  0.9  0.0137366435266
-0.02  0.92  0.0110389112807
-0.02  0.94  0.00887098526115
-0.02  0.96  0.00712881710005
-0.02  0.98  0.00572879243398
2.8449465e-16  -1  0.00580875265665
2.8449465e-16  -0.98  0.00722831831419
2.8449465e-16  -0.96  0.00899480297056
2.8449465e-16  -0.94  0.0111929880454
2.8449465e-16  -0.92  0.0139283741728
2.8449465e-16  -0.9  0.0173322446438
2.8449465e-16  -0.88  0.0215679662726
2.8449465e-16  -0.86  0.0268388300937
2.8449465e-16  -0.84  0.0333978081982
2.8449465e-16  -0.82  0.0415596949848
2.8449465e-16  -0.8  0.0517162155367
2.8449465e-16  -0.78  0.0643548262425
2.8449465e-16  -0.76  0.0800821099867
2.8449465e-16  -0.74  0.0996528887476
2.8449465e-16  -0.72  0.124006450846
2.8449465e-16  -0.7  0.154311631552
2.8449465e-16  -0.68  0.192022910661
2.8449465e-16  -0.66  0.238950219422
2.8449465e-16  -0.64  0.29734580715
2.8449465e-16  -0.62  0.370012336644
2.8449465e-16  -0.6  0.460437396379
2.8449465e-16  -0.58  0.572960885324
2.8449465e-16  -0.56  0.712983303904
2.8449465e-16  -0.54  0.887224947928
2.8449465e-16  -0.52  1.10404844534
2.8449465e-16  -0.5  1.37386011574
2.8449465e-16  -0.48  1.70960941578
2.8449465e-16  -0.46  2.12741044087
2.8449465e-16  -0.44  2.64731531199
2.8449465e-16  -0.42  3.29427656576
2.8449465e-16  -0.4  4.09934473712
2.8449465e-16  -0.38  5.10115861201
2.8449465e-16  -0.36  6.34779967375
2.8449465e-16  -0.34  7.89909974632
2.8449465e-16  -0.32  9.82951258848
2.8449465e-16  -0.3  12.2316872593
2.8449465e-16  -0.28  15.2209147567
2.8449465e-16  -0.26  18.940661343
2.8449465e-16  -0.24  23.5694541257
2.8449465e-16  -0.22  29.3294493642
2.8449465e-16  -0.2  26.5380864064
2.8449465e-16  -0.18  26.6186454371
2.8449465e-16  -0.16  27.1205805153
2.8449465e-16  -0.14  27.9709945912
2.8449465e-16  -0.12  29.0553964022
2.8449465e-16  -0.1  30.2422288572
2.8449465e-16  -0.08  31.4032297441
2.8449465e-16  -0.06  32.4262244572
2.8449465e-16  -0.04  33.2215470019
2.8449465e-16  -0.02  33.7246027262
2.8449465e-16  6.17561557e-16  33.8965956454
2.8449465e-16  0.02  33.7246027262
2.8449465e-16  0.04  33.2215470019
2.8449465e-16  0.06  32.4262244572
2.8449465e-16  0.08  31.4032297441
2.8449465e-16  0.1  30.2422288572
2.8449465e-16  0.12  29.0553964022
2.8449465e-16  0.14  27.9709945912
2.8449465e-16  0.16  27.1205805153
2.8449465e-16  0.18  26.6186454371
2.8449465e-16  0.2  36.497094732
2.8449465e-16  0.22  29.3294493642
2.8449465e-16  0.24  23.5694541257
2.8449465e-16  0.26  18.940661343
2.8449465e-16  0.28  15.2209147568
2.8449465e-16  0.3  12.2316872593
2.8449465e-16  0.32  9.82951258848
2.8449465e-16  0.34  7.89909974632
2.8449465e-16  0.36  6.34779967375
2.8449465e-16  0.38  5.10115861201
2.8449465e-16  0.4  4.09934473712
2.8449465e-16  0.42  3.29427656576
2.8449465e-16  0.44  2.64731531199
2.8449465e-16  0.46  2.12741044087
2.8449465e-16  0.48  1.70960941578
2.8449465e-16  0.5  1.37386011574
2.8449465e-16  0.52  1.10404844534
2.8449465e-16  0.54  0.887224947928
2.8449465e-16  0.56  0.712983303905
2.8449465e-16  0.58  0.572960885324
2.8449465e-16  0.6  0.460437396379
2.8449465e-16  0.62  0.370012336644
2.8449465e-16  0.64  0.297345807151
2.8449465e-16  0.66  0.238950219422
2.8449465e-16  0.68  0.192022910661
2.8449465e-16  0.7  0.154311631552
2.8449465e-16  0.72  0.124006450847
2.8449465e-16  0.74  0.0996528887476
2.8449465e-16  0.76  0.0800821099867
2.8449465e-16  0.78  0.0643548262426
2.8449465e-16  0.8  0.0517162155367
2.8449465e-16  0.82  0.0415596949848
2.8449465e-16  0.84  0.0333978081982
2.8449465e-16  0.86  0.0268388300937
2.8449465e-16  0.88  0.0215679662726
2.8449465e-16  0.9  0.0173322446438
2.8449465e-16  0.92  0.0139283741728
2.8449465e-16  0.94  0.0111929880454
2.8449465e-16  0.96  0.00899480297056
2.8449465e-16  0.98  0.0072283183142
0.02  -1  0.00709857439471
0.02  -0.98  0.00883335172537
0.02  -0.96  0.0109920807145
0.02  -0.94  0.0136783683238
0.02  -0.92  0.0170211413891
0.02  -0.9  0.0211808343896
0.02  -0.88  0.0263570894094
0.02  -0.86  0.0327983378443
0.02  -0.84  0.0408137237249
0.02  -0.82  0.0507879409073
0.02  -0.8  0.0631996962342
0.02  -0.78  0.0786446847961
0.02  -0.76  0.0978641799758
0.02  -0.74  0.12178061044
0.02  -0.72  0.151541831575
0.02  -0.7  0.18857621615
0.02  -0.68  0.234661208247
0.02  -0.66  0.292008630675
0.02  -0.64  0.36337084014
0.02  -0.62  0.452172825024
0.02  -0.6  0.562676585748
0.02  -0.58  0.700185687038
0.02  -0.56  0.871299799476
0.02  -0.54  1.08423144692
0.02  -0.52  1.34920016186
0.02  -0.5  1.67892296607
0.02  -0.48  2.08922471675
0.02  -0.46  2.5997976115
0.02  -0.44  3.23514630407
0.02  -0.42  4.02576399117
0.02  -0.4  5.00959591603
0.02  -0.38  6.23386052857
0.02  -0.36  7.75731570791
0.02  -0.34  9.65307881309
0.02  -0.32  12.0121359089
0.02  -0.3  14.94770859
0.02  -0.28  18.6006879863
0.02  -0.26  23.1463967525
0.02  -0.24  28.8030035781
0.02  -0.22  35.8419940689
0.02  -0.2  32.4308146316
0.02  -0.18  32.5292616316
0.02  -0.16  33.1426503752
0.02  -0.14  34.1818971707
0.02  -0.12  35.5070882029
0.02  -0.1  36.9574543957
0.02  -0.08  38.3762531733
0.02  -0.06  39.6264017861
0.02  -0.04  40.5983240877
0.02  -0.02  41.2130823146
0.02  6.17561557e-16  41.4232659125
0.02  0.02  41.2130823146
0.02  0.04  40.5983240877
0.02  0.06  39.6264017861
0.02  0.08  38.3762531733
0.02  0.1  36.9574543957
0.02  0.12  35.5070882029
0.02  0.14  34.1818971707
0.02  0.16  33.1426503752
0.02  0.18  32.5292616316
0.02  0.2  44.6012005432
0.02  0.22  35.8419940689
0.02  0.24  28.8030035781
0.02  0.26  23.1463967526
0.02  0.28  18.6006879864
0.02  0.3  14.94770859
0.02  0.32  12.0121359089
0.02  0.34  9.6530788131
0.02  0.36  7.75731570791
0.02  0.38  6.23386052858
0.02  0.4  5.00959591603
0.02  0.42  4.02576399117
0.02  0.44  3.23514630407
0.02  0.46  2.5997976115
0.02  0.48  2.08922471676
0.02  0.5  1.67892296607
0.02  0.52  1.34920016186
0.02  0.54  1.08423144692
0.02  0.56  0.871299799477
0.02  0.58  0.700185687038
0.02  0.6  0.562676585748
0.02  0.62  0.452172825024
0.02  0.64  0.36337084014
0.02  0.66  0.292008630675
0.02  0.68  0.234661208247
0.02  0.7  0.18857621615
0.02  0.72  0.151541831575
0.02  0.74  0.12178061044
0.02  0.76  0.0978641799758
0.02  0.78  0.0786446847961
0.02  0.8  0.0631996962342
0.02  0.82  0.0507879409073
0.02  0.84  0.0408137237249
0.02  0.86  0.0327983378443
0.02  0.88  0.0263570894094
0.02  0.9  0.0211808343896
0.02  0.92  0.0170211413891
0.02  0.94  0.0136783683238
0.02  0.96  0.0109920807145
0.02  0.98  0.00883335172538
0.04  -1  0.00825066489963
0.04  -0.98  0.0102669946068
0.04  -0.96  0.0127760828417
0.04  -0.94  0.0158983518574
0.04  -0.92  0.0197836531677
0.04  -0.9  0.0246184595845
0.04  -0.88  0.0306348148733
0.04  -0.86  0.0381214705617
0.04  -0.84  0.0474377444028
0.04  -0.82  0.0590307656253
0.04  -0.8  0.0734569346453
0.04  -0.78  0.0914086271848
0.04  -0.76  0.113747424449
0.04  -0.74  0.141545464222
0.04  -0.72  0.176136897507
0.04  -0.7  0.219181920338
0.04  -0.68  0.27274645394
0.04  -0.66  0.339401297435
0.04  -0.64  0.422345511871
0.04  -0.62  0.525559957331
0.04  -0.6  0.653998352027
0.04  -0.58  0.813825023173
0.04  -0.56  1.01271076034
0.04  -0.54  1.26020097061
0.04  -0.52  1.56817380492
0.04  -0.5  1.95141024312
0.04  -0.48  2.42830349863
0.04  -0.46  3.02174179021
0.04  -0.44  3.76020684886
0.04  -0.42  4.67914088228
0.04  -0.4  5.82264760324
0.04  -0.38  7.24560896208
0.04  -0.36  9.0163191745
0.04  -0.34  11.2197624633
0.04  -0.32  13.9616918275
0.04  -0.3  17.373704597
0.04  -0.28  21.6195583711
0.04  -0.26  26.9030304707
0.04  -0.24  33.477698114
0.04  -0.22  41.6591087103
0.04  -0.2  37.694298752
0.04  -0.18  37.8087235875
0.04  -0.16  38.5216646226
0.04  -0.14  39.7295799843
0.04  -0.12  41.2698480053
0.04  -0.1  42.9556069723
0.04  -0.08  44.6046751686
0.04  -0.06  46.0577214714
0.04  -0.04  47.1873856509
0.04  -0.02  47.9019184348
0.04  6.17561557e-16  48.1462145902
0.04  0.02  47.9019184348
0.04  0.04  47.1873856509
0.04  0.06  46.0577214714
0.04  0.08  44.6046751686
0.04  0.1  42.9556069723
0.04  0.12  41.2698480053
0.04  0.14  39.7295799843
0.04  0.16  38.5216646226
0.04  0.18  37.8087235875
0.04  0.2  51.8399243766
0.04  0.22  41.6591087103
0.04  0.24  33.477698114
0.04  0.26  26.9030304707
0.04  0.28  21.6195583711
0.04  0.3  17.373704597
0.04  0.32  13.9616918275
0.04  0.34  11.2197624633
0.04  0.36  9.0163191745
0.04  0.38  7.24560896208
0.04  0.4  5.82264760324
0.04  0.42  4.67914088228
0.04  0.44  3.76020684886
0.04  0.46  3.02174179021
0.04  0.48  2.42830349863
0.04  0.5  1.95141024312
0.04  0.52  1.56817380492
0.04  0.54  1.26020097061
0.04  0.56  1.01271076034
0.04  0.58  0.813825023173
0.04  0.6  0.653998352027
0.04  0.62  0.525559957331
0.04  0.64  0.422345511872
0.04  0.66  0.339401297435
0.04  0.68  0.27274645394
0.04  0.7  0.219181920338
0.04  0.72  0.176136897507
0.04  0.74  0.141545464222
0.04  0.76  0.113747424449
0.04  0.78  0.0914086271849
0.04  0.8  0.0734569346453
0.04  0.82  0.0590307656254
0.04  0.84  0.0474377444028
0.04  0.86  0.0381214705617
0.04  0.88  0.0306348148734
0.04  0.9  0.0246184595845
0.04  0.92  0.0197836531678
0.04  0.94  0.0158983518574
0.04  0.96  0.0127760828417
0.04  0.98  0.0102669946068
0.06  -1  0.00924267054982
0.06  -0.98  0.0115014304716
0.06  -0.96  0.0143121949636
0.06  -0.94  0.0178098650583
0.06  -0.92  0.0221623094291
0.06  -0.9  0.0275784211517
0.06  -0.88  0.0343181434071
0.06  -0.86  0.042704945306
0.06  -0.84  0.0531413466036
0.06  -0.82  0.0661282364047
0.06  -0.8  0.0822889130495
0.06  -0.78  0.102398998961
0.06  -0.76  0.127423666197
0.06  -0.74  0.158563959334
0.06  -0.72  0.197314438912
0.06  -0.7  0.245534912011
0.06  -0.68  0.305539692627
0.06  -0.66  0.38020867585
0.06  -0.64  0.473125556778
0.06  -0.62  0.588749827909
0.06  -0.6  0.732630809934
0.06  -0.58  0.911673988205
0.06  -0.56  1.13447243755
0.06  -0.54  1.41171924198
0.06  -0.52  1.75672070313
0.06  -0.5  2.18603496859
0.06  -0.48  2.72026673073
0.06  -0.46  3.38505613708
0.06  -0.44  4.21230937458
0.06  -0.42  5.2417299887
0.06  -0.4  6.52272443241
0.06  -0.38  8.11677330058
