-0.12  -0.94  0.071865300847
-0.12  -0.92  0.0835173313405
-0.12  -0.9  0.0970585881091
-0.12  -0.88  0.112795384796
-0.12  -0.86  0.131083699848
-0.12  -0.84  0.152337229018
-0.12  -0.82  0.177036743483
-0.12  -0.8  0.205740965259
-0.12  -0.78  0.239099205922
-0.12  -0.76  0.277866054534
-0.12  -0.74  0.322918447029
-0.12  -0.72  0.37527550318
-0.12  -0.7  0.436121579867
-0.12  -0.68  0.506833062149
-0.12  -0.66  0.589009498143
-0.12  -0.64  0.684509782042
-0.12  -0.62  0.795494203723
-0.12  -0.6  0.924473316173
-0.12  -0.58  1.07436472612
-0.12  -0.56  1.24855909256
-0.12  -0.54  1.45099682604
-0.12  -0.52  1.68625722381
-0.12  -0.5  1.95966205703
-0.12  -0.48  2.27739595331
-0.12  -0.46  2.64664629778
-0.12  -0.44  3.07576581727
-0.12  -0.42  3.57446152537
-0.12  -0.4  4.15401430259
-0.12  -0.38  4.82753407853
-0.12  -0.36  5.61025638858
-0.12  -0.34  6.51988701346
-0.12  -0.32  7.57700249756
-0.12  -0.3  8.80551560626
-0.12  -0.28  10.233216251
-0.12  -0.26  11.8924001186
-0.12  -0.24  13.8205992243
-0.12  -0.22  16.061430915
-0.12  -0.2  13.9574140103
-0.12  -0.18  13.977186878
-0.12  -0.16  13.8578994647
-0.12  -0.14  13.6095155215
-0.12  -0.12  13.2535243819
-0.12  -0.1  12.8226293999
-0.12  -0.08  12.3598089245
-0.12  -0.06  11.9160410765
-0.12  -0.04  11.545726745
-0.12  -0.02  11.2991151841
-0.12  6.17561557e-16  11.212470533
-0.12  0.02  11.2991151841
-0.12  0.04  11.545726745
-0.12  0.06  11.9160410765
-0.12  0.08  12.3598089245
-0.12  0.1  12.8226293999
-0.12  0.12  13.2535243819
-0.12  0.14  13.6095155215
-0.12  0.16  13.8578994647
-0.12  0.18  13.977186878
-0.12  0.2  18.6655845272
-0.12  0.22  16.061430915
-0.12  0.24  13.8205992243
-0.12  0.26  11.8924001186
-0.12  0.28  10.233216251
-0.12  0.3  8.80551560626
-0.12  0.32  7.57700249756
-0.12  0.34  6.51988701346
-0.12  0.36  5.61025638858
-0.12  0.38  4.82753407853
-0.12  0.4  4.15401430259
-0.12  0.42  3.57446152537
-0.12  0.44  3.07576581727
-0.12  0.46  2.64664629778
-0.12  0.48  2.27739595331
-0.12  0.5  1.95966205703
-0.12  0.52  1.68625722381
-0.12  0.54  1.45099682604
-0.12  0.56  1.24855909256
-0.12  0.58  1.07436472612
-0.12  0.6  0.924473316173
-0.12  0.62  0.795494203723
-0.12  0.64  0.684509782042
-0.12  0.66  0.589009498143
-0.12  0.68  0.506833062149
-0.12  0.7  0.436121579867
-0.12  0.72  0.37527550318
-0.12  0.74  0.322918447029
-0.12  0.76  0.277866054534
-0.12  0.78  0.239099205922
-0.12  0.8  0.205740965259
-0.12  0.82  0.177036743483
-0.12  0.84  0.152337229018
-0.12  0.86  0.131083699848
-0.12  0.88  0.112795384796
-0.12  0.9  0.0970585881091
-0.12  0.92  0.0835173313405
-0.12  0.94  0.071865300847
-0.12  0.96  0.0618389187362
-0.12  0.98  0.0532113805326
-0.1  -1  0.0552522706723
-0.1  -0.98  0.0642107128568
-0.1  -0.96  0.0746216507559
-0.1  -0.94  0.0867205877928
-0.1  -0.92  0.10078121123
-0.1  -0.9  0.117121583183
-0.1  -0.88  0.136111335437
-0.1  -0.86  0.158180030792
-0.1  -0.84  0.183826880114
-0.1  -0.82  0.21363203486
-0.1  -0.8  0.248269710556
-0.1  -0.78  0.288523438071
-0.1  -0.76  0.335303787681
-0.1  -0.74  0.389668966879
-0.1  -0.72  0.452848757834
-0.1  -0.7  0.526272336015
-0.1  -0.68  0.611600599237
-0.1  -0.66  0.710763738445
-0.1  -0.64  0.826004900125
-0.1  -0.62  0.959930927994
-0.1  -0.6  1.11557133182
-0.1  -0.58  1.29644681724
-0.1  -0.56  1.50664892688
-0.1  -0.54  1.75093259413
-0.1  -0.52  2.03482370345
-0.1  -0.5  2.36474409009
-0.1  -0.48  2.74815680697
-0.1  -0.46  3.19373494466
-0.1  -0.44  3.71155782336
-0.1  -0.42  4.31333899489
-0.1  -0.4  5.01269121224
-0.1  -0.38  5.82543436048
-0.1  -0.36  6.76995331477
-0.1  -0.34  7.86761382038
-0.1  -0.32  9.14324580224
-0.1  -0.3  10.625705037
-0.1  -0.28  12.3485258928
-0.1  -0.26  14.3506799025
-0.1  -0.24  16.6774573299
-0.1  -0.22  19.3814916702
-0.1  -0.2  16.8425531206
-0.1  -0.18  16.8664132407
-0.1  -0.16  16.7224679086
-0.1  -0.14  16.4227404838
-0.1  -0.12  15.9931623632
-0.1  -0.1  15.4731970158
-0.1  -0.08  14.9147068516
-0.1  -0.06  14.3792076863
-0.1  -0.04  13.9323456247
-0.1  -0.02  13.6347569516
-0.1  6.17561557e-16  13.5302019719
-0.1  0.02  13.6347569516
-0.1  0.04  13.9323456247
-0.1  0.06  14.3792076863
-0.1  0.08  14.9147068516
-0.1  0.1  15.4731970158
-0.1  0.12  15.9931623632
-0.1  0.14  16.4227404838
-0.1  0.16  16.7224679086
-0.1  0.18  16.8664132407
-0.1  0.2  22.5239502599
-0.1  0.22  19.3814916702
-0.1  0.24  16.6774573299
-0.1  0.26  14.3506799025
-0.1  0.28  12.3485258928
-0.1  0.3  10.625705037
-0.1  0.32  9.14324580224
-0.1  0.34  7.86761382038
-0.1  0.36  6.76995331477
-0.1  0.38  5.82543436048
-0.1  0.4  5.01269121224
-0.1  0.42  4.31333899489
-0.1  0.44  3.71155782336
-0.1  0.46  3.19373494466
-0.1  0.48  2.74815680697
-0.1  0.5  2.36474409009
-0.1  0.52  2.03482370345
-0.1  0.54  1.75093259413
-0.1  0.56  1.50664892688
-0.1  0.58  1.29644681724
-0.1  0.6  1.11557133182
-0.1  0.62  0.959930927994
-0.1  0.64  0.826004900125
-0.1  0.66  0.710763738445
-0.1  0.68  0.611600599237
-0.1  0.7  0.526272336015
-0.1  0.72  0.452848757834
-0.1  0.74  0.389668966879
-0.1  0.76  0.335303787681
-0.1  0.78  0.288523438071
-0.1  0.8  0.248269710556
-0.1  0.82  0.21363203486
-0.1  0.84  0.183826880114
-0.1  0.86  0.158180030792
-0.1  0.88  0.136111335437
-0.1  0.9  0.117121583183
-0.1  0.92  0.10078121123
-0.1  0.94  0.0867205877928
-0.1  0.96  0.0746216507559
-0.1  0.98  0.0642107128568
-0.08  -1  0.0666734756985
-0.08  -0.98  0.0774837187893
-0.08  -0.96  0.0900467031982
-0.08  -0.94  0.104646613296
-0.08  -0.92  0.121613710279
-0.08  -0.9  0.141331802931
-0.08  -0.88  0.164246929676
-0.08  -0.86  0.190877448306
-0.08  -0.84  0.221825761636
-0.08  -0.82  0.257791944319
-0.08  -0.8  0.299589579072
-0.08  -0.78  0.348164160542
-0.08  -0.76  0.404614483125
-0.08  -0.74  0.47021749654
-0.08  -0.72  0.546457191409
-0.08  -0.7  0.635058168274
-0.08  -0.68  0.73802464938
-0.08  -0.66  0.857685815732
-0.08  -0.64  0.996748494952
-0.08  -0.62  1.15835839181
-0.08  -0.6  1.34617124648
-0.08  -0.58  1.5644355302
-0.08  -0.56  1.81808854894
-0.08  -0.54  2.11286812911
-0.08  -0.52  2.45544241154
-0.08  -0.5  2.85356069
-0.08  -0.48  3.31622870618
-0.08  -0.46  3.85391236648
-0.08  -0.44  4.47877448887
-0.08  -0.42  5.2049499352
-0.08  -0.4  6.04886535262
-0.08  -0.38  7.029610757
-0.08  -0.36  8.16937136375
-0.08  -0.34  9.4939294345
-0.08  -0.32  11.0332474916
-0.08  -0.3  12.8221460936
-0.08  -0.28  14.9010915028
-0.08  -0.26  17.3171110634
-0.08  -0.24  20.1248569963
-0.08  -0.22  23.3878426741
-0.08  -0.2  20.3240797622
-0.08  -0.18  20.3528720112
-0.08  -0.16  20.1791717183
-0.08  -0.14  19.8174875932
-0.08  -0.12  19.299111316
-0.08  -0.1  18.6716638548
-0.08  -0.08  17.9977281064
-0.08  -0.06  17.3515358296
-0.08  -0.04  16.8123028453
-0.08  -0.02  16.4531995736
-0.08  6.17561557e-16  16.3270320186
-0.08  0.02  16.4531995736
-0.08  0.04  16.8123028453
-0.08  0.06  17.3515358296
-0.08  0.08  17.9977281064
-0.08  0.1  18.6716638548
-0.08  0.12  19.299111316
-0.08  0.14  19.8174875932
-0.08  0.16  20.1791717183
-0.08  0.18  20.3528720112
-0.08  0.2  27.1798793428
-0.08  0.22  23.3878426741
-0.08  0.24  20.1248569963
-0.08  0.26  17.3171110634
-0.08  0.28  14.9010915028
-0.08  0.3  12.8221460936
-0.08  0.32  11.0332474916
-0.08  0.34  9.49392943449
-0.08  0.36  8.16937136375
-0.08  0.38  7.02961075699
-0.08  0.4  6.04886535262
-0.08  0.42  5.2049499352
-0.08  0.44  4.47877448887
-0.08  0.46  3.85391236648
-0.08  0.48  3.31622870618
-0.08  0.5  2.85356069
-0.08  0.52  2.45544241154
-0.08  0.54  2.11286812911
-0.08  0.56  1.81808854894
-0.08  0.58  1.5644355302
-0.08  0.6  1.34617124648
-0.08  0.62  1.15835839181
-0.08  0.64  0.996748494952
-0.08  0.66  0.857685815732
-0.08  0.68  0.73802464938
-0.08  0.7  0.635058168274
-0.08  0.72  0.546457191409
-0.08  0.74  0.47021749654
-0.08  0.76  0.404614483125
-0.08  0.78  0.348164160542
-0.08  0.8  0.299589579071
-0.08  0.82  0.257791944319
-0.08  0.84  0.221825761636
-0.08  0.86  0.190877448306
-0.08  0.88  0.164246929676
-0.08  0.9  0.141331802931
-0.08  0.92  0.121613710279
-0.08  0.94  0.104646613296
-0.08  0.96  0.0900467031982
-0.08  0.98  0.0774837187893
-0.06  -1  0.0804555597015
-0.06  -0.98  0.0935003897372
-0.06  -0.96  0.108660270508
-0.06  -0.94  0.126278130177
-0.06  -0.92  0.146752498281
-0.06  -0.9  0.170546520776
-0.06  -0.88  0.198198436753
-0.06  -0.86  0.23033375382
-0.06  -0.84  0.267679397566
-0.06  -0.82  0.311080155181
-0.06  -0.8  0.361517785182
-0.06  -0.78  0.420133225558
-0.06  -0.76  0.488252402656
-0.06  -0.74  0.567416224656
-0.06  -0.72  0.659415438106
-0.06  -0.7  0.766331135976
-0.06  -0.68  0.89058183359
-0.06  -0.66  1.0349781773
-0.06  -0.64  1.20278652347
-0.06  -0.62  1.39780282596
-0.06  -0.6  1.62443850354
-0.06  -0.58  1.88782022956
-0.06  -0.56  2.19390590126
-0.06  -0.54  2.54961941195
-0.06  -0.52  2.96300727487
-0.06  -0.5  3.44342064143
-0.06  -0.48  4.00172683153
-0.06  -0.46  4.65055516061
-0.06  -0.44  5.40458262456
-0.06  -0.42  6.28086590458
-0.06  -0.4  7.2992272025
-0.06  -0.38  8.48270263418
-0.06  -0.36  9.8580633242
-0.06  -0.34  11.4564209893
-0.06  -0.32  13.3139317092
-0.06  -0.3  15.4726138052
-0.06  -0.28  17.9812983268
-0.06  -0.26  20.8967336474
-0.06  -0.24  24.2848691565
-0.06  -0.22  28.2223470855
-0.06  -0.2  24.5252732898
-0.06  -0.18  24.5600171889
-0.06  -0.16  24.3504112828
-0.06  -0.14  23.9139633788
-0.06  -0.12  23.2884334647
-0.06  -0.1  22.5312862463
-0.06  -0.08  21.7180411398
-0.06  -0.06  20.9382743621
-0.06  -0.04  20.287576448
-0.06  -0.02  19.854242886
-0.06  6.17561557e-16  19.7019952171
-0.06  0.02  19.854242886
-0.06  0.04  20.287576448
-0.06  0.06  20.9382743621
-0.06  0.08  21.7180411398
-0.06  0.1  22.5312862463
-0.06  0.12  23.2884334647
-0.06  0.14  23.9139633788
-0.06  0.16  24.3504112828
-0.06  0.18  24.5600171889
-0.06  0.2  32.7982362137
-0.06  0.22  28.2223470855
-0.06  0.24  24.2848691565
-0.06  0.26  20.8967336474
-0.06  0.28  17.9812983268
-0.06  0.3  15.4726138052
-0.06  0.32  13.3139317092
-0.06  0.34  11.4564209893
-0.06  0.36  9.85806332419
-0.06  0.38  8.48270263418
-0.06  0.4  7.2992272025
-0.06  0.42  6.28086590458
-0.06  0.44  5.40458262456
-0.06  0.46  4.65055516061
-0.06  0.48  4.00172683153
-0.06  0.5  3.44342064143
-0.06  0.52  2.96300727487
-0.06  0.54  2.54961941195
-0.06  0.56  2.19390590126
-0.06  0.58  1.88782022956
-0.06  0.6  1.62443850354
-0.06  0.62  1.39780282596
-0.06  0.64  1.20278652347
-0.06  0.66  1.0349781773
-0.06  0.68  0.89058183359
-0.06  0.7  0.766331135976
-0.06  0.72  0.659415438105
-0.06  0.74  0.567416224656
-0.06  0.76  0.488252402656
-0.06  0.78  0.420133225558
-0.06  0.8  0.361517785182
-0.06  0.82  0.311080155181
-0.06  0.84  0.267679397566
-0.06  0.86  0.23033375382
-0.06  0.88  0.198198436753
-0.06  0.9  0.170546520776
-0.06  0.92  0.146752498281
-0.06  0.94  0.126278130177
-0.06  0.96  0.108660270508
-0.06  0.98  0.0935003897372
-0.04  -1  0.0970865403231
-0.04  -0.98  0.112827869101
-0.04  -0.96  0.131121451063
-0.04  -0.94  0.152381101105
-0.04  -0.92  0.177087728862
-0.04  -0.9  0.20580021726
-0.04  -0.88  0.239168064869
-0.04  -0.86  0.27794607807
-0.04  -0.84  0.323011445348
-0.04  -0.82  0.375383579975
-0.04  -0.8  0.436247179919
-0.04  -0.78  0.506979026627
-0.04  -0.76  0.589179128877
-0.04  -0.74  0.684706916209
-0.04  -0.72  0.79572330065
-0.04  -0.7  0.924739558208
-0.04  -0.68  1.07467413587
-0.04  -0.66  1.2489186691
-0.04  -0.64  1.45141470327
-0.04  -0.62  1.68674285444
-0.04  -0.6  1.96022642639
-0.04  -0.58  2.27805182787
-0.04  -0.56  2.64740851394
-0.04  -0.54  3.07665161693
-0.04  -0.52  3.57549094601
-0.04  -0.5  4.15521063049
-0.04  -0.48  4.82892437555
-0.04  -0.46  5.61187210431
-0.04  -0.44  6.52176469663
-0.04  -0.42  7.57918462281
-0.04  -0.4  8.80805153494
-0.04  -0.38  10.2361633478
-0.04  -0.36  11.895825049
-0.04  -0.34  13.824579463
-0.04  -0.32  16.066056498
-0.04  -0.3  18.6709600887
-0.04  -0.28  21.698215158
-0.04  -0.26  25.2163005441
-0.04  -0.24  29.3047980444
-0.04  -0.22  34.0561926173
-0.04  -0.2  29.5948961515
-0.04  -0.18  29.6368219672
-0.04  -0.16  29.3838883933
-0.04  -0.14  28.8572222787
-0.04  -0.12  28.1023889837
-0.04  -0.1  27.188731752
-0.04  -0.08  26.2073806296
-0.04  -0.06  25.2664281461
-0.04  -0.04  24.4812243702
-0.04  -0.02  23.9583163636
-0.04  6.17561557e-16  23.7745975566
-0.04  0.02  23.9583163636
-0.04  0.04  24.4812243702
-0.04  0.06  25.2664281461
-0.04  0.08  26.2073806296
-0.04  0.1  27.188731752
-0.04  0.12  28.1023889837
-0.04  0.14  28.8572222787
-0.04  0.16  29.3838883933
-0.04  0.18  29.6368219672
-0.04  0.2  39.5779644626
-0.04  0.22  34.0561926173
-0.04  0.24  29.3047980444
-0.04  0.26  25.2163005441
-0.04  0.28  21.698215158
-0.04  0.3  18.6709600887
-0.04  0.32  16.066056498
-0.04  0.34  13.824579463
-0.04  0.36  11.895825049
-0.04  0.38  10.2361633478
-0.04  0.4  8.80805153494
-0.04  0.42  7.57918462281
-0.04  0.44  6.52176469663
-0.04  0.46  5.61187210431
-0.04  0.48  4.82892437555
-0.04  0.5  4.15521063049
-0.04  0.52  3.57549094601
-0.04  0.54  3.07665161693
-0.04  0.56  2.64740851394
-0.04  0.58  2.27805182787
-0.04  0.6  1.96022642639
-0.04  0.62  1.68674285444
-0.04  0.64  1.45141470327
-0.04  0.66  1.2489186691
-0.04  0.68  1.07467413587
-0.04  0.7  0.924739558208
-0.04  0.72  0.79572330065
-0.04  0.74  0.684706916209
-0.04  0.76  0.589179128877
-0.04  0.78  0.506979026627
-0.04  0.8  0.436247179919
-0.04  0.82  0.375383579975
-0.04  0.84  0.323011445348
-0.04  0.86  0.27794607807
-0.04  0.88  0.239168064869
-0.04  0.9  0.20580021726
-0.04  0.92  0.177087728862
-0.04  0.94  0.152381101105
-0.04  0.96  0.131121451063
-0.04  0.98  0.112827869101
-0.02  -1  0.117155313404
-0.02  -0.98  0.136150534577
-0.02  -0.96  0.158225585567
-0.02  -0.94  0.183879821006
-0.02  -0.92  0.213693559435
-0.02  -0.9  0.248341210546
-0.02  -0.88  0.288606530861
-0.02  -0.86  0.335400352894
-0.02  -0.84  0.389781188894
-0.02  -0.82  0.4529791752
-0.02  -0.8  0.526423898873
-0.02  -0.78  0.611776736054
-0.02  -0.76  0.710968433573
-0.02  -0.74  0.826242783925
-0.02  -0.72  0.96020738158
-0.02  -0.7  1.11589260878
-0.02  -0.68  1.29682018512
-0.02  -0.66  1.50708283154
-0.02  -0.64  1.75143685082
-0.02  -0.62  2.03540971885
-0.02  -0.6  2.36542512032
-0.02  -0.58  2.74894825746
-0.02  -0.56  3.19465471863
-0.02  -0.54  3.7126267268
-0.02  -0.52  4.31458120722
-0.02  -0.5  5.01413483325
-0.02  -0.48  5.827112046
-0.02  -0.46  6.77190301534
-0.02  -0.44  7.86987963971
-0.02  -0.42  9.14587899492
-0.02  -0.4  10.6287651678
-0.02  -0.38  12.3520821843
-0.02  -0.36  14.3548128008
-0.02  -0.34  16.6822603243
-0.02  -0.32  19.3870734081
-0.02  -0.3  22.5304370046
-0.02  -0.28  26.1834564161
-0.02  -0.26  30.4287657516
-0.02  -0.24  35.3623971738
-0.02  -0.22  41.0959532201
-0.02  -0.2  35.7124615034
-0.02  -0.18  35.7630538106
-0.02  -0.16  35.4578363003
-0.02  -0.14  34.8223029554
-0.02  -0.12  33.9114379586
-0.02  -0.1  32.8089185057
-0.02  -0.08  31.6247121478
-0.02  -0.06  30.4892552376
-0.02  -0.04  29.5417418733
-0.02  -0.02  28.9107434755
-0.02  6.17561557e-16  28.6890481267
-0.02  0.02  28.9107434755
-0.02  0.04  29.5417418733
-0.02  0.06  30.4892552376
-0.02  0.08  31.6247121478
-0.02  0.1  32.8089185057
-0.02  0.12  33.9114379586
-0.02  0.14  34.8223029554
-0.02  0.16  35.4578363003
-0.02  0.18  35.7630538106
-0.02  0.2  47.7591313386
-0.02  0.22  41.0959532201
-0.02  0.24  35.3623971738
-0.02  0.26  30.4287657516
-0.02  0.28  26.1834564161
-0.02  0.3  22.5304370046
-0.02  0.32  19.3870734081
-0.02  0.34  16.6822603243
-0.02  0.36  14.3548128008
-0.02  0.38  12.3520821843
-0.02  0.4  10.6287651678
-0.02  0.42  9.14587899492
-0.02  0.44  7.86987963971
-0.02  0.46  6.77190301534
-0.02  0.48  5.827112046
-0.02  0.5  5.01413483325
-0.02  0.52  4.31458120722
-0.02  0.54  3.7126267268
-0.02  0.56  3.19465471863
-0.02  0.58  2.74894825746
-0.02  0.6  2.36542512032
-0.02  0.62  2.03540971885
-0.02  0.64  1.75143685082
-0.02  0.66  1.50708283154
-0.02  0.68  1.29682018512
-0.02  0.7  1.11589260878
-0.02  0.72  0.96020738158
-0.02  0.74  0.826242783925
-0.02  0.76  0.710968433573
-0.02  0.78  0.611776736054
-0.02  0.8  0.526423898873
-0.02  0.82  0.4529791752
-0.02  0.84  0.389781188894
-0.02  0.86  0.335400352894
-0.02  0.88  0.288606530861
-0.02  0.9  0.248341210546
-0.02  0.92  0.213693559435
-0.02  0.94  0.183879821006
-0.02  0.96  0.158225585567
-0.02  0.98  0.136150534577
2.8449465e-16  -1  0.14137250553
2.8449465e-16  -0.98  0.164294231676
2.8449465e-16  -0.96  0.190932419714
2.8449465e-16  -0.94  0.221889645948
2.8449465e-16  -0.92  0.257866186648
2.8449465e-16  -0.9  0.299675858835
2.8449465e-16  -0.88  0.348264429455
2.8449465e-16  -0.86  0.404731009348
2.8449465e-16  -0.84  0.470352915985
2.8449465e-16  -0.82  0.546614567368
2.8449465e-16  -0.8  0.635241060712
2.8449465e-16  -0.78  0.738237195466
2.8449465e-16  -0.76  0.85793282342
2.8449465e-16  -0.74  0.997035551748
2.8449465e-16  -0.72  1.15869199116
2.8449465e-16  -0.7  1.34655893465
2.8449465e-16  -0.68  1.564886077
2.8449465e-16  -0.66  1.8186121461
2.8449465e-16  -0.64  2.11347662078
2.8449465e-16  -0.62  2.45614956227
2.8449465e-16  -0.6  2.8543824961
2.8449465e-16  -0.58  3.31718375752
2.8449465e-16  -0.56  3.85502226706
2.8449465e-16  -0.54  4.4800643455
2.8449465e-16  -0.52  5.20644892542
2.8449465e-16  -0.5  6.05060738475
2.8449465e-16  -0.48  7.03163523714
2.8449465e-16  -0.46  8.17172408721
2.8449465e-16  -0.44  9.49666362168
2.8449465e-16  -0.42  11.0364249919
2.8449465e-16  -0.4  12.8258387845
2.8449465e-16  -0.38  14.9053829159
2.8449465e-16  -0.36  17.3220982737
2.8449465e-16  -0.34  20.1306528184
2.8449465e-16  -0.32  23.3945782139
2.8449465e-16  -0.3  27.1877069634
2.8449465e-16  -0.28  31.5958425567
2.8449465e-16  -0.26  36.7187004116
2.8449465e-16  -0.24  42.6721635132
2.8449465e-16  -0.22  49.5909037762
2.8449465e-16  -0.2  43.0945896921
2.8449465e-16  -0.18  43.1556399426
2.8449465e-16  -0.16  42.7873308757
2.8449465e-16  -0.14  42.0204263392
2.8449465e-16  -0.12  40.9212763045
2.8449465e-16  -0.1  39.5908548928
2.8449465e-16  -0.08  38.1618610639
2.8449465e-16  -0.06  36.7916936882
2.8449465e-16  -0.04  35.6483196964
2.8449465e-16  -0.02  34.8868875267
2.8449465e-16  6.17561557e-16  34.6193654997
2.8449465e-16  0.02  34.8868875267
2.8449465e-16  0.04  35.6483196964
2.8449465e-16  0.06  36.7916936882
2.8449465e-16  0.08  38.1618610639
2.8449465e-16  0.1  39.5908548928
2.8449465e-16  0.12  40.9212763045
2.8449465e-16  0.14  42.0204263392
2.8449465e-16  0.16  42.7873308757
2.8449465e-16  0.18  43.1556399426
2.8449465e-16  0.2  57.631428427
2.8449465e-16  0.22  49.5909037762
2.8449465e-16  0.24  42.6721635132
2.8449465e-16  0.26  36.7187004116
2.8449465e-16  0.28  31.5958425567
2.8449465e-16  0.3  27.1877069634
2.8449465e-16  0.32  23.3945782139
2.8449465e-16  0.34  20.1306528184
2.8449465e-16  0.36  17.3220982737
2.8449465e-16  0.38  14.9053829159
2.8449465e-16  0.4  12.8258387845
2.8449465e-16  0.42  11.0364249919
2.8449465e-16  0.44  9.49666362168
2.8449465e-16  0.46  8.17172408721
2.8449465e-16  0.48  7.03163523714
2.8449465e-16  0.5  6.05060738475
2.8449465e-16  0.52  5.20644892542
2.8449465e-16  0.54  4.4800643455
2.8449465e-16  0.56  3.85502226706
2.8449465e-16  0.58  3.31718375752
2.8449465e-16  0.6  2.8543824961
2.8449465e-16  0.62  2.45614956227
2.8449465e-16  0.64  2.11347662078
2.8449465e-16  0.66  1.8186121461
2.8449465e-16  0.68  1.564886077
2.8449465e-16  0.7  1.34655893465
2.8449465e-16  0.72  1.15869199116
2.8449465e-16  0.74  0.997035551747
2.8449465e-16  0.76  0.85793282342
2.8449465e-16  0.78  0.738237195466
2.8449465e-16  0.8  0.635241060712
2.8449465e-16  0.82  0.546614567368
2.8449465e-16  0.84  0.470352915985
2.8449465e-16  0.86  0.404731009348
2.8449465e-16  0.88  0.348264429455
2.8449465e-16  0.9  0.299675858835
2.8449465e-16  0.92  0.257866186648
2.8449465e-16  0.94  0.221889645948
2.8449465e-16  0.96  0.190932419714
2.8449465e-16  0.98  0.164294231676
0.02  -1  0.166654645185
0.02  -0.98  0.193675543792
0.02  -0.96  0.225077532172
0.02  -0.94  0.261570947455
0.02  -0.92  0.303981298766
0.02  -0.9  0.353267940872
0.02  -0.88  0.410545775528
0.02  -0.86  0.477110471411
0.02  -0.84  0.554467773143
0.02  -0.82  0.64436756239
0.02  -0.8  0.748843441535
0.02  -0.78  0.870258735325
0.02  -0.76  1.0113599511
0.02  -0.74  1.17533890688
0.02  -0.72  1.36590493279
0.02  -0.7  1.58736877891
0.02  -0.68  1.84474012779
0.02  -0.66  2.14384091729
0.02  -0.64  2.49143703736
0.02  -0.62  2.89539137958
0.02  -0.6  3.36484170189
0.02  -0.58  3.91040733167
0.02  -0.56  4.54442938312
0.02  -0.54  5.2812499227
0.02  -0.52  6.13753639779
0.02  -0.5  7.13265866708
0.02  -0.48  8.28912716174
0.02  -0.46  9.63310208865
0.02  -0.44  11.1949851944
0.02  -0.42  13.0101074763
0.02  -0.4  15.1195283964
0.02  -0.38  17.5709646785
0.02  -0.36  20.419869697
0.02  -0.34  23.7306878746
0.02  -0.32  27.5783124651
0.02  -0.3  32.0497796964
0.02  -0.28  37.2462375966
0.02  -0.26  43.2852340403
0.02  -0.24  50.3033757723
0.02  -0.22  58.4594185568
0.02  -0.2  50.8013459023
0.02  -0.18  50.8733139826
0.02  -0.16  50.439138917
0.02  -0.14  49.5350861599
0.02  -0.12  48.2393712799
0.02  -0.1  46.6710259535
0.02  -0.08  44.9864801599
0.02  -0.06  43.3712809598
0.02  -0.04  42.0234333979
0.02  -0.02  41.1258316499
0.02  6.17561557e-16  40.810467723
0.02  0.02  41.1258316499
0.02  0.04  42.0234333979
0.02  0.06  43.3712809598
0.02  0.08  44.9864801599
0.02  0.1  46.6710259535
0.02  0.12  48.2393712799
0.02  0.14  49.5350861599
0.02  0.16  50.439138917
0.02  0.18  50.8733139826
0.02  0.2  67.937858355
0.02  0.22  58.4594185568
0.02  0.24  50.3033757723
0.02  0.26  43.2852340403
0.02  0.28  37.2462375966
0.02  0.3  32.0497796964
0.02  0.32  27.5783124651
0.02  0.34  23.7306878746
0.02  0.36  20.419869697
0.02  0.38  17.5709646785
0.02  0.4  15.1195283964
0.02  0.42  13.0101074763
0.02  0.44  11.1949851944
0.02  0.46  9.63310208865
0.02  0.48  8.28912716174
0.02  0.5  7.13265866708
0.02  0.52  6.13753639779
0.02  0.54  5.2812499227
0.02  0.56  4.54442938312
0.02  0.58  3.91040733167
0.02  0.6  3.36484170189
0.02  0.62  2.89539137958
0.02  0.64  2.49143703736
0.02  0.66  2.14384091729
0.02  0.68  1.84474012779
0.02  0.7  1.58736877891
0.02  0.72  1.36590493279
0.02  0.74  1.17533890688
0.02  0.76  1.0113599511
0.02  0.78  0.870258735325
0.02  0.8  0.748843441535
0.02  0.82  0.64436756239
0.02  0.84  0.554467773143
0.02  0.86  0.477110471411
0.02  0.88  0.410545775528
0.02  0.9  0.353267940872
0.02  0.92  0.303981298766
0.02  0.94  0.261570947455
0.02  0.96  0.225077532172
0.02  0.98  0.193675543792
0.04  -1  0.189093746847
0.04  -0.98  0.21975285602
0.04  -0.96  0.255382943826
0.04  -0.94  0.296789990257
0.04  -0.92  0.344910654554
0.04  -0.9  0.400833463156
0.04  -0.88  0.465823433009
0.04  -0.86  0.54135068722
0.04  -0.84  0.629123710373
0.04  -0.82  0.731127995767
0.04  -0.8  0.849670958795
0.04  -0.78  0.987434132464
0.04  -0.76  1.14753382573
0.04  -0.74  1.33359161679
0.04  -0.72  1.549816276
0.04  -0.7  1.80109897147
0.04  -0.68  2.09312391104
0.04  -0.66  2.43249692348
0.04  -0.64  2.82689488736
0.04  -0.62  3.28523938799
0.04  -0.6  3.81789853053
0.04  -0.58  4.43692147449
0.04  -0.56  5.15631099501
0.04  -0.54  5.99234023638
0.04  -0.52  6.9639208231
0.04  -0.5  8.09303065537
0.04  -0.48  9.40521106608
0.04  -0.46  10.9301445854
0.04  -0.44  12.7023263826
0.04  -0.42  14.7618445729
0.04  -0.4  17.1552870421
0.04  -0.38  19.9367952996
0.04  -0.36  23.1692892019
0.04  -0.34  26.9258902474
0.04  -0.32  31.2915756412
0.04  -0.3  36.3651005449
0.04  -0.28  42.2612319944
0.04  -0.26  49.1133450182
0.04  -0.24  57.0764396834
0.04  -0.22  66.3306473165
0.04  -0.2  57.6414586638
0.04  -0.18  57.7231168375
0.04  -0.16  57.2304825646
0.04  -0.14  56.2047042372
0.04  -0.12  54.734528706
0.04  -0.1  52.955014587
0.04  -0.08  51.0436542676
0.04  -0.06  49.2109776668
0.04  -0.04  47.6816500841
0.04  -0.02  46.6631913576
0.04  6.17561557e-16  46.3053654687
0.04  0.02  46.6631913576
0.04  0.04  47.6816500841
0.04  0.06  49.2109776668
0.04  0.08  51.0436542676
0.04  0.1  52.955014587
0.04  0.12  54.734528706
0.04  0.14  56.2047042372
0.04  0.16  57.2304825646
0.04  0.18  57.7231168375
0.04  0.2  77.0853052123
0.04  0.22  66.3306473165
0.04  0.24  57.0764396834
0.04  0.26  49.1133450182
0.04  0.28  42.2612319944
0.04  0.3  36.3651005449
0.04  0.32  31.2915756412
0.04  0.34  26.9258902474
0.04  0.36  23.1692892019
0.04  0.38  19.9367952996
0.04  0.4  17.1552870421
0.04  0.42  14.7618445729
0.04  0.44  12.7023263826
0.04  0.46  10.9301445854
0.04  0.48  9.40521106608
0.04  0.5  8.09303065537
0.04  0.52  6.9639208231
0.04  0.54  5.99234023638
0.04  0.56  5.15631099501
0.04  0.58  4.43692147449
0.04  0.6  3.81789853053
0.04  0.62  3.28523938799
0.04  0.64  2.82689488736
0.04  0.66  2.43249692348
0.04  0.68  2.09312391104
0.04  0.7  1.80109897147
0.04  0.72  1.549816276
0.04  0.74  1.33359161679
0.04  0.76  1.14753382573
0.04  0.78  0.987434132464
0.04  0.8  0.849670958795
0.04  0.82  0.731127995767
0.04  0.84  0.629123710373
0.04  0.86  0.54135068722
0.04  0.88  0.465823433009
0.04  0.9  0.400833463156
0.04  0.92  0.344910654554
0.04  0.94  0.296789990257
0.04  0.96  0.255382943826
0.04  0.98  0.21975285602
0.06  -1  0.208307011595
0.06  -0.98  0.242081303535
0.06  -0.96  0.281331660765
0.06  -0.94  0.326945956557
0.06  -0.92  0.379956021367
0.06  -0.9  0.441560983637
0.06  -0.88  0.513154394997
0.06  -0.86  0.596355753482
0.06  -0.84  0.693047137818
0.06  -0.82  0.80541578149
0.06  -0.8  0.936003549652
0.06  -0.78  1.08776443806
0.06  -0.76  1.26413139476
0.06  -0.74  1.46909397594
0.06  -0.72  1.70728859287
0.06  -0.7  1.98410339099
0.06  -0.68  2.30580013394
0.06  -0.66  2.67965584951
0.06  -0.64  3.11412744154
0.06  -0.62  3.61904299163
0.06  -0.6  4.20582407789
0.06  -0.58  4.88774413985
0.06  -0.56  5.68022873382
0.06  -0.54  6.60120447088
0.06  -0.52  7.6715045306
0.06  -0.5  8.9153399236
0.06  -0.48  10.3608471632
0.06  -0.46  12.040724735
0.06  -0.44  13.9929727618
0.06  -0.42  16.2617525957
0.06  -0.4  18.8983857815
0.06  -0.38  21.96251499
0.06  -0.36  25.5234531808
0.06  -0.34  29.6617515148
0.06  -0.32  34.4710214833
0.06  -0.3  40.0600524722
0.06  -0.28  46.5552726616
0.06  -0.26  54.1036089282
0.06  -0.24  62.8758104442
0.06  -0.22  73.0703111555
0.06  -0.2  63.4982393572
0.06  -0.18  63.58819458
0.06  -0.16  63.0455051738
0.06  -0.14  61.9155004989
0.06  -0.12  60.2959447149
0.06  -0.1  58.3356193503
0.06  -0.08  56.2300512771
0.06  -0.06  54.2111617458
0.06  -0.04  52.5264436426
0.06  -0.02  51.4045022919
0.06  6.17561557e-16  51.0103187569
0.06  0.02  51.4045022919
0.06  0.04  52.5264436426
0.06  0.06  54.2111617458
0.06  0.08  56.2300512771
0.06  0.1  58.3356193503
0.06  0.12  60.2959447149
0.06  0.14  61.9155004989
0.06  0.16  63.0455051738
0.06  0.18  63.58819458
0.06  0.2  84.9177185095
0.06  0.22  73.0703111555
0.06  0.24  62.8758104442
0.06  0.26  54.1036089282
0.06  0.28  46.5552726616
0.06  0.3  40.0600524722
0.06  0.32  34.4710214833
0.06  0.34  29.6617515148
0.06  0.36  25.5234531808
0.06  0.38  21.96251499
0.06  0.4  18.8983857815
0.06  0.42  16.2617525957
0.06  0.44  13.9929727618
0.06  0.46  12.040724735
0.06  0.48  10.3608471632
0.06  0.5  8.91533992359
0.06  0.52  7.6715045306
0.06  0.54  6.60120447088
0.06  0.56  5.68022873382
0.06  0.58  4.88774413985
0.06  0.6  4.20582407789
0.06  0.62  3.61904299163
0.06  0.64  3.11412744154
0.06  0.66  2.67965584951
0.06  0.68  2.30580013394
0.06  0.7  1.98410339099
0.06  0.72  1.70728859287
0.06  0.74  1.46909397594
0.06  0.76  1.26413139476
0.06  0.78  1.08776443806
0.06  0.8  0.936003549652
0.06  0.82  0.80541578149
0.06  0.84  0.693047137818
0.06  0.86  0.596355753482
0.06  0.88  0.513154394997
0.06  0.9  0.441560983637
0.06  0.92  0.379956021367
0.06  0.94  0.326945956557
0.06  0.96  0.281331660765
0.06  0.98  0.242081303535
0.08  -1  0.223966671538
0.08  -0.98  0.260279975114
0.08  -0.96  0.302481011931
0.08  -0.94  0.351524401901
0.08  -0.92  0.408519544228
0.08  -0.9  0.474755712872
0.08  -0.88  0.551731220915
0.08  -0.86  0.641187313557
0.08  -0.84  0.745147556422
0.08  -0.82  0.865963610168
0.08  -0.8  1.00636842686
0.08  -0.78  1.16953807145
0.08  -0.76  1.3591635668
0.08  -0.74  1.57953438748
0.08  -0.72  1.83563549096
0.08  -0.7  2.13326008118
0.08  -0.68  2.4791406553
0.08  -0.66  2.88110129796
0.08  -0.64  3.34823466807
0.08  -0.62  3.89110768178
0.08  -0.6  4.52200054423
0.08  -0.58  5.25518453722
0.08  -0.56  6.10724484665
0.08  -0.54  7.0974557321
0.08  -0.52  8.24821652545
0.08  -0.5  9.58555832098
0.08  -0.48  11.1397328188
0.08  -0.46  12.9458966414
0.08  -0.44  15.0449066039
0.08  -0.42  17.484243926
0.08  -0.4  20.3190882943
0.08  -0.38  23.6135660689
0.08  -0.36  27.4422008711
0.08  -0.34  31.8915993651
0.08  -0.32  37.0624103672
0.08  -0.3  43.0716015996
0.08  -0.28  50.0551055901
0.08  -0.26  58.1708945706
0.08  -0.24  67.6025539303
0.08  -0.22  78.5634350587
0.08  -0.2  68.2717744757
0.08  -0.18  68.3684921603
0.08  -0.16  67.7850056082
0.08  -0.14  66.5700518535
0.08  -0.12  64.8287445613
0.08  -0.1  62.7210500402
0.08  -0.08  60.4571940641
0.08  -0.06  58.2865327644
0.08  -0.04  56.4751645193
0.08  -0.02  55.2688802562
0.08  6.17561557e-16  54.8450636326
0.08  0.02  55.2688802562
0.08  0.04  56.4751645193
0.08  0.06  58.2865327644
0.08  0.08  60.4571940641
0.08  0.1  62.7210500402
0.08  0.12  64.8287445613
0.08  0.14  66.5700518535
0.08  0.16  67.7850056082
0.08  0.18  68.3684921603
0.08  0.2  91.3014815177
0.08  0.22  78.5634350587
0.08  0.24  67.6025539303
0.08  0.26  58.1708945706
0.08  0.28  50.0551055901
0.08  0.3  43.0716015996
0.08  0.32  37.0624103672
0.08  0.34  31.8915993651
0.08  0.36  27.4422008711
0.08  0.38  23.6135660689
0.08  0.4  20.3190882943
0.08  0.42  17.484243926
0.08  0.44  15.0449066039
0.08  0.46  12.9458966414
0.08  0.48  11.1397328188
0.08  0.5  9.58555832098
0.08  0.52  8.24821652544
0.08  0.54  7.0974557321
0.08  0.56  6.10724484665
0.08  0.58  5.25518453722
0.08  0.6  4.52200054423
0.08  0.62  3.89110768178
0.08  0.64  3.34823466807
0.08  0.66  2.88110129796
0.08  0.68  2.4791406553
0.08  0.7  2.13326008118
0.08  0.72  1.83563549096
0.08  0.74  1.57953438748
0.08  0.76  1.3591635668
0.08  0.78  1.16953807145
0.08  0.8  1.00636842686
0.08  0.82  0.865963610168
0.08  0.84  0.745147556422
0.08  0.86  0.641187313557
0.08  0.88  0.551731220915
0.08  0.9  0.474755712872
0.08  0.92  0.408519544228
0.08  0.94  0.351524401901
0.08  0.96  0.302481011931
0.08  0.98  0.260279975114
0.1  -1  0.235805581357
0.1  -0.98  0.274038411278
0.1  -0.96  0.318470200848
0.1  -0.94  0.370106031323
0.1  -0.92  0.430113944905
0.1  -0.9  0.499851366758
0.1  -0.88  0.580895811003
0.1  -0.86  0.675080565309
0.1  -0.84  0.784536161262
0.1  -0.82  0.911738568635
0.1  -0.8  1.05956520372
0.1  -0.78  1.23136001872
0.1  -0.76  1.43100914448
0.1  -0.74  1.6630287978
0.1  -0.72  1.93266744169
0.1  -0.7  2.24602450969
0.1  -0.68  2.61018837971
0.1  -0.66  3.03339671858
0.1  -0.64  3.52522282447
0.1  -0.62  4.09679218218
0.1  -0.6  4.76103413024
0.1  -0.58  5.53297433243
0.1  -0.56  6.43007466989
0.1  -0.54  7.47262824228
0.1  -0.52  8.68421841333
0.1  -0.5  10.0922522846
0.1  -0.48  11.7285806654
0.1  -0.46  13.6302185623
0.1  -0.44  15.8401824871
0.1  -0.42  18.4084635238
0.1  -0.4  21.3931581649
0.1  -0.38  24.861782499
0.1  -0.36  28.8927994764
0.1  -0.34  33.5773938018
0.1  -0.32  39.0215346022
0.1  -0.3  45.3483725299
0.1  -0.28  52.7010255255
0.1  -0.26  61.2458162551
0.1  -0.24  71.1760344577
0.1  -0.22  82.7163093071
0.1  -0.2  71.8806300955
0.1  -0.18  71.9824602905
0.1  -0.16  71.368130557
0.1  -0.14  70.0889541756
0.1  -0.12  68.2556011345
0.1  -0.1  66.0364935841
0.1  -0.08  63.6529698621
0.1  -0.06  61.3675671002
0.1  -0.04  59.4604496743
0.1  -0.02  58.1904010551
0.1  6.17561557e-16  57.7441814251
0.1  0.02  58.1904010551
0.1  0.04  59.4604496743
0.1  0.06  61.3675671002
0.1  0.08  63.6529698621
0.1  0.1  66.0364935841
0.1  0.12  68.2556011345
0.1  0.14  70.0889541756
0.1  0.16  71.368130557
0.1  0.18  71.9824602905
0.1  0.2  96.127690697
0.1  0.22  82.7163093071
0.1  0.24  71.1760344577
0.1  0.26  61.2458162551
0.1  0.28  52.7010255255
0.1  0.3  45.3483725299
0.1  0.32  39.0215346022
0.1  0.34  33.5773938018
0.1  0.36  28.8927994764
0.1  0.38  24.861782499
0.1  0.4  21.3931581649
0.1  0.42  18.4084635238
0.1  0.44  15.8401824871
0.1  0.46  13.6302185623
0.1  0.48  11.7285806654
0.1  0.5  10.0922522846
0.1  0.52  8.68421841333
0.1  0.54  7.47262824228
0.1  0.56  6.43007466989
0.1  0.58  5.53297433243
0.1  0.6  4.76103413024
0.1  0.62  4.09679218218
0.1  0.64  3.52522282447
0.1  0.66  3.03339671858
0.1  0.68  2.61018837971
0.1  0.7  2.24602450969
0.1  0.72  1.93266744169
0.1  0.74  1.6630287978
0.1  0.76  1.43100914448
0.1  0.78  1.23136001872
0.1  0.8  1.05956520372
0.1  0.82  0.911738568635
0.1  0.84  0.784536161262
0.1  0.86  0.675080565309
0.1  0.88  0.580895811003
0.1  0.9  0.499851366758
0.1  0.92  0.430113944905
0.1  0.94  0.370106031323
0.1  0.96  0.318470200848
0.1  0.98  0.274038411278
0.12  -1  0.243621775663
0.12  -0.98  0.283121900555
0.12  -0.96  0.329026460611
0.12  -0.94  0.382373852288
0.12  -0.92  0.444370834618
0.12  -0.9  0.51641982703
0.12  -0.88  0.60015063315
0.12  -0.86  0.697457308218
0.12  -0.84  0.81054100407
0.12  -0.82  0.941959760888
0.12  -0.8  1.09468637204
0.12  -0.78  1.27217563093
0.12  -0.76  1.47844248114
0.12  -0.74  1.71815283746
0.12  -0.72  1.99672913254
0.12  -0.7  2.32047297644
0.12  -0.68  2.69670770395
0.12  -0.66  3.13394403397
0.12  -0.64  3.64207258862
0.12  -0.62  4.23258762664
0.12  -0.6  4.91884705241
0.12  -0.58  5.716374582
0.12  -0.56  6.64321090157
0.12  -0.54  7.72032176158
0.12  -0.52  8.97207223817
0.12  -0.5  10.42677789
0.12  -0.48  12.1173452777
0.12  -0.46  14.0820163361
0.12  -0.44  16.3652334357
0.12  -0.42  19.0186447034
0.12  -0.4  22.1022723431
0.12  -0.38  25.6858703839
0.12  -0.36  29.85050257
0.12  -0.34  34.6903760846
0.12  -0.32  40.3149725895
0.12  -0.3  46.851524784
0.12  -0.28  54.4478945065
0.12  -0.26  63.2759174831
0.12  -0.24  73.5352903839
0.12  -0.22  85.4580881153
0.12  -0.2  74.263241094
0.12  -0.18  74.3684466314
0.12  -0.16  73.7337538491
0.12  -0.14  72.4121768974
0.12  -0.12  70.5180541175
0.12  -0.1  68.2253903106
0.12  -0.08  65.7628604665
0.12  -0.06  63.4017039759
0.12  -0.04  61.4313717598
0.12  -0.02  60.119225126
0.12  6.17561557e-16  59.6582147548
0.12  0.02  60.119225126
0.12  0.04  61.4313717598
0.12  0.06  63.4017039759
0.12  0.08  65.7628604665
0.12  0.1  68.2253903106
0.12  0.12  70.5180541175
0.12  0.14  72.4121768974
0.12  0.16  73.7337538491
0.12  0.18  74.3684466314
0.12  0.2  99.3140135327
0.12  0.22  85.4580881153
0.12  0.24  73.5352903839
0.12  0.26  63.2759174831
0.12  0.28  54.4478945065
0.12  0.3  46.851524784
0.12  0.32  40.3149725895
0.12  0.34  34.6903760846
0.12  0.36  29.8505025699
0.12  0.38  25.6858703839
0.12  0.4  22.1022723431
0.12  0.42  19.0186447034
0.12  0.44  16.3652334357
0.12  0.46  14.0820163361
0.12  0.48  12.1173452777
0.12  0.5  10.42677789
0.12  0.52  8.97207223817
0.12  0.54  7.72032176158
0.12  0.56  6.64321090157
0.12  0.58  5.716374582
0.12  0.6  4.91884705241
0.12  0.62  4.23258762664
0.12  0.64  3.64207258862
0.12  0.66  3.13394403397
0.12  0.68  2.69670770395
0.12  0.7  2.32047297644
0.12  0.72  1.99672913254
0.12  0.74  1.71815283746
0.12  0.76  1.47844248114
0.12  0.78  1.27217563093
0.12  0.8  1.09468637204
0.12  0.82  0.941959760888
0.12  0.84  0.81054100407
0.12  0.86  0.697457308218
0.12  0.88  0.60015063315
0.12  0.9  0.51641982703
0.12  0.92  0.444370834618
0.12  0.94  0.382373852287
0.12  0.96  0.329026460611
0.12  0.98  0.283121900555
0.14  -1  0.247281914413
0.14  -0.98  0.287375483539
0.14  -0.96  0.333969707147
0.14  -0.94  0.388118582413
0.14  -0.92  0.451046998549
0.14  -0.9  0.524178444729
0.14  -0.88  0.609167210517
0.14  -0.86  0.707935807169
0.14  -0.84  0.822718456311
0.14  -0.82  0.956111629755
0.14  -0.8  1.11113278369
0.14  -0.78  1.29128861585
0.14  -0.76  1.50065438975
0.14  -0.74  1.74396612021
0.14  -0.72  2.02672770575
0.14  -0.7  2.35533543091
0.14  -0.68  2.7372226552
0.14  -0.66  3.18102796138
0.14  -0.64  3.69679056684
0.14  -0.62  4.29617741842
0.14  -0.6  4.99274710776
0.14  -0.58  5.80225657701
0.14  -0.56  6.74301755303
0.14  -0.54  7.8363107727
0.14  -0.52  9.10686736962
0.14  -0.5  10.5834283113
0.14  -0.48  12.2993945419
0.14  -0.46  14.2935825376
0.14  -0.44  16.6111023646
0.14  -0.42  19.3043781042
0.14  -0.4  22.434333725
0.14  -0.38  26.0717712308
0.14  -0.36  30.2989722557
0.14  -0.34  35.2115593386
0.14  -0.32  40.9206589778
0.14  -0.3  47.5554153986
0.14  -0.28  55.2659118944
0.14  -0.26  64.226565827
0.14  -0.24  74.6400740805
0.14  -0.22  86.7419982215
0.14  -0.2  75.378961418
0.14  -0.18  75.4857475484
0.14  -0.16  74.8415192324
0.14  -0.14  73.5000870973
0.14  -0.12  71.5775072874
0.14  -0.1  69.2503988271
0.14  -0.08  66.7508722865
0.14  -0.06  64.354242118
0.14  -0.04  62.3543079122
0.14  -0.02  61.0224477749
0.14  6.17561557e-16  60.5545112498
0.14  0.02  61.0224477749
0.14  0.04  62.3543079122
0.14  0.06  64.354242118
0.14  0.08  66.7508722865
0.14  0.1  69.2503988271
0.14  0.12  71.5775072874
0.14  0.14  73.5000870973
0.14  0.16  74.8415192324
0.14  0.18  75.4857475484
0.14  0.2  100.806093083
0.14  0.22  86.7419982215
0.14  0.24  74.6400740805
0.14  0.26  64.226565827
0.14  0.28  55.2659118944
0.14  0.3  47.5554153986
0.14  0.32  40.9206589778
0.14  0.34  35.2115593386
0.14  0.36  30.2989722557
0.14  0.38  26.0717712308
0.14  0.4  22.434333725
0.14  0.42  19.3043781042
0.14  0.44  16.6111023646
0.14  0.46  14.2935825376
0.14  0.48  12.2993945419
0.14  0.5  10.5834283113
0.14  0.52  9.10686736962
0.14  0.54  7.8363107727
0.14  0.56  6.74301755303
0.14  0.58  5.80225657701
0.14  0.6  4.99274710776
0.14  0.62  4.29617741842
0.14  0.64  3.69679056684
0.14  0.66  3.18102796138
0.14  0.68  2.7372226552
0.14  0.7  2.35533543091
0.14  0.72  2.02672770575
0.14  0.74  1.74396612021
0.14  0.76  1.50065438975
0.14  0.78  1.29128861585
0.14  0.8  1.11113278369
0.14  0.82  0.956111629755
0.14  0.84  0.822718456311
0.14  0.86  0.707935807169
0.14  0.88  0.609167210517
0.14  0.9  0.524178444729
0.14  0.92  0.451046998549
0.14  0.94  0.388118582413
0.14  0.96  0.333969707147
0.14  0.98  0.287375483539
0.16  -1  0.246723557624
0.16  -0.98  0.286726596407
0.16  -0.96  0.333215611345
0.16  -0.94  0.387242219716
0.16  -0.92  0.450028544957
0.16  -0.9  0.522994862039
0.16  -0.88  0.607791725178
0.16  -0.86  0.706337304645
0.16  -0.84  0.820860777245
0.16  -0.82  0.953952752018
0.16  -0.8  1.10862387181
0.16  -0.78  1.28837291631
0.16  -0.76  1.49726594717
0.16  -0.74  1.74002828543
0.16  -0.72  2.02215140191
0.16  -0.7  2.3500171385
0.16  -0.68  2.73104207035
0.16  -0.66  3.17384527451
0.16  -0.64  3.68844330005
0.16  -0.62  4.28647675012
0.16  -0.6  4.98147360136
0.16  -0.58  5.78915521712
0.16  -0.56  6.72779197682
0.16  -0.54  7.81861656593
0.16  -0.52  9.08630427571
0.16  -0.5  10.5595311772
0.16  -0.48  12.2716227962
0.16  -0.46  14.2613079619
0.16  -0.44  16.5735948833
0.16  -0.42  19.2607892691
0.16  -0.4  22.3836775232
0.16  -0.38  26.01290178
0.16  -0.36  30.2305578838
0.16  -0.34  35.1320524597
0.16  -0.32  40.8282610852
0.16  -0.3  47.4480363809
0.16  -0.28  55.1411227557
0.16  -0.26  64.0815437408
0.16  -0.24  74.4715385358
0.16  -0.22  86.5461368147
0.16  -0.2  75.208757483
0.16  -0.18  75.3153024928
0.16  -0.16  74.6725288293
0.16  -0.14  73.3341256167
0.16  -0.12  71.4158869471
0.16  -0.1  69.0940330434
0.16  -0.08  66.6001503753
0.16  -0.06  64.2089317418
0.16  -0.04  62.2135133408
0.16  -0.02  60.8846605126
0.16  6.17561557e-16  60.4177805771
0.16  0.02  60.8846605126
0.16  0.04  62.2135133408
0.16  0.06  64.2089317418
0.16  0.08  66.6001503753
0.16  0.1  69.0940330434
0.16  0.12  71.4158869471
0.16  0.14  73.3341256167
0.16  0.16  74.6725288293
0.16  0.18  75.3153024928
0.16  0.2  100.578475278
0.16  0.22  86.5461368147
0.16  0.24  74.4715385358
0.16  0.26  64.0815437408
0.16  0.28  55.1411227557
0.16  0.3  47.4480363809
0.16  0.32  40.8282610852
0.16  0.34  35.1320524597
0.16  0.36  30.2305578838
0.16  0.38  26.01290178
0.16  0.4  22.3836775232
0.16  0.42  19.2607892691
0.16  0.44  16.5735948833
0.16  0.46  14.2613079619
0.16  0.48  12.2716227962
0.16  0.5  10.5595311772
0.16  0.52  9.08630427571
0.16  0.54  7.81861656593
0.16  0.56  6.72779197682
0.16  0.58  5.78915521712
0.16  0.6  4.98147360136
0.16  0.62  4.28647675012
0.16  0.64  3.68844330005
0.16  0.66  3.17384527451
0.16  0.68  2.73104207035
0.16  0.7  2.3500171385
0.16  0.72  2.02215140191
0.16  0.74  1.74002828543
0.16  0.76  1.49726594717
0.16  0.78  1.28837291631
0.16  0.8  1.10862387181
0.16  0.82  0.953952752018
0.16  0.84  0.820860777245
0.16  0.86  0.706337304645
0.16  0.88  0.607791725178
0.16  0.9  0.522994862039
0.16  0.92  0.450028544957
0.16  0.94  0.387242219716
0.16  0.96  0.333215611345
0.16  0.98  0.286726596407
0.18  -1  0.241956230559
0.18  -0.98  0.281186308821
0.18  -0.96  0.326777037673
0.18  -0.94  0.379759714468
0.18  -0.92  0.441332848108
0.18  -0.9  0.512889270239
0.18  -0.88  0.596047642168
0.18  -0.86  0.692689070232
0.18  -0.84  0.80499965787
0.18  -0.82  0.93551995696
0.18  -0.8  1.08720243706
0.18  -0.78  1.26347827255
0.18  -0.76  1.46833495841
0.18  -0.74  1.70640651044
0.18  -0.72  1.98307829028
0.18  -0.7  2.30460882639
0.18  -0.68  2.67827138683
0.18  -0.66  3.11251850611
0.18  -0.64  3.6171731881
0.18  -0.62  4.20365110987
0.18  -0.6  4.88521885312
0.18  -0.58  5.67729400445
0.18  -0.56  6.59779391304
0.18  -0.54  7.66754099486
0.18  -0.52  8.91073375171
0.18  -0.5  10.35549416
0.18  -0.48  12.0345038115
0.18  -0.46  13.9857431959
0.18  -0.44  16.253350849
0.18  -0.42  18.8886218001
0.18  -0.4  21.9511679051
0.18  -0.38  25.5102663127
0.18  -0.36  29.6464265662
0.18  -0.34  34.4532117922
0.18  -0.32  40.0393551698
0.18  -0.3  46.5312195588
0.18  -0.28  54.0756559253
0.18  -0.26  62.8433252229
0.18  -0.24  73.0325588751
0.18  -0.22  84.8738451844
0.18  -0.2  73.7555328759
0.18  -0.18  73.860019165
0.18  -0.16  73.2296655246
0.18  -0.14  71.9171236684
0.18  -0.12  70.035950252
0.18  -0.1  67.7589604749
0.18  -0.08  65.3132659671
0.18  -0.06  62.9682517635
0.18  -0.04  61.0113899245
0.18  -0.02  59.708213915
0.18  6.17561557e-16  59.2503552881
0.18  0.02  59.708213915
0.18  0.04  61.0113899245
0.18  0.06  62.9682517635
0.18  0.08  65.3132659671
0.18  0.1  67.7589604749
0.18  0.12  70.035950252
0.18  0.14  71.9171236684
0.18  0.16  73.2296655246
0.18  0.18  73.860019165
0.18  0.2  98.6350431552
0.18  0.22  84.8738451844
0.18  0.24  73.0325588751
0.18  0.26  62.8433252229
0.18  0.28  54.0756559253
0.18  0.3  46.5312195588
0.18  0.32  40.0393551698
0.18  0.34  34.4532117922
0.18  0.36  29.6464265662
0.18  0.38  25.5102663127
0.18  0.4  21.9511679051
0.18  0.42  18.8886218001
0.18  0.44  16.253350849
0.18  0.46  13.9857431959
0.18  0.48  12.0345038115
0.18  0.5  10.35549416
0.18  0.52  8.91073375171
0.18  0.54  7.66754099486
0.18  0.56  6.59779391304
0.18  0.58  5.67729400445
0.18  0.6  4.88521885312
0.18  0.62  4.20365110987
0.18  0.64  3.6171731881
0.18  0.66  3.11251850611
0.18  0.68  2.67827138683
0.18  0.7  2.30460882639
0.18  0.72  1.98307829028
0.18  0.74  1.70640651044
0.18  0.76  1.46833495841
0.18  0.78  1.26347827255
0.18  0.8  1.08720243706
0.18  0.82  0.93551995696
0.18  0.84  0.80499965787
0.18  0.86  0.692689070232
0.18  0.88  0.596047642168
0.18  0.9  0.512889270239
0.18  0.92  0.441332848108
0.18  0.94  0.379759714468
0.18  0.96  0.326777037673
0.18  0.98  0.281186308821
0.2  -1  0.233061261236
0.2  -0.98  0.270849135089
0.2  -0.96  0.314763824709
0.2  -0.94  0.365798714156
0.2  -0.92  0.425108251883
0.2  -0.9  0.494034065253
0.2  -0.88  0.574135309182
0.2  -0.86  0.66722393542
0.2  -0.84  0.775405680293
0.2  -0.82  0.901127698084
0.2  -0.8  1.04723391754
0.2  -0.78  1.21702937372
0.2  -0.76  1.41435497045
0.2  -0.74  1.64367436452
0.2  -0.72  1.91017493699
0.2  -0.7  2.21988513581
0.2  -0.68  2.57981084391
0.2  -0.66  2.99809385763
0.2  -0.64  3.4841960605
0.2  -0.62  4.04911345824
0.2  -0.6  4.70562491692
0.2  -0.58  5.4685812307
0.2  -0.56  6.35524105826
0.2  -0.54  7.3856613269
0.2  -0.52  8.58315093567
0.2  -0.5  9.97479802063
0.2  -0.48  11.5920827092
0.2  -0.46  13.4715892252
0.2  -0.44  15.6558334515
0.2  -0.42  18.1942246727
0.2  -0.4  21.1441832507
0.2  -0.38  24.5724395175
0.2  -0.36  28.5565432669
0.2  -0.34  33.1866179903
0.2  -0.32  38.5673995391
0.2  -0.3  44.8206053309
0.2  -0.28  52.0876876905
0.2  -0.26  60.5330336107
0.2  -0.24  70.347683312
0.2  -0.22  81.7536517201
0.2  -0.2  71.0440788216
0.2  -0.18  71.1447239104
0.2  -0.16  70.5375437848
0.2  -0.14  69.2732545383
0.2  -0.12  67.4612381747
0.2  -0.1  65.2679567369
0.2  -0.08  62.9121726132
0.2  -0.06  60.6533675117
0.2  -0.04  58.7684452379
0.2  -0.02  57.513177524
0.2  6.17561557e-16  57.072151026
0.2  0.02  57.513177524
0.2  0.04  58.7684452379
0.2  0.06  60.6533675117
0.2  0.08  62.9121726132
0.2  0.1  65.2679567369
0.2  0.12  67.4612381747
0.2  0.14  69.2732545383
0.2  0.16  70.5375437848
0.2  0.18  71.1447239104
0.2  0.2  95.0089506137
0.2  0.22  81.7536517201
0.2  0.24  70.347683312
0.2  0.26  60.5330336107
0.2  0.28  52.0876876905
0.2  0.3  44.8206053309
0.2  0.32  38.5673995391
0.2  0.34  33.1866179903
0.2  0.36  28.5565432669
0.2  0.38  24.5724395175
0.2  0.4  21.1441832507
0.2  0.42  18.1942246727
0.2  0.44  15.6558334515
0.2  0.46  13.4715892252
0.2  0.48  11.5920827092
0.2  0.5  9.97479802063
0.2  0.52  8.58315093567
0.2  0.54  7.3856613269
0.2  0.56  6.35524105826
0.2  0.58  5.4685812307
0.2  0.6  4.70562491692
0.2  0.62  4.04911345824
0.2  0.64  3.4841960605
0.2  0.66  2.99809385763
0.2  0.68  2.57981084391
0.2  0.7  2.21988513581
0.2  0.72  1.91017493699
0.2  0.74  1.64367436452
0.2  0.76  1.41435497045
0.2  0.78  1.21702937372
0.2  0.8  1.04723391754
0.2  0.82  0.901127698084
0.2  0.84  0.775405680293
0.2  0.86  0.66722393542
0.2  0.88  0.574135309182
0.2  0.9  0.494034065253
0.2  0.92  0.425108251883
0.2  0.94  0.365798714156
0.2  0.96  0.314763824709
0.2  0.98  0.270849135089
0.22  -1  0.220190393015
0.22  -0.98  0.255891421795
0.22  -0.96  0.297380911362
0.22  -0.94  0.345597385885
0.22  -0.92  0.401631539105
0.22  -0.9  0.466750906667
0.22  -0.88  0.542428538754
0.22  -0.86  0.630376321615
0.22  -0.84  0.732583701746
0.22  -0.82  0.8513626887
0.22  -0.8  0.989400154527
0.22  -0.78  1.14981861288
0.22  -0.76  1.33624685267
0.22  -0.74  1.55290202409
0.22  -0.72  1.80468503377
0.22  -0.7  2.09729140703
0.22  -0.68  2.43734012513
0.22  -0.66  2.83252335162
0.22  -0.64  3.29178043504
0.22  -0.62  3.82550012389
0.22  -0.6  4.44575556805
0.22  -0.58  5.16657742276
0.22  -0.56  6.00427123281
0.22  -0.54  6.97778627653
0.22  -0.52  8.10914421302
0.22  -0.5  9.42393722903
0.22  -0.48  10.9519069539
0.22  -0.46  12.727617238
0.22  -0.44  14.791236014
0.22  -0.42  17.1894439258
0.22  -0.4  19.9764902809
0.22  -0.38  23.2154202118
0.22  -0.36  26.9795008048
0.22  -0.34  31.3538784582
0.22  -0.32  36.4375049592
0.22  -0.3  42.3453758494
0.22  -0.28  49.2111317127
0.22  -0.26  57.1900812277
0.22  -0.24  66.4627143697
0.22  -0.22  77.2387852326
0.22  -0.2  67.1206512577
0.22  -0.18  67.2157381956
0.22  -0.16  66.6420897489
0.22  -0.14  65.4476212018
0.22  -0.12  63.735673909
0.22  -0.1  61.6635170039
0.22  -0.08  59.4378316656
0.22  -0.06  57.303769658
0.22  -0.04  55.5229427026
0.22  -0.02  54.3369974718
0.22  6.17561557e-16  53.9203267758
0.22  0.02  54.3369974718
0.22  0.04  55.5229427026
0.22  0.06  57.303769658
0.22  0.08  59.4378316656
0.22  0.1  61.6635170039
0.22  0.12  63.735673909
0.22  0.14  65.4476212018
0.22  0.16  66.6420897489
0.22  0.18  67.2157381956
0.22  0.2  89.7620568283
0.22  0.22  77.2387852326
0.22  0.24  66.4627143697
0.22  0.26  57.1900812277
0.22  0.28  49.2111317127
0.22  0.3  42.3453758494
