0.42  -0.48  0.476361273025
0.42  -0.46  0.586335880384
0.42  -0.44  0.721699651281
0.42  -0.42  0.888314026285
0.42  -0.4  1.09339364082
0.42  -0.38  1.34581872898
0.42  -0.36  1.65651965006
0.42  -0.34  2.03895018842
0.42  -0.32  2.50967012116
0.42  -0.3  3.0890622796
0.42  -0.28  3.80221515442
0.42  -0.26  4.68000926233
0.42  -0.24  5.76045431572
0.42  -0.22  7.09033509624
0.42  -0.2  6.3648700881
0.42  -0.18  6.37576243596
0.42  -0.16  6.45893765658
0.42  -0.14  6.60317415855
0.42  -0.12  6.79001788685
0.42  -0.1  6.99728874217
0.42  -0.08  7.20239857783
0.42  -0.06  7.38482121204
0.42  -0.04  7.52763987439
0.42  -0.02  7.6183945232
0.42  6.17561557e-16  7.6494946788
0.42  0.02  7.6183945232
0.42  0.04  7.52763987439
0.42  0.06  7.38482121204
0.42  0.08  7.20239857783
0.42  0.1  6.99728874217
0.42  0.12  6.79001788685
0.42  0.14  6.60317415855
0.42  0.16  6.45893765658
0.42  0.18  6.37576243596
0.42  0.2  8.72723730138
0.42  0.22  7.09033509624
0.42  0.24  5.76045431572
0.42  0.26  4.68000926234
0.42  0.28  3.80221515442
0.42  0.3  3.0890622796
0.42  0.32  2.50967012116
0.42  0.34  2.03895018843
0.42  0.36  1.65651965006
0.42  0.38  1.34581872898
0.42  0.4  1.09339364082
0.42  0.42  0.888314026285
0.42  0.44  0.721699651282
0.42  0.46  0.586335880385
0.42  0.48  0.476361273025
0.42  0.5  0.387013774919
0.42  0.52  0.314424514457
0.42  0.54  0.255450275155
0.42  0.56  0.207537389981
0.42  0.58  0.168611164009
0.42  0.6  0.13698603722
0.42  0.62  0.1112925974
0.42  0.64  0.0904182826758
0.42  0.66  0.0734592060304
0.42  0.68  0.0596810157296
0.42  0.7  0.0484870968663
0.42  0.72  0.0393927371004
0.42  0.74  0.0320041379368
0.42  0.76  0.0260013626996
0.42  0.78  0.0211244828269
0.42  0.8  0.0171623226005
0.42  0.82  0.0139433149421
0.42  0.84  0.0113280723186
0.42  0.86  0.00920335106745
0.42  0.88  0.00747714778723
0.42  0.9  0.00607471546204
0.42  0.92  0.00493532681109
0.42  0.94  0.00400964471249
0.42  0.96  0.00325758583692
0.42  0.98  0.00264658498342
0.44  -1  0.00169014895933
0.44  -0.98  0.0020803432902
0.44  -0.96  0.00256061939463
0.44  -0.94  0.00315177389956
0.44  -0.92  0.00387940462169
0.44  -0.9  0.00477501898881
0.44  -0.88  0.0058773983554
0.44  -0.86  0.00723427728958
0.44  -0.84  0.00890441054663
0.44  -0.82  0.010960117232
0.44  -0.8  0.01349041232
0.44  -0.78  0.016604861126
0.44  -0.76  0.0204383236385
0.44  -0.74  0.0251567941451
0.44  -0.72  0.0309645890167
0.44  -0.7  0.0381131938929
0.44  -0.68  0.0469121533611
0.44  -0.66  0.0577424746706
0.44  -0.64  0.0710731258789
0.44  -0.62  0.0874813428246
0.44  -0.6  0.107677624246
0.44  -0.58  0.132536497371
0.44  -0.56  0.163134386168
0.44  -0.54  0.200796222009
0.44  -0.52  0.247152815051
0.44  -0.5  0.304211470598
0.44  -0.48  0.374442908222
0.44  -0.46  0.460888247384
0.44  -0.44  0.567290692151
0.44  -0.42  0.698257617174
0.44  -0.4  0.859460073445
0.44  -0.38  1.05787835274
0.44  -0.36  1.30210424403
0.44  -0.34  1.6027130699
0.44  -0.32  1.9727216129
0.44  -0.3  2.42815176034
0.44  -0.28  2.98872427446
0.44  -0.26  3.67871272903
0.44  -0.24  4.52799458898
0.44  -0.22  5.57334494646
0.44  -0.2  5.00309450243
0.44  -0.18  5.01165641256
0.44  -0.16  5.07703614275
0.44  -0.14  5.19041298156
0.44  -0.12  5.33728115278
0.44  -0.1  5.50020602987
0.44  -0.08  5.6614322414
0.44  -0.06  5.80482521968
0.44  -0.04  5.91708756825
0.44  -0.02  5.98842509411
0.44  6.17561557e-16  6.0128713146
0.44  0.02  5.98842509411
0.44  0.04  5.91708756825
0.44  0.06  5.80482521968
0.44  0.08  5.6614322414
0.44  0.1  5.50020602987
0.44  0.12  5.33728115278
0.44  0.14  5.19041298156
0.44  0.16  5.07703614275
0.44  0.18  5.01165641256
0.44  0.2  6.86002893375
0.44  0.22  5.57334494646
0.44  0.24  4.52799458898
0.44  0.26  3.67871272903
0.44  0.28  2.98872427447
0.44  0.3  2.42815176034
0.44  0.32  1.9727216129
0.44  0.34  1.6027130699
0.44  0.36  1.30210424403
0.44  0.38  1.05787835274
0.44  0.4  0.859460073446
0.44  0.42  0.698257617174
0.44  0.44  0.567290692152
0.44  0.46  0.460888247384
0.44  0.48  0.374442908222
0.44  0.5  0.304211470598
0.44  0.52  0.247152815052
0.44  0.54  0.200796222009
0.44  0.56  0.163134386168
0.44  0.58  0.132536497371
0.44  0.6  0.107677624246
0.44  0.62  0.0874813428246
0.44  0.64  0.0710731258789
0.44  0.66  0.0577424746706
0.44  0.68  0.0469121533611
0.44  0.7  0.0381131938929
0.44  0.72  0.0309645890167
0.44  0.74  0.0251567941451
0.44  0.76  0.0204383236386
0.44  0.78  0.016604861126
0.44  0.8  0.01349041232
0.44  0.82  0.0109601172321
0.44  0.84  0.00890441054664
0.44  0.86  0.00723427728959
0.44  0.88  0.0058773983554
0.44  0.9  0.00477501898881
0.44  0.92  0.00387940462169
0.44  0.94  0.00315177389956
0.44  0.96  0.00256061939463
0.44  0.98  0.0020803432902
0.46  -1  0.00132853850112
0.46  -0.98  0.00163525004191
0.46  -0.96  0.00201277019621
0.46  -0.94  0.00247744611461
0.46  -0.92  0.00304939891417
0.46  -0.9  0.00375339495091
0.46  -0.88  0.00461991823768
0.46  -0.86  0.00568649044452
0.46  -0.84  0.00699929563944
0.46  -0.82  0.00861518012319
0.46  -0.8  0.0106041139535
0.46  -0.78  0.0130522207465
0.46  -0.76  0.0160655069498
0.46  -0.74  0.0197744520696
0.46  -0.72  0.024339658616
0.46  -0.7  0.0299588064165
0.46  -0.68  0.0368752124284
0.46  -0.66  0.0453883667039
0.46  -0.64  0.0558669007275
0.46  -0.62  0.0687645496755
0.46  -0.6  0.084639799783
0.46  -0.58  0.104180071579
0.46  -0.56  0.128231486157
0.46  -0.54  0.157835503402
0.46  -0.52  0.194274018657
0.46  -0.5  0.239124870587
0.46  -0.48  0.2943301638
0.46  -0.46  0.36228036469
0.46  -0.44  0.445917811974
0.46  -0.42  0.548864124076
0.46  -0.4  0.675577020268
0.46  -0.38  0.831543346148
0.46  -0.36  1.02351666172
0.46  -0.34  1.25980968001
0.46  -0.32  1.55065421913
0.46  -0.3  1.90864425433
0.46  -0.28  2.34928125474
0.46  -0.26  2.89164541866
0.46  -0.24  3.55922187281
0.46  -0.22  4.38091761117
0.46  -0.2  3.93267329164
0.46  -0.18  3.93940336546
0.46  -0.16  3.9907949829
0.46  -0.14  4.07991463988
0.46  -0.12  4.1953600975
0.46  -0.1  4.32342689943
0.46  -0.08  4.4501584684
0.46  -0.06  4.56287225696
0.46  -0.04  4.65111587092
0.46  -0.02  4.70719060277
0.46  6.17561557e-16  4.72640650972
0.46  0.02  4.70719060277
0.46  0.04  4.65111587092
0.46  0.06  4.56287225696
0.46  0.08  4.4501584684
0.46  0.1  4.32342689943
0.46  0.12  4.1953600975
0.46  0.14  4.07991463988
0.46  0.16  3.9907949829
0.46  0.18  3.93940336546
0.46  0.2  5.39231320827
0.46  0.22  4.38091761118
0.46  0.24  3.55922187281
0.46  0.26  2.89164541866
0.46  0.28  2.34928125475
0.46  0.3  1.90864425433
0.46  0.32  1.55065421913
0.46  0.34  1.25980968001
0.46  0.36  1.02351666172
0.46  0.38  0.831543346148
0.46  0.4  0.675577020269
0.46  0.42  0.548864124076
0.46  0.44  0.445917811974
0.46  0.46  0.36228036469
0.46  0.48  0.294330163801
0.46  0.5  0.239124870588
0.46  0.52  0.194274018657
0.46  0.54  0.157835503402
0.46  0.56  0.128231486158
0.46  0.58  0.104180071579
0.46  0.6  0.084639799783
0.46  0.62  0.0687645496755
0.46  0.64  0.0558669007275
0.46  0.66  0.0453883667039
0.46  0.68  0.0368752124285
0.46  0.7  0.0299588064165
0.46  0.72  0.024339658616
0.46  0.74  0.0197744520696
0.46  0.76  0.0160655069498
0.46  0.78  0.0130522207466
0.46  0.8  0.0106041139535
0.46  0.82  0.00861518012319
0.46  0.84  0.00699929563944
0.46  0.86  0.00568649044452
0.46  0.88  0.00461991823768
0.46  0.9  0.00375339495092
0.46  0.92  0.00304939891417
0.46  0.94  0.00247744611461
0.46  0.96  0.00201277019621
0.46  0.98  0.00163525004192
0.48  -1  0.00104429526121
0.48  -0.98  0.00128538530741
0.48  -0.96  0.00158213433486
0.48  -0.94  0.00194739199143
0.48  -0.92  0.00239697444442
0.48  -0.9  0.00295034924271
0.48  -0.88  0.0036314782889
0.48  -0.86  0.00446985542317
0.48  -0.84  0.0055017835478
0.48  -0.82  0.00677194659359
0.48  -0.8  0.00833534439661
0.48  -0.78  0.0102596742679
0.48  -0.76  0.0126282623819
0.48  -0.74  0.0155436719161
0.48  -0.72  0.01913214418
0.48  -0.7  0.0235490650409
0.48  -0.68  0.0289856933485
0.48  -0.66  0.0356774427109
0.48  -0.64  0.0439140752331
0.48  -0.62  0.0540522486212
0.48  -0.6  0.0665309599598
0.48  -0.58  0.0818905548999
0.48  -0.56  0.100796125381
0.48  -0.54  0.124066309041
0.48  -0.52  0.152708737375
0.48  -0.5  0.18796366758
0.48  -0.48  0.231357687435
0.48  -0.46  0.284769818681
0.48  -0.44  0.350512881291
0.48  -0.42  0.431433641808
0.48  -0.4  0.531036082322
0.48  -0.38  0.653633127787
0.48  -0.36  0.804533401709
0.48  -0.34  0.990271096964
0.48  -0.32  1.21888891549
0.48  -0.3  1.50028632851
0.48  -0.28  1.84664823753
0.48  -0.26  2.27297259753
0.48  -0.24  2.79771984947
0.48  -0.22  3.44361228316
0.48  -0.2  3.09127065485
0.48  -0.18  3.09656081707
0.48  -0.16  3.13695710406
0.48  -0.14  3.20700944758
0.48  -0.12  3.2977551386
0.48  -0.1  3.39842181424
0.48  -0.08  3.49803893246
0.48  -0.06  3.5866374
0.48  -0.04  3.65600113151
0.48  -0.02  3.70007857201
0.48  6.17561557e-16  3.71518320056
0.48  0.02  3.70007857201
0.48  0.04  3.65600113151
0.48  0.06  3.5866374
0.48  0.08  3.49803893246
0.48  0.1  3.39842181424
0.48  0.12  3.2977551386
0.48  0.14  3.20700944758
0.48  0.16  3.13695710406
0.48  0.18  3.09656081707
0.48  0.2  4.23861794416
0.48  0.22  3.44361228316
0.48  0.24  2.79771984947
0.48  0.26  2.27297259753
0.48  0.28  1.84664823753
0.48  0.3  1.50028632851
0.48  0.32  1.21888891549
0.48  0.34  0.990271096965
0.48  0.36  0.80453340171
0.48  0.38  0.653633127788
0.48  0.4  0.531036082322
0.48  0.42  0.431433641809
0.48  0.44  0.350512881291
0.48  0.46  0.284769818681
0.48  0.48  0.231357687436
0.48  0.5  0.18796366758
0.48  0.52  0.152708737375
0.48  0.54  0.124066309042
0.48  0.56  0.100796125381
0.48  0.58  0.0818905549
0.48  0.6  0.0665309599599
0.48  0.62  0.0540522486212
0.48  0.64  0.0439140752331
0.48  0.66  0.0356774427109
0.48  0.68  0.0289856933485
0.48  0.7  0.0235490650409
0.48  0.72  0.0191321441801
0.48  0.74  0.0155436719161
0.48  0.76  0.0126282623819
0.48  0.78  0.0102596742679
0.48  0.8  0.00833534439661
0.48  0.82  0.0067719465936
0.48  0.84  0.0055017835478
0.48  0.86  0.00446985542318
0.48  0.88  0.00363147828891
0.48  0.9  0.00295034924271
0.48  0.92  0.00239697444442
0.48  0.94  0.00194739199143
0.48  0.96  0.00158213433486
0.48  0.98  0.00128538530741
0.5  -1  0.00082086638187
0.5  -0.98  0.00101037477215
0.5  -0.96  0.00124363380294
0.5  -0.94  0.00153074391646
0.5  -0.92  0.00188413738212
0.5  -0.9  0.00231911663115
0.5  -0.88  0.00285451687331
0.5  -0.86  0.00351352168776
0.5  -0.84  0.00432466690452
0.5  -0.82  0.00532307624574
0.5  -0.8  0.00655198223205
0.5  -0.78  0.00806459821113
0.5  -0.76  0.00992642257008
0.5  -0.74  0.0122180749072
0.5  -0.72  0.0150387869732
0.5  -0.7  0.018510699545
0.5  -0.68  0.022784151292
0.5  -0.66  0.0280441886507
0.5  -0.64  0.0345185785942
0.5  -0.62  0.0424876712608
0.5  -0.6  0.0522965395066
0.5  -0.58  0.0643699210432
0.5  -0.56  0.0792306101741
0.5  -0.54  0.0975220955197
0.5  -0.52  0.120036423974
0.5  -0.5  0.147748497442
0.5  -0.48  0.181858287456
0.5  -0.46  0.223842795624
0.5  -0.44  0.275520009858
0.5  -0.42  0.339127625799
0.5  -0.4  0.417419942164
0.5  -0.38  0.513787125735
0.5  -0.36  0.632402010316
0.5  -0.34  0.778400786279
0.5  -0.32  0.958105404783
0.5  -0.3  1.1792973271
0.5  -0.28  1.45155447279
0.5  -0.26  1.78666595696
0.5  -0.24  2.19914257549
0.5  -0.22  2.70684514277
0.5  -0.2  2.42988764967
0.5  -0.18  2.43404597202
0.5  -0.16  2.46579939959
0.5  -0.14  2.52086391621
0.5  -0.12  2.59219440081
0.5  -0.1  2.67132325726
0.5  -0.08  2.749627111
0.5  -0.06  2.81926977452
0.5  -0.04  2.87379300893
0.5  -0.02  2.9084400005
0.5  6.17561557e-16  2.92031296616
0.5  0.02  2.9084400005
0.5  0.04  2.87379300893
0.5  0.06  2.81926977452
0.5  0.08  2.749627111
0.5  0.1  2.67132325726
0.5  0.12  2.59219440081
0.5  0.14  2.52086391621
0.5  0.16  2.46579939959
0.5  0.18  2.43404597202
0.5  0.2  3.33175788992
0.5  0.22  2.70684514278
0.5  0.24  2.1991425755
0.5  0.26  1.78666595696
0.5  0.28  1.45155447279
0.5  0.3  1.1792973271
0.5  0.32  0.958105404783
0.5  0.34  0.778400786279
0.5  0.36  0.632402010316
0.5  0.38  0.513787125735
0.5  0.4  0.417419942164
0.5  0.42  0.339127625799
0.5  0.44  0.275520009858
0.5  0.46  0.223842795624
0.5  0.48  0.181858287456
0.5  0.5  0.147748497442
0.5  0.52  0.120036423974
0.5  0.54  0.0975220955198
0.5  0.56  0.0792306101742
0.5  0.58  0.0643699210432
0.5  0.6  0.0522965395066
0.5  0.62  0.0424876712608
0.5  0.64  0.0345185785942
0.5  0.66  0.0280441886507
0.5  0.68  0.022784151292
0.5  0.7  0.018510699545
0.5  0.72  0.0150387869732
0.5  0.74  0.0122180749072
0.5  0.76  0.00992642257009
0.5  0.78  0.00806459821114
0.5  0.8  0.00655198223205
0.5  0.82  0.00532307624574
0.5  0.84  0.00432466690452
0.5  0.86  0.00351352168777
0.5  0.88  0.00285451687331
0.5  0.9  0.00231911663116
0.5  0.92  0.00188413738212
0.5  0.94  0.00153074391646
0.5  0.96  0.00124363380294
0.5  0.98  0.00101037477215
0.52  -1  0.000645240519526
0.52  -0.98  0.00079420324342
0.52  -0.96  0.000977556078347
0.52  -0.94  0.00120323845846
0.52  -0.92  0.00148102274639
0.52  -0.9  0.00182293739027
0.52  -0.88  0.0022437877723
0.52  -0.86  0.00276179730252
0.52  -0.84  0.00339939651797
0.52  -0.82  0.00418419435628
0.52  -0.8  0.00515017366128
0.52  -0.78  0.00633916268768
0.52  -0.76  0.00780264632298
0.52  -0.74  0.00960399545509
0.52  -0.72  0.0118212110204
0.52  -0.7  0.0145503015533
0.52  -0.68  0.0179094404903
0.52  -0.66  0.0220440832446
0.52  -0.64  0.0271332656293
0.52  -0.62  0.0333973563582
0.52  -0.6  0.0411075993194
0.52  -0.58  0.0505978588149
0.52  -0.56  0.0622790763519
0.52  -0.54  0.0766570649843
0.52  -0.52  0.0943544117258
0.52  -0.5  0.116137436438
0.52  -0.48  0.142949374551
0.52  -0.46  0.175951220479
0.52  -0.44  0.2165720003
0.52  -0.42  0.266570650582
0.52  -0.4  0.3281121828
0.52  -0.38  0.403861431357
0.52  -0.36  0.497098444641
0.52  -0.34  0.611860515708
0.52  -0.32  0.753117002715
0.52  -0.3  0.926984509078
0.52  -0.28  1.14099174096
0.52  -0.26  1.40440551075
0.52  -0.24  1.72863200305
0.52  -0.22  2.12771067835
0.52  -0.2  1.91000874697
0.52  -0.18  1.91327738865
0.52  -0.16  1.93823711237
0.52  -0.14  1.98152047504
0.52  -0.12  2.03758967213
0.52  -0.1  2.09978876514
0.52  -0.08  2.1613393663
0.52  -0.06  2.2160818547
0.52  -0.04  2.25893974348
0.52  -0.02  2.28617394789
0.52  6.17561557e-16  2.29550667086
0.52  0.02  2.28617394789
0.52  0.04  2.25893974348
0.52  0.06  2.2160818547
0.52  0.08  2.1613393663
0.52  0.1  2.09978876514
0.52  0.12  2.03758967213
0.52  0.14  1.98152047504
0.52  0.16  1.93823711237
0.52  0.18  1.91327738865
0.52  0.2  2.61892220136
0.52  0.22  2.12771067835
0.52  0.24  1.72863200305
0.52  0.26  1.40440551075
0.52  0.28  1.14099174096
0.52  0.3  0.926984509079
0.52  0.32  0.753117002715
0.52  0.34  0.611860515708
0.52  0.36  0.497098444641
0.52  0.38  0.403861431357
0.52  0.4  0.3281121828
0.52  0.42  0.266570650582
0.52  0.44  0.2165720003
0.52  0.46  0.17595122048
0.52  0.48  0.142949374551
0.52  0.5  0.116137436438
0.52  0.52  0.0943544117259
0.52  0.54  0.0766570649844
0.52  0.56  0.0622790763519
0.52  0.58  0.0505978588149
0.52  0.6  0.0411075993194
0.52  0.62  0.0333973563582
0.52  0.64  0.0271332656293
0.52  0.66  0.0220440832446
0.52  0.68  0.0179094404903
0.52  0.7  0.0145503015533
0.52  0.72  0.0118212110204
0.52  0.74  0.0096039954551
0.52  0.76  0.00780264632299
0.52  0.78  0.00633916268769
0.52  0.8  0.00515017366128
0.52  0.82  0.00418419435628
0.52  0.84  0.00339939651797
0.52  0.86  0.00276179730252
0.52  0.88  0.0022437877723
0.52  0.9  0.00182293739027
0.52  0.92  0.00148102274639
0.52  0.94  0.00120323845846
0.52  0.96  0.000977556078347
0.52  0.98  0.00079420324342
0.54  -1  0.000507190131347
0.54  -0.98  0.000624282008268
0.54  -0.96  0.000768406169128
0.54  -0.94  0.00094580339163
0.54  -0.92  0.00116415522358
0.54  -0.9  0.00143291660463
0.54  -0.88  0.00176372527842
0.54  -0.86  0.00217090572311
0.54  -0.84  0.00267208942134
0.54  -0.82  0.00328897832811
0.54  -0.8  0.0040482845957
0.54  -0.78  0.00498288724731
0.54  -0.76  0.00613325588466
0.54  -0.74  0.00754920307841
0.54  -0.72  0.00929204132206
0.54  -0.7  0.0114372379487
0.54  -0.68  0.0140776829721
0.54  -0.66  0.017327711354
0.54  -0.64  0.0213280538682
0.54  -0.62  0.0262519309394
0.54  -0.6  0.0323125533304
0.54  -0.58  0.0397723544656
0.54  -0.56  0.0489543541659
0.54  -0.54  0.060256145858
0.54  -0.52  0.0741671129264
0.54  -0.5  0.0912896196978
0.54  -0.48  0.112365094659
0.54  -0.46  0.138306135348
0.54  -0.44  0.170236025101
0.54  -0.42  0.209537372794
0.54  -0.4  0.257911981741
0.54  -0.38  0.317454540155
0.54  -0.36  0.390743324078
0.54  -0.34  0.480951840339
0.54  -0.32  0.591986243838
0.54  -0.3  0.728654479512
0.54  -0.28  0.896874473082
0.54  -0.26  1.1039303855
0.54  -0.24  1.35878802732
0.54  -0.22  1.67248309082
0.54  -0.2  1.50135888546
0.54  -0.18  1.50392819528
0.54  -0.16  1.5235477405
0.54  -0.14  1.55757054864
0.54  -0.12  1.60164363855
0.54  -0.1  1.65053512197
0.54  -0.08  1.69891685954
0.54  -0.06  1.74194709252
0.54  -0.04  1.77563545768
0.54  -0.02  1.79704285429
0.54  6.17561557e-16  1.80437882412
0.54  0.02  1.79704285429
0.54  0.04  1.77563545768
0.54  0.06  1.74194709252
0.54  0.08  1.69891685954
0.54  0.1  1.65053512197
0.54  0.12  1.60164363855
0.54  0.14  1.55757054864
0.54  0.16  1.5235477405
0.54  0.18  1.50392819528
0.54  0.2  2.05859901091
0.54  0.22  1.67248309082
0.54  0.24  1.35878802732
0.54  0.26  1.1039303855
0.54  0.28  0.896874473082
0.54  0.3  0.728654479513
0.54  0.32  0.591986243838
0.54  0.34  0.48095184034
0.54  0.36  0.390743324079
0.54  0.38  0.317454540156
0.54  0.4  0.257911981742
0.54  0.42  0.209537372794
0.54  0.44  0.170236025101
0.54  0.46  0.138306135348
0.54  0.48  0.112365094659
0.54  0.5  0.0912896196979
0.54  0.52  0.0741671129264
0.54  0.54  0.060256145858
0.54  0.56  0.0489543541659
0.54  0.58  0.0397723544657
0.54  0.6  0.0323125533304
0.54  0.62  0.0262519309395
0.54  0.64  0.0213280538682
0.54  0.66  0.017327711354
0.54  0.68  0.0140776829721
0.54  0.7  0.0114372379487
0.54  0.72  0.00929204132206
0.54  0.74  0.00754920307841
0.54  0.76  0.00613325588466
0.54  0.78  0.00498288724731
0.54  0.8  0.0040482845957
0.54  0.82  0.00328897832811
0.54  0.84  0.00267208942135
0.54  0.86  0.00217090572311
0.54  0.88  0.00176372527842
0.54  0.9  0.00143291660463
0.54  0.92  0.00116415522358
0.54  0.94  0.000945803391631
0.54  0.96  0.000768406169129
0.54  0.98  0.000624282008269
0.56  -1  0.000398675875973
0.56  -0.98  0.000490715731869
0.56  -0.96  0.00060400426516
0.56  -0.94  0.000743447027755
0.56  -0.92  0.00091508208627
0.56  -0.9  0.00112634147875
0.56  -0.88  0.0013863730323
0.56  -0.86  0.00170643647682
0.56  -0.84  0.00210039100703
0.56  -0.82  0.00258529540497
0.56  -0.8  0.00318214670915
0.56  -0.78  0.00391678941568
0.56  -0.76  0.00482103458104
0.56  -0.74  0.00593403728537
0.56  -0.72  0.00730399210216
0.56  -0.7  0.00899021999069
0.56  -0.68  0.0110657369765
0.56  -0.66  0.0136204158474
0.56  -0.64  0.016764877771
0.56  -0.62  0.0206352823457
0.56  -0.6  0.0253992235017
0.56  -0.58  0.031262986553
0.56  -0.56  0.0384804806394
0.56  -0.54  0.0473642333476
0.56  -0.52  0.0582989235926
0.56  -0.5  0.0717580387529
0.56  -0.48  0.0883243773358
0.56  -0.46  0.108715284968
0.56  -0.44  0.133813716464
0.56  -0.42  0.164706469004
0.56  -0.4  0.202731241974
0.56  -0.38  0.249534561215
0.56  -0.36  0.307143075899
0.56  -0.34  0.378051315271
0.56  -0.32  0.465329705251
0.56  -0.3  0.572757522174
0.56  -0.28  0.704986540736
0.56  -0.26  0.867742462347
0.56  -0.24  1.06807284601
0.56  -0.22  1.31465227746
0.56  -0.2  1.18014040853
0.56  -0.18  1.18216000982
0.56  -0.16  1.19758191749
0.56  -0.14  1.22432548366
0.56  -0.12  1.25896905545
0.56  -0.1  1.29740011665
0.56  -0.08  1.33543049306
0.56  -0.06  1.36925432907
0.56  -0.04  1.39573500695
0.56  -0.02  1.41256225194
0.56  6.17561557e-16  1.41832867762
0.56  0.02  1.41256225194
0.56  0.04  1.39573500695
0.56  0.06  1.36925432907
0.56  0.08  1.33543049306
0.56  0.1  1.29740011665
0.56  0.12  1.25896905545
0.56  0.14  1.22432548366
0.56  0.16  1.19758191749
0.56  0.18  1.18216000982
0.56  0.2  1.61815799091
0.56  0.22  1.31465227746
0.56  0.24  1.06807284601
0.56  0.26  0.867742462348
0.56  0.28  0.704986540737
0.56  0.3  0.572757522174
0.56  0.32  0.465329705252
0.56  0.34  0.378051315271
0.56  0.36  0.307143075899
0.56  0.38  0.249534561215
0.56  0.4  0.202731241974
0.56  0.42  0.164706469004
0.56  0.44  0.133813716464
0.56  0.46  0.108715284968
0.56  0.48  0.0883243773359
0.56  0.5  0.071758038753
0.56  0.52  0.0582989235926
0.56  0.54  0.0473642333476
0.56  0.56  0.0384804806394
0.56  0.58  0.031262986553
0.56  0.6  0.0253992235017
0.56  0.62  0.0206352823457
0.56  0.64  0.016764877771
0.56  0.66  0.0136204158475
0.56  0.68  0.0110657369765
0.56  0.7  0.00899021999069
0.56  0.72  0.00730399210216
0.56  0.74  0.00593403728537
0.56  0.76  0.00482103458104
0.56  0.78  0.00391678941568
0.56  0.8  0.00318214670916
0.56  0.82  0.00258529540497
0.56  0.84  0.00210039100703
0.56  0.86  0.00170643647682
0.56  0.88  0.0013863730323
0.56  0.9  0.00112634147875
0.56  0.92  0.00091508208627
0.56  0.94  0.000743447027756
0.56  0.96  0.00060400426516
0.56  0.98  0.00049071573187
0.58  -1  0.000313378443821
0.58  -0.98  0.000385726204367
0.58  -0.96  0.000474776448951
0.58  -0.94  0.00058438517769
0.58  -0.92  0.000719298601813
0.58  -0.9  0.000885358661242
0.58  -0.88  0.00108975598877
0.58  -0.86  0.00134134127449
0.58  -0.84  0.0016510085131
0.58  -0.82  0.00203216672905
0.58  -0.8  0.0025013206061
0.58  -0.78  0.00307878516317
0.58  -0.76  0.00378956542311
0.58  -0.74  0.00466443916509
0.58  -0.72  0.00574128964556
0.58  -0.7  0.00706674599614
0.58  -0.68  0.00869820233032
0.58  -0.66  0.0107063029887
0.58  -0.64  0.013178001538
0.58  -0.62  0.0162203259816
0.58  -0.6  0.0199650132223
0.58  -0.58  0.0245742134541
0.58  -0.56  0.0302475114924
0.58  -0.54  0.0372305690757
0.58  -0.52  0.0458257623622
0.58  -0.5  0.0564052752406
0.58  -0.48  0.0694272154126
0.58  -0.46  0.0854554510971
0.58  -0.44  0.105184027313
0.58  -0.42  0.129467218998
0.58  -0.4  0.159356522309
0.58  -0.38  0.196146185877
0.58  -0.36  0.241429253578
0.58  -0.34  0.297166545568
0.58  -0.32  0.365771564531
0.58  -0.3  0.450215003724
0.58  -0.28  0.554153382147
0.58  -0.26  0.682087376931
0.58  -0.24  0.839556708949
0.58  -0.22  1.03338002048
0.58  -0.2  0.927647211691
0.58  -0.18  0.929234715597
0.58  -0.16  0.941357077942
0.58  -0.14  0.962378809262
0.58  -0.12  0.989610325566
0.58  -0.1  1.019818991
0.58  -0.08  1.04971269888
0.58  -0.06  1.07629986337
0.58  -0.04  1.09711495183
0.58  -0.02  1.11034197701
0.58  6.17561557e-16  1.11487466538
0.58  0.02  1.11034197701
0.58  0.04  1.09711495183
0.58  0.06  1.07629986337
0.58  0.08  1.04971269888
0.58  0.1  1.019818991
0.58  0.12  0.989610325566
0.58  0.14  0.962378809262
0.58  0.16  0.941357077942
0.58  0.18  0.929234715597
0.58  0.2  1.27195013195
0.58  0.22  1.03338002048
0.58  0.24  0.839556708949
0.58  0.26  0.682087376931
0.58  0.28  0.554153382147
0.58  0.3  0.450215003724
0.58  0.32  0.365771564531
0.58  0.34  0.297166545568
0.58  0.36  0.241429253578
0.58  0.38  0.196146185877
0.58  0.4  0.159356522309
0.58  0.42  0.129467218998
0.58  0.44  0.105184027313
0.58  0.46  0.0854554510972
0.58  0.48  0.0694272154126
0.58  0.5  0.0564052752406
0.58  0.52  0.0458257623623
0.58  0.54  0.0372305690757
0.58  0.56  0.0302475114925
0.58  0.58  0.0245742134541
0.58  0.6  0.0199650132223
0.58  0.62  0.0162203259816
0.58  0.64  0.013178001538
0.58  0.66  0.0107063029887
0.58  0.68  0.00869820233033
0.58  0.7  0.00706674599615
0.58  0.72  0.00574128964556
0.58  0.74  0.00466443916509
0.58  0.76  0.00378956542311
0.58  0.78  0.00307878516317
0.58  0.8  0.0025013206061
0.58  0.82  0.00203216672905
0.58  0.84  0.0016510085131
0.58  0.86  0.00134134127449
0.58  0.88  0.00108975598877
0.58  0.9  0.000885358661243
0.58  0.92  0.000719298601813
0.58  0.94  0.000584385177691
0.58  0.96  0.000474776448952
0.58  0.98  0.000385726204367
0.6  -1  0.000246330553139
0.6  -0.98  0.000303199378118
0.6  -0.96  0.000373197160155
0.6  -0.94  0.000459354901096
0.6  -0.92  0.000565403351604
0.6  -0.9  0.000695934557882
0.6  -0.88  0.000856600703694
0.6  -0.86  0.00105435885782
0.6  -0.84  0.00129777222489
0.6  -0.82  0.00159738094406
0.6  -0.8  0.00196615849184
0.6  -0.78  0.00242007345175
0.6  -0.76  0.00297878097628
0.6  -0.74  0.00366647388254
0.6  -0.72  0.00451293023502
0.6  -0.7  0.00555480277743
0.6  -0.68  0.00683720604781
0.6  -0.66  0.00841566990102
0.6  -0.64  0.0103585440292
0.6  -0.62  0.012749957599
0.6  -0.6  0.015693462162
0.6  -0.58  0.019316515582
0.6  -0.56  0.0237760011383
0.6  -0.54  0.0292650207918
0.6  -0.52  0.0360212567689
0.6  -0.5  0.0443372635354
0.6  -0.48  0.054573135813
0.6  -0.46  0.0671721011849
0.6  -0.44  0.08267971247
0.6  -0.42  0.101767470922
0.6  -0.4  0.125261903174
0.6  -0.38  0.154180350997
0.6  -0.36  0.189775023619
0.6  -0.34  0.233587220141
0.6  -0.32  0.287514069937
0.6  -0.3  0.353890681014
0.6  -0.28  0.43559125345
0.6  -0.26  0.53615353628
0.6  -0.24  0.659932016975
0.6  -0.22  0.812286476836
0.6  -0.2  0.72917539569
0.6  -0.18  0.730423250234
0.6  -0.16  0.739952011005
0.6  -0.14  0.756476104497
0.6  -0.12  0.777881388129
0.6  -0.1  0.801626854392
0.6  -0.08  0.825124748851
0.6  -0.06  0.846023540915
0.6  -0.04  0.862385203162
0.6  -0.02  0.872782282134
0.6  6.17561557e-16  0.876345193546
0.6  0.02  0.872782282134
0.6  0.04  0.862385203162
0.6  0.06  0.846023540915
0.6  0.08  0.825124748851
0.6  0.1  0.801626854392
0.6  0.12  0.777881388129
0.6  0.14  0.756476104497
0.6  0.16  0.739952011005
0.6  0.18  0.730423250234
0.6  0.2  0.999814077025
0.6  0.22  0.812286476836
0.6  0.24  0.659932016975
0.6  0.26  0.536153536281
0.6  0.28  0.43559125345
0.6  0.3  0.353890681014
0.6  0.32  0.287514069937
0.6  0.34  0.233587220141
0.6  0.36  0.189775023619
0.6  0.38  0.154180350997
0.6  0.4  0.125261903174
0.6  0.42  0.101767470922
0.6  0.44  0.08267971247
0.6  0.46  0.067172101185
0.6  0.48  0.054573135813
0.6  0.5  0.0443372635354
0.6  0.52  0.0360212567689
0.6  0.54  0.0292650207918
0.6  0.56  0.0237760011384
0.6  0.58  0.019316515582
0.6  0.6  0.015693462162
0.6  0.62  0.012749957599
0.6  0.64  0.0103585440292
0.6  0.66  0.00841566990103
0.6  0.68  0.00683720604781
0.6  0.7  0.00555480277744
0.6  0.72  0.00451293023502
0.6  0.74  0.00366647388254
0.6  0.76  0.00297878097628
0.6  0.78  0.00242007345175
0.6  0.8  0.00196615849184
0.6  0.82  0.00159738094406
0.6  0.84  0.00129777222489
0.6  0.86  0.00105435885782
0.6  0.88  0.000856600703694
0.6  0.9  0.000695934557883
0.6  0.92  0.000565403351604
0.6  0.94  0.000459354901096
0.6  0.96  0.000373197160155
0.6  0.98  0.000303199378118
0.62  -1  0.000193627681183
0.62  -0.98  0.000238329317143
0.62  -0.96  0.000293350945809
0.62  -0.94  0.000361075080642
0.62  -0.92  0.000444434271385
0.62  -0.9  0.000547038087565
0.62  -0.88  0.0006733294179
0.62  -0.86  0.000828776853597
0.62  -0.84  0.00102011148599
0.62  -0.82  0.00125561837223
0.62  -0.8  0.00154549528981
0.62  -0.78  0.00190229431462
0.62  -0.76  0.00234146534338
0.62  -0.74  0.00288202509574
0.62  -0.72  0.0035473805649
0.62  -0.7  0.00436634257309
0.62  -0.68  0.00537437332047
0.62  -0.66  0.00661512194802
0.62  -0.64  0.00814231460633
0.62  -0.62  0.0100220808731
0.62  -0.6  0.0123358172563
0.62  -0.58  0.0151837117768
0.62  -0.56  0.0186890822497
0.62  -0.54  0.0230037161183
0.62  -0.52  0.0283144430627
0.62  -0.5  0.0348512249859
0.62  -0.48  0.0428971136861
0.62  -0.46  0.052800507395
0.62  -0.44  0.0649902369091
0.62  -0.42  0.0799941345619
0.62  -0.4  0.0984618901031
0.62  -0.38  0.121193183172
0.62  -0.36  0.149172310546
0.62  -0.34  0.183610807565
0.62  -0.32  0.225999909309
0.62  -0.3  0.278175123158
0.62  -0.28  0.342395708833
0.62  -0.26  0.421442507497
0.62  -0.24  0.518738356071
0.62  -0.22  0.638496300852
0.62  -0.2  0.573166987384
0.62  -0.18  0.574147861168
0.62  -0.16  0.581637926161
0.62  -0.14  0.594626659655
0.62  -0.12  0.611452243741
0.62  -0.1  0.630117324108
0.62  -0.08  0.648587801111
0.62  -0.06  0.665015258425
0.62  -0.04  0.677876313137
0.62  -0.02  0.686048918065
0.62  6.17561557e-16  0.68884953807
0.62  0.02  0.686048918065
0.62  0.04  0.677876313137
0.62  0.06  0.665015258425
0.62  0.08  0.648587801111
0.62  0.1  0.630117324108
0.62  0.12  0.611452243741
0.62  0.14  0.594626659655
0.62  0.16  0.581637926161
0.62  0.18  0.574147861168
0.62  0.2  0.785902028318
0.62  0.22  0.638496300853
0.62  0.24  0.518738356071
0.62  0.26  0.421442507497
0.62  0.28  0.342395708833
0.62  0.3  0.278175123158
0.62  0.32  0.225999909309
0.62  0.34  0.183610807566
0.62  0.36  0.149172310546
0.62  0.38  0.121193183172
0.62  0.4  0.0984618901031
0.62  0.42  0.079994134562
0.62  0.44  0.0649902369091
0.62  0.46  0.0528005073951
0.62  0.48  0.0428971136861
0.62  0.5  0.0348512249859
0.62  0.52  0.0283144430628
0.62  0.54  0.0230037161184
0.62  0.56  0.0186890822497
0.62  0.58  0.0151837117768
0.62  0.6  0.0123358172563
0.62  0.62  0.0100220808731
0.62  0.64  0.00814231460633
0.62  0.66  0.00661512194802
0.62  0.68  0.00537437332048
0.62  0.7  0.00436634257309
0.62  0.72  0.00354738056491
0.62  0.74  0.00288202509575
0.62  0.76  0.00234146534338
0.62  0.78  0.00190229431463
0.62  0.8  0.00154549528981
0.62  0.82  0.00125561837223
0.62  0.84  0.00102011148599
0.62  0.86  0.000828776853597
0.62  0.88  0.0006733294179
0.62  0.9  0.000547038087565
0.62  0.92  0.000444434271385
0.62  0.94  0.000361075080642
0.62  0.96  0.000293350945809
0.62  0.98  0.000238329317143
0.64  -1  0.000152200684985
0.64  -0.98  0.000187338324249
0.64  -0.96  0.000230587974922
0.64  -0.94  0.000283822407358
0.64  -0.92  0.000349346746922
0.64  -0.9  0.000429998289145
0.64  -0.88  0.000529269358587
0.64  -0.86  0.000651458531373
0.64  -0.84  0.000801856769549
0.64  -0.82  0.000986976527143
0.64  -0.8  0.00121483374853
0.64  -0.78  0.00149529497001
0.64  -0.76  0.00184050455468
0.64  -0.74  0.00226541056028
0.64  -0.72  0.00278841201103
0.64  -0.7  0.0034321556011
0.64  -0.68  0.00422451632814
0.64  -0.66  0.00519980451964
0.64  -0.64  0.00640025151812
0.64  -0.62  0.00787783835727
0.64  -0.6  0.00969654661347
0.64  -0.58  0.0119351288974
0.64  -0.56  0.0146905189524
0.64  -0.54  0.0180820290209
0.64  -0.52  0.0222565162314
0.64  -0.5  0.0273947417177
0.64  -0.48  0.0337191978284
0.64  -0.46  0.0415037423572
0.64  -0.44  0.0510854569678
0.64  -0.42  0.0628792433017
0.64  -0.4  0.0773957887993
0.64  -0.38  0.0952636801802
0.64  -0.36  0.117256622127
0.64  -0.34  0.144326939781
0.64  -0.32  0.17764681575
0.64  -0.3  0.218659047258
0.64  -0.28  0.269139521279
0.64  -0.26  0.33127411293
0.64  -0.24  0.407753336916
0.64  -0.22  0.501888850581
0.64  -0.2  0.450536863104
0.64  -0.18  0.451307877149
0.64  -0.16  0.457195429051
0.64  -0.14  0.46740519928
0.64  -0.12  0.480630918906
0.64  -0.1  0.495302571222
0.64  -0.08  0.50982125592
0.64  -0.06  0.522734028724
0.64  -0.04  0.53284343728
0.64  -0.02  0.53926749845
0.64  6.17561557e-16  0.541468920687
0.64  0.02  0.53926749845
0.64  0.04  0.53284343728
0.64  0.06  0.522734028724
0.64  0.08  0.50982125592
0.64  0.1  0.495302571222
0.64  0.12  0.480630918906
0.64  0.14  0.46740519928
0.64  0.16  0.457195429051
0.64  0.18  0.451307877149
0.64  0.2  0.617756853306
0.64  0.22  0.501888850582
0.64  0.24  0.407753336916
0.64  0.26  0.33127411293
0.64  0.28  0.26913952128
0.64  0.3  0.218659047258
0.64  0.32  0.17764681575
0.64  0.34  0.144326939781
0.64  0.36  0.117256622127
0.64  0.38  0.0952636801802
0.64  0.4  0.0773957887994
0.64  0.42  0.0628792433018
0.64  0.44  0.0510854569679
0.64  0.46  0.0415037423572
0.64  0.48  0.0337191978285
0.64  0.5  0.0273947417177
0.64  0.52  0.0222565162314
0.64  0.54  0.0180820290209
0.64  0.56  0.0146905189524
0.64  0.58  0.0119351288974
0.64  0.6  0.00969654661347
0.64  0.62  0.00787783835728
0.64  0.64  0.00640025151812
0.64  0.66  0.00519980451965
0.64  0.68  0.00422451632814
0.64  0.7  0.00343215560111
0.64  0.72  0.00278841201103
0.64  0.74  0.00226541056028
0.64  0.76  0.00184050455468
0.64  0.78  0.00149529497001
0.64  0.8  0.00121483374853
0.64  0.82  0.000986976527144
0.64  0.84  0.00080185676955
0.64  0.86  0.000651458531373
0.64  0.88  0.000529269358588
0.64  0.9  0.000429998289146
0.64  0.92  0.000349346746922
0.64  0.94  0.000283822407358
0.64  0.96  0.000230587974922
0.64  0.98  0.000187338324249
0.66  -1  0.000119637070321
0.66  -0.98  0.000147256947459
0.66  -0.96  0.000181253256342
0.66  -0.94  0.000223098084684
0.66  -0.92  0.000274603372068
0.66  -0.9  0.000337999369461
0.66  -0.88  0.000416031212201
0.66  -0.86  0.000512077788197
0.66  -0.84  0.000630298048497
0.66  -0.82  0.000775811095691
0.66  -0.8  0.000954917848202
0.66  -0.78  0.00117537387887
0.66  -0.76  0.00144672524211
0.66  -0.74  0.0017807218314
0.66  -0.72  0.0021918261661
0.66  -0.7  0.00269783963878
0.66  -0.68  0.00332067334041
0.66  -0.66  0.00408729684123
0.66  -0.64  0.00503090601085
0.66  -0.62  0.00619236044582
0.66  -0.6  0.00762195274733
0.66  -0.58  0.00938158626115
0.66  -0.56  0.011547455579
0.66  -0.54  0.0142133458712
0.66  -0.52  0.0174946939151
0.66  -0.5  0.0215335866697
0.66  -0.48  0.026504913839
0.66  -0.46  0.0326239408415
0.66  -0.44  0.0401556301028
0.66  -0.42  0.0494261143001
0.66  -0.4  0.0608368183629
0.66  -0.38  0.0748818417334
0.66  -0.36  0.0921693535638
0.66  -0.34  0.113447927291
0.66  -0.32  0.139638954912
0.66  -0.3  0.171876544549
0.66  -0.28  0.211556628912
0.66  -0.26  0.260397411142
0.66  -0.24  0.320513765408
0.66  -0.22  0.394508813914
0.66  -0.2  0.354143677991
0.66  -0.18  0.354749732173
0.66  -0.16  0.359377631587
0.66  -0.14  0.36740300282
0.66  -0.12  0.377799055565
0.66  -0.1  0.389331681059
0.66  -0.08  0.400744066636
0.66  -0.06  0.410894128104
0.66  -0.04  0.418840610227
0.66  -0.02  0.423890231771
0.66  6.17561557e-16  0.425620655698
0.66  0.02  0.423890231771
0.66  0.04  0.418840610227
0.66  0.06  0.410894128104
0.66  0.08  0.400744066636
0.66  0.1  0.389331681059
0.66  0.12  0.377799055565
0.66  0.14  0.36740300282
0.66  0.16  0.359377631587
0.66  0.18  0.354749732173
0.66  0.2  0.485586645734
0.66  0.22  0.394508813915
0.66  0.24  0.320513765408
0.66  0.26  0.260397411142
0.66  0.28  0.211556628912
0.66  0.3  0.171876544549
0.66  0.32  0.139638954912
0.66  0.34  0.113447927291
0.66  0.36  0.0921693535639
0.66  0.38  0.0748818417334
0.66  0.4  0.0608368183629
0.66  0.42  0.0494261143002
0.66  0.44  0.0401556301028
0.66  0.46  0.0326239408415
0.66  0.48  0.0265049138391
0.66  0.5  0.0215335866697
0.66  0.52  0.0174946939151
0.66  0.54  0.0142133458712
0.66  0.56  0.011547455579
0.66  0.58  0.00938158626115
0.66  0.6  0.00762195274733
0.66  0.62  0.00619236044582
0.66  0.64  0.00503090601085
0.66  0.66  0.00408729684123
0.66  0.68  0.00332067334042
0.66  0.7  0.00269783963878
0.66  0.72  0.0021918261661
0.66  0.74  0.0017807218314
0.66  0.76  0.00144672524211
0.66  0.78  0.00117537387887
0.66  0.8  0.000954917848202
0.66  0.82  0.000775811095691
0.66  0.84  0.000630298048498
0.66  0.86  0.000512077788197
0.66  0.88  0.000416031212201
0.66  0.9  0.000337999369461
0.66  0.92  0.000274603372068
0.66  0.94  0.000223098084684
0.66  0.96  0.000181253256342
0.66  0.98  0.000147256947459
0.68  -1  0.0000940405005168
0.68  -0.98  0.000115751054472
0.68  -0.96  0.000142473790949
0.68  -0.94  0.000175365841806
0.68  -0.92  0.00021585147884
0.68  -0.9  0.000265683786749
0.68  -0.88  0.00032702057415
0.68  -0.86  0.000402517809709
0.68  -0.84  0.000495444629298
0.68  -0.82  0.000609824894153
0.68  -0.8  0.000750611429689
0.68  -0.78  0.000923900489765
0.68  -0.76  0.00113719573301
0.68  -0.74  0.00139973314171
0.68  -0.72  0.00172288095281
0.68  -0.7  0.00212063191839
0.68  -0.68  0.00261020921147
0.68  -0.66  0.00321281221347
0.68  -0.64  0.00395453447701
0.68  -0.62  0.00486749361334
0.68  -0.6  0.00599122202969
0.68  -0.58  0.00737437873791
0.68  -0.56  0.00907685635761
0.68  -0.54  0.0111723745504
0.68  -0.52  0.0137516721845
0.68  -0.5  0.0169264364541
0.68  -0.48  0.0208341390916
0.68  -0.46  0.0256439890858
0.68  -0.44  0.0315642596672
0.68  -0.42  0.0388513068309
0.68  -0.4  0.047820669909
0.68  -0.38  0.0588607348654
0.68  -0.36  0.0724495519508
0.68  -0.34  0.0891755359472
0.68  -0.32  0.109762945351
0.68  -0.3  0.135103243778
0.68  -0.28  0.166293701586
0.68  -0.26  0.204684909213
0.68  -0.24  0.251939259635
0.68  -0.22  0.310102932304
0.68  -0.2  0.27837399097
0.68  -0.18  0.278850378752
0.68  -0.16  0.28248813063
0.68  -0.14  0.288796459023
0.68  -0.12  0.296968257287
0.68  -0.1  0.306033456483
0.68  -0.08  0.315004141313
0.68  -0.06  0.322982578582
0.68  -0.04  0.329228896335
0.68  -0.02  0.333198142123
0.68  6.17561557e-16  0.334558338688
0.68  0.02  0.333198142123
0.68  0.04  0.329228896335
0.68  0.06  0.322982578582
0.68  0.08  0.315004141313
0.68  0.1  0.306033456483
0.68  0.12  0.296968257287
0.68  0.14  0.288796459023
0.68  0.16  0.28248813063
0.68  0.18  0.278850378752
0.68  0.2  0.381694495583
0.68  0.22  0.310102932304
0.68  0.24  0.251939259635
0.68  0.26  0.204684909213
0.68  0.28  0.166293701586
0.68  0.3  0.135103243778
0.68  0.32  0.109762945351
0.68  0.34  0.0891755359473
0.68  0.36  0.0724495519508
0.68  0.38  0.0588607348654
0.68  0.4  0.047820669909
0.68  0.42  0.0388513068309
0.68  0.44  0.0315642596672
0.68  0.46  0.0256439890858
0.68  0.48  0.0208341390916
0.68  0.5  0.0169264364541
0.68  0.52  0.0137516721845
0.68  0.54  0.0111723745504
0.68  0.56  0.00907685635762
0.68  0.58  0.00737437873791
0.68  0.6  0.0059912220297
0.68  0.62  0.00486749361334
0.68  0.64  0.00395453447702
0.68  0.66  0.00321281221347
0.68  0.68  0.00261020921148
0.68  0.7  0.00212063191839
0.68  0.72  0.00172288095281
0.68  0.74  0.00139973314171
0.68  0.76  0.00113719573301
0.68  0.78  0.000923900489766
0.68  0.8  0.000750611429689
0.68  0.82  0.000609824894154
0.68  0.84  0.000495444629299
0.68  0.86  0.000402517809709
0.68  0.88  0.00032702057415
0.68  0.9  0.00026568378675
0.68  0.92  0.00021585147884
0.68  0.94  0.000175365841806
0.68  0.96  0.000142473790949
0.68  0.98  0.000115751054472
0.7  -1  0.0000739203635941
0.7  -0.98  0.0000909859048596
0.7  -0.96  0.000111991263038
0.7  -0.94  0.000137845999511
0.7  -0.92  0.000169669660524
0.7  -0.9  0.000208840255099
0.7  -0.88  0.000257053924757
0.7  -0.86  0.000316398388814
0.7  -0.84  0.00038944334555
0.7  -0.82  0.000479351743736
0.7  -0.8  0.000590016742739
0.7  -0.78  0.000726230291767
0.7  -0.76  0.00089389062797
0.7  -0.74  0.00110025767836
0.7  -0.72  0.00135426742479
0.7  -0.7  0.00166691884449
0.7  -0.68  0.00205175018113
0.7  -0.66  0.00252542516973
0.7  -0.64  0.00310845459966
0.7  -0.62  0.00382608446055
0.7  -0.6  0.00470938912888
0.7  -0.58  0.00579661693197
0.7  -0.56  0.00713484635406
0.7  -0.54  0.00878202460046
0.7  -0.52  0.0108094767926
0.7  -0.5  0.0133049944456
0.7  -0.48  0.0163766369634
0.7  -0.46  0.0201574107624
0.7  -0.44  0.0248110286351
0.7  -0.42  0.0305389987427
0.7  -0.4  0.0375893502008
0.7  -0.38  0.0462673730866
0.7  -0.36  0.0569488379262
0.7  -0.34  0.0700962670837
0.7  -0.32  0.0862789626268
0.7  -0.3  0.106197657902
0.7  -0.28  0.130714860268
0.7  -0.26  0.160892198873
0.7  -0.24  0.198036394675
0.7  -0.22  0.243755843297
0.7  -0.2  0.218815366938
0.7  -0.18  0.219189830684
0.7  -0.16  0.2220492789
0.7  -0.14  0.227007928907
0.7  -0.12  0.233431356
0.7  -0.1  0.240557039264
0.7  -0.08  0.247608429682
0.7  -0.06  0.253879865719
0.7  -0.04  0.258789772375
0.7  -0.02  0.261909790773
0.7  6.17561557e-16  0.262978970798
0.7  0.02  0.261909790773
0.7  0.04  0.258789772375
0.7  0.06  0.253879865719
0.7  0.08  0.247608429682
0.7  0.1  0.240557039264
0.7  0.12  0.233431356
0.7  0.14  0.227007928907
0.7  0.16  0.2220492789
0.7  0.18  0.219189830684
0.7  0.2  0.300030260795
0.7  0.22  0.243755843297
0.7  0.24  0.198036394676
0.7  0.26  0.160892198873
0.7  0.28  0.130714860268
0.7  0.3  0.106197657902
0.7  0.32  0.0862789626269
0.7  0.34  0.0700962670838
0.7  0.36  0.0569488379262
0.7  0.38  0.0462673730867
0.7  0.4  0.0375893502008
0.7  0.42  0.0305389987427
0.7  0.44  0.0248110286351
0.7  0.46  0.0201574107624
0.7  0.48  0.0163766369634
0.7  0.5  0.0133049944456
0.7  0.52  0.0108094767926
0.7  0.54  0.00878202460046
0.7  0.56  0.00713484635406
0.7  0.58  0.00579661693197
0.7  0.6  0.00470938912888
0.7  0.62  0.00382608446055
0.7  0.64  0.00310845459967
0.7  0.66  0.00252542516973
0.7  0.68  0.00205175018113
0.7  0.7  0.00166691884449
0.7  0.72  0.00135426742479
0.7  0.74  0.00110025767836
0.7  0.76  0.00089389062797
0.7  0.78  0.000726230291767
0.7  0.8  0.000590016742739
0.7  0.82  0.000479351743736
0.7  0.84  0.00038944334555
0.7  0.86  0.000316398388814
0.7  0.88  0.000257053924757
0.7  0.9  0.000208840255099
0.7  0.92  0.000169669660524
0.7  0.94  0.000137845999511
0.7  0.96  0.000111991263038
0.7  0.98  0.0000909859048596
0.72  -1  0.0000581049667308
0.72  -0.98  0.0000715193042593
0.72  -0.96  0.0000880305276729
0.72  -0.94  0.000108353596034
0.72  -0.92  0.000133368526623
0.72  -0.9  0.000164158500914
0.72  -0.88  0.000202056767849
0.72  -0.86  0.000248704375383
0.72  -0.84  0.000306121230153
0.72  -0.82  0.00037679356226
0.72  -0.8  0.000463781582512
0.72  -0.78  0.000570851993826
0.72  -0.76  0.000702641094738
0.72  -0.74  0.000864855537608
0.72  -0.72  0.00106451943465
0.72  -0.7  0.0013102785118
0.72  -0.68  0.00161277448078
0.72  -0.66  0.00198510584004
0.72  -0.64  0.00244339505809
0.72  -0.62  0.00300748669894
0.72  -0.6  0.00370180671944
0.72  -0.58  0.0045564201474
0.72  -0.56  0.00560833293933
0.72  -0.54  0.00690309439008
0.72  -0.52  0.00849676948103
0.72  -0.5  0.0104583665722
0.72  -0.48  0.0128728255606
0.72  -0.46  0.0158446958968
0.72  -0.44  0.0195026637222
0.72  -0.42  0.0240051241588
0.72  -0.4  0.0295470400396
0.72  -0.38  0.0363683840719
0.72  -0.36  0.0447645299911
0.72  -0.34  0.0550990426566
0.72  -0.32  0.0678194209181
0.72  -0.3  0.0834764749423
0.72  -0.28  0.102748177063
0.72  -0.26  0.126469018931
0.72  -0.24  0.155666146169
0.72  -0.22  0.191603835216
0.72  -0.2  0.171999419348
0.72  -0.18  0.172293765891
0.72  -0.16  0.174541429936
0.72  -0.14  0.178439167713
0.72  -0.12  0.183488290842
0.72  -0.1  0.189089421151
0.72  -0.08  0.194632153705
0.72  -0.06  0.199561804542
0.72  -0.04  0.203421227697
0.72  -0.02  0.205873712458
0.72  6.17561557e-16  0.206714139463
0.72  0.02  0.205873712458
0.72  0.04  0.203421227697
0.72  0.06  0.199561804542
0.72  0.08  0.194632153705
0.72  0.1  0.189089421151
0.72  0.12  0.183488290842
0.72  0.14  0.178439167713
0.72  0.16  0.174541429936
0.72  0.18  0.172293765891
0.72  0.2  0.235838238262
0.72  0.22  0.191603835216
0.72  0.24  0.155666146169
0.72  0.26  0.126469018931
0.72  0.28  0.102748177063
0.72  0.3  0.0834764749423
0.72  0.32  0.0678194209181
0.72  0.34  0.0550990426566
0.72  0.36  0.0447645299912
0.72  0.38  0.0363683840719
0.72  0.4  0.0295470400396
0.72  0.42  0.0240051241588
0.72  0.44  0.0195026637222
0.72  0.46  0.0158446958968
0.72  0.48  0.0128728255606
0.72  0.5  0.0104583665722
0.72  0.52  0.00849676948104
0.72  0.54  0.00690309439009
0.72  0.56  0.00560833293934
0.72  0.58  0.00455642014741
0.72  0.6  0.00370180671944
0.72  0.62  0.00300748669894
0.72  0.64  0.00244339505809
0.72  0.66  0.00198510584004
0.72  0.68  0.00161277448078
0.72  0.7  0.0013102785118
0.72  0.72  0.00106451943465
0.72  0.74  0.000864855537608
0.72  0.76  0.000702641094739
0.72  0.78  0.000570851993827
0.72  0.8  0.000463781582512
0.72  0.82  0.00037679356226
0.72  0.84  0.000306121230153
0.72  0.86  0.000248704375383
0.72  0.88  0.000202056767849
0.72  0.9  0.000164158500914
0.72  0.92  0.000133368526623
0.72  0.94  0.000108353596034
0.72  0.96  0.000088030527673
0.72  0.98  0.0000715193042593
0.74  -1  0.0000456733029255
0.74  -0.98  0.0000562176184281
0.74  -0.96  0.000069196235422
0.74  -0.94  0.0000851711461719
0.74  -0.92  0.000104834086652
0.74  -0.9  0.000129036489682
0.74  -0.88  0.000158826353156
0.74  -0.86  0.00019549361982
0.74  -0.84  0.000240626033596
0.74  -0.82  0.000296177891112
0.74  -0.8  0.00036455466548
0.74  -0.78  0.000448717166648
0.74  -0.76  0.000552309748606
0.74  -0.74  0.000679818115014
0.74  -0.72  0.000836763556443
0.74  -0.7  0.00102994202997
0.74  -0.68  0.00126771843365
0.74  -0.66  0.00156038881824
0.74  -0.64  0.00192062622067
0.74  -0.62  0.00236402942422
0.74  -0.6  0.00290979840762
0.74  -0.58  0.00358156573107
0.74  -0.56  0.00440841985904
0.74  -0.54  0.00542616473153
0.74  -0.52  0.0066788701247
0.74  -0.5  0.00822077993383
0.74  -0.48  0.0101186610098
0.74  -0.46  0.0124546942572
0.74  -0.44  0.0153300331823
0.74  -0.42  0.0188691839812
0.74  -0.4  0.0232253968328
0.74  -0.38  0.0285873018449
0.74  -0.36  0.0351870770028
0.74  -0.34  0.0433105017995
0.74  -0.32  0.0533093318884
0.74  -0.3  0.0656165305945
0.74  -0.28  0.0807650168319
0.74  -0.26  0.0994107412377
0.74  -0.24  0.122361089753
0.74  -0.22  0.15060984456
0.74  -0.2  0.135199829289
0.74  -0.18  0.135431199851
0.74  -0.16  0.137197972067
0.74  -0.14  0.140261781725
0.74  -0.12  0.144230635734
0.74  -0.1  0.148633393979
0.74  -0.08  0.152990248775
0.74  -0.06  0.156865191808
0.74  -0.04  0.159898884326
0.74  -0.02  0.161826655491
0.74  6.17561557e-16  0.162487271603
0.74  0.02  0.161826655491
0.74  0.04  0.159898884326
0.74  0.06  0.156865191808
0.74  0.08  0.152990248775
0.74  0.1  0.148633393979
0.74  0.12  0.144230635734
0.74  0.14  0.140261781725
0.74  0.16  0.137197972067
0.74  0.18  0.135431199851
0.74  0.2  0.185380216247
0.74  0.22  0.15060984456
0.74  0.24  0.122361089753
0.74  0.26  0.0994107412378
0.74  0.28  0.0807650168319
0.74  0.3  0.0656165305946
0.74  0.32  0.0533093318885
0.74  0.34  0.0433105017995
0.74  0.36  0.0351870770028
0.74  0.38  0.028587301845
0.74  0.4  0.0232253968328
0.74  0.42  0.0188691839812
0.74  0.44  0.0153300331823
0.74  0.46  0.0124546942572
0.74  0.48  0.0101186610098
0.74  0.5  0.00822077993383
0.74  0.52  0.0066788701247
0.74  0.54  0.00542616473153
0.74  0.56  0.00440841985904
0.74  0.58  0.00358156573107
0.74  0.6  0.00290979840763
0.74  0.62  0.00236402942422
0.74  0.64  0.00192062622068
0.74  0.66  0.00156038881824
0.74  0.68  0.00126771843365
0.74  0.7  0.00102994202997
0.74  0.72  0.000836763556443
0.74  0.74  0.000679818115015
0.74  0.76  0.000552309748606
0.74  0.78  0.000448717166648
0.74  0.8  0.00036455466548
0.74  0.82  0.000296177891112
0.74  0.84  0.000240626033596
0.74  0.86  0.00019549361982
0.74  0.88  0.000158826353156
0.74  0.9  0.000129036489682
0.74  0.92  0.000104834086652
0.74  0.94  0.0000851711461719
0.74  0.96  0.000069196235422
0.74  0.98  0.0000562176184282
0.76  -1  0.0000359014163072
0.76  -0.98  0.0000441897562408
0.76  -0.96  0.0000543915744134
0.76  -0.94  0.0000669486238179
0.76  -0.92  0.000082404642253
0.76  -0.9  0.00010142889693
0.76  -0.88  0.00012484516468
0.76  -0.86  0.000153667402641
0.76  -0.84  0.00018914365402
0.76  -0.82  0.000232810090112
0.76  -0.8  0.000286557528662
0.76  -0.78  0.000352713308917
0.76  -0.76  0.000434142068674
0.76  -0.74  0.000534369787097
0.76  -0.72  0.000657736464551
0.76  -0.7  0.000809584050681
0.76  -0.68  0.000996487758308
0.76  -0.66  0.00122654077933
0.76  -0.64  0.00150970473126
0.76  -0.62  0.00185824100919
0.76  -0.6  0.00228724172133
0.76  -0.58  0.00281528319843
0.76  -0.56  0.00346523037484
0.76  -0.54  0.00426522687216
0.76  -0.52  0.00524991365744
0.76  -0.5  0.00646192904542
0.76  -0.48  0.00795375499727
0.76  -0.46  0.00978998966282
0.76  -0.44  0.0120501445708
0.76  -0.42  0.0148320875894
0.76  -0.4  0.0182562807414
0.76  -0.38  0.0224709963786
0.76  -0.36  0.0276587375818
0.76  -0.34  0.0340441407996
0.76  -0.32  0.0419037029205
0.76  -0.3  0.0515777539749
0.76  -0.28  0.0634851939014
0.76  -0.26  0.0781416314999
0.76  -0.24  0.0961817110136
0.76  -0.22  0.118386593112
0.76  -0.2  0.106273578767
0.76  -0.18  0.106455447174
