-0.08  -0.12  8.98825642838
-0.08  -0.1  9.63408904377
-0.08  -0.08  10.245773672
-0.08  -0.06  10.7715997883
-0.08  -0.04  11.1732427846
-0.08  -0.02  11.4244307314
-0.08  6.17561557e-16  11.5098389785
-0.08  0.02  11.4244307314
-0.08  0.04  11.1732427846
-0.08  0.06  10.7715997883
-0.08  0.08  10.2457736719
-0.08  0.1  9.63408904377
-0.08  0.12  8.98825642838
-0.08  0.14  8.37397880944
-0.08  0.16  7.86824582927
-0.08  0.18  7.54884407902
-0.08  0.2  10.3633867338
-0.08  0.22  8.0167531709
-0.08  0.24  6.20147959872
-0.08  0.26  4.79724751324
-0.08  0.28  3.71098273193
-0.08  0.3  2.87068632558
-0.08  0.32  2.22066244313
-0.08  0.34  1.717826724
-0.08  0.36  1.3288506152
-0.08  0.38  1.02795231489
-0.08  0.4  0.795187923755
-0.08  0.42  0.615129539502
-0.08  0.44  0.475842677013
-0.08  0.46  0.368095236412
-0.08  0.48  0.284745588436
-0.08  0.5  0.220269218706
-0.08  0.52  0.170392556302
-0.08  0.54  0.131809716372
-0.08  0.56  0.101963382128
-0.08  0.58  0.0788753028322
-0.08  0.6  0.0610151729671
-0.08  0.62  0.0471992017593
-0.08  0.64  0.036511650109
-0.08  0.66  0.0282441343072
-0.08  0.68  0.021848673516
-0.08  0.7  0.0169013689433
-0.08  0.72  0.0130743073234
-0.08  0.74  0.0101138264339
-0.08  0.76  0.00782370205962
-0.08  0.78  0.00605214201746
-0.08  0.8  0.00468172518846
-0.08  0.82  0.00362161870574
-0.08  0.84  0.00280155744342
-0.08  0.86  0.00216718675998
-0.08  0.88  0.00167645980762
-0.08  0.9  0.00129685061688
-0.08  0.92  0.00100319823646
-0.08  0.94  0.000776039035285
-0.08  0.96  0.000600316629755
-0.08  0.98  0.00046438392861
-0.06  -1  0.000466735698518
-0.06  -0.98  0.000603356800824
-0.06  -0.96  0.000779969113692
-0.06  -0.94  0.0010082787125
-0.06  -0.92  0.00130341823059
-0.06  -0.9  0.00168494986829
-0.06  -0.88  0.00217816199899
-0.06  -0.86  0.00281574531273
-0.06  -0.84  0.00363995959431
-0.06  -0.82  0.00470543475232
-0.06  -0.8  0.00608279175488
-0.06  -0.78  0.00786332347185
-0.06  -0.76  0.0101650456755
-0.06  -0.74  0.0131405192671
-0.06  -0.72  0.0169869621959
-0.06  -0.7  0.0219593213006
-0.06  -0.68  0.0283871704914
-0.06  -0.66  0.0366965553021
-0.06  -0.64  0.0474382316988
-0.06  -0.62  0.0613241708433
-0.06  -0.6  0.079274749394
-0.06  -0.58  0.102479753172
-0.06  -0.56  0.132477237587
-0.06  -0.54  0.171255471794
-0.06  -0.52  0.221384723546
-0.06  -0.5  0.286187619619
-0.06  -0.48  0.36995937349
-0.06  -0.46  0.478252477223
-0.06  -0.44  0.618244727283
-0.06  -0.42  0.799214977481
-0.06  -0.4  1.0331581525
-0.06  -0.38  1.33558028583
-0.06  -0.36  1.72652627829
-0.06  -0.34  2.23190849793
-0.06  -0.32  2.88522428286
-0.06  -0.3  3.72977618489
-0.06  -0.28  4.82154211442
-0.06  -0.26  6.23288562336
-0.06  -0.24  8.05735224788
-0.06  -0.22  10.4158698185
-0.06  -0.2  9.71008734767
-0.06  -0.18  9.80793290388
-0.06  -0.16  10.222919742
-0.06  -0.14  10.8799998307
-0.06  -0.12  11.6781079394
-0.06  -0.1  12.5172142837
-0.06  -0.08  13.3119534158
-0.06  -0.06  13.9951397705
-0.06  -0.04  14.5169796069
-0.06  -0.02  14.8433387822
-0.06  6.17561557e-16  14.9543065473
-0.06  0.02  14.8433387822
-0.06  0.04  14.5169796069
-0.06  0.06  13.9951397705
-0.06  0.08  13.3119534158
-0.06  0.1  12.5172142837
-0.06  0.12  11.6781079394
-0.06  0.14  10.8799998307
-0.06  0.16  10.222919742
-0.06  0.18  9.80793290388
-0.06  0.2  13.4647637013
-0.06  0.22  10.4158698185
-0.06  0.24  8.05735224788
-0.06  0.26  6.23288562336
-0.06  0.28  4.82154211443
-0.06  0.3  3.72977618489
-0.06  0.32  2.88522428286
-0.06  0.34  2.23190849793
-0.06  0.36  1.72652627829
-0.06  0.38  1.33558028584
-0.06  0.4  1.0331581525
-0.06  0.42  0.799214977481
-0.06  0.44  0.618244727284
-0.06  0.46  0.478252477223
-0.06  0.48  0.369959373491
-0.06  0.5  0.28618761962
-0.06  0.52  0.221384723546
-0.06  0.54  0.171255471794
-0.06  0.56  0.132477237587
-0.06  0.58  0.102479753172
-0.06  0.6  0.0792747493941
-0.06  0.62  0.0613241708433
-0.06  0.64  0.0474382316988
-0.06  0.66  0.0366965553021
-0.06  0.68  0.0283871704914
-0.06  0.7  0.0219593213006
-0.06  0.72  0.0169869621959
-0.06  0.74  0.0131405192671
-0.06  0.76  0.0101650456755
-0.06  0.78  0.00786332347186
-0.06  0.8  0.00608279175488
-0.06  0.82  0.00470543475233
-0.06  0.84  0.00363995959431
-0.06  0.86  0.00281574531273
-0.06  0.88  0.00217816199899
-0.06  0.9  0.00168494986829
-0.06  0.92  0.00130341823059
-0.06  0.94  0.0010082787125
-0.06  0.96  0.000779969113692
-0.06  0.98  0.000603356800825
-0.04  -1  0.00060641236817
-0.04  -0.98  0.000783919095114
-0.04  -0.96  0.00101338491749
-0.04  -0.94  0.00131001910453
-0.04  -0.92  0.001693482925
-0.04  -0.9  0.00218919281967
-0.04  -0.88  0.00283000503338
-0.04  -0.86  0.00365839336627
-0.04  -0.84  0.00472926438805
-0.04  -0.82  0.00611359671113
-0.04  -0.8  0.00790314553799
-0.04  -0.78  0.0102165243057
-0.04  -0.76  0.0132070665266
-0.04  -0.74  0.0170729889165
-0.04  -0.72  0.0220705294365
-0.04  -0.7  0.0285309310507
-0.04  -0.68  0.0368823969068
-0.04  -0.66  0.0476784721527
-0.04  -0.64  0.0616347335711
-0.04  -0.62  0.0796762188648
-0.04  -0.6  0.102998739262
-0.04  -0.58  0.133148139317
-0.04  -0.56  0.172122757332
-0.04  -0.54  0.222505877615
-0.04  -0.52  0.287636953652
-0.04  -0.5  0.37183295108
-0.04  -0.48  0.480674481334
-0.04  -0.46  0.621375691246
-0.04  -0.44  0.803262425332
-0.04  -0.42  1.03839035392
-0.04  -0.4  1.3423440374
-0.04  -0.38  1.73526988955
-0.04  -0.36  2.24321150589
-0.04  -0.34  2.89983586442
-0.04  -0.32  3.74866481315
-0.04  -0.3  4.84595975025
-0.04  -0.28  6.26445069688
-0.04  -0.26  8.09815692992
-0.04  -0.24  10.4686186922
-0.04  -0.22  13.5329530251
-0.04  -0.2  12.6159560589
-0.04  -0.18  12.7430831582
-0.04  -0.16  13.2822601529
-0.04  -0.14  14.1359799217
-0.04  -0.12  15.1729321622
-0.04  -0.1  16.2631518883
-0.04  -0.08  17.2957269424
-0.04  -0.06  18.1833656136
-0.04  -0.04  18.8613727427
-0.04  -0.02  19.2853991049
-0.04  6.17561557e-16  19.4295754032
-0.04  0.02  19.2853991049
-0.04  0.04  18.8613727427
-0.04  0.06  18.1833656136
-0.04  0.08  17.2957269424
-0.04  0.1  16.2631518883
-0.04  0.12  15.1729321622
-0.04  0.14  14.1359799217
-0.04  0.16  13.2822601529
-0.04  0.18  12.7430831582
-0.04  0.2  17.4942676741
-0.04  0.22  13.5329530251
-0.04  0.24  10.4686186922
-0.04  0.26  8.09815692993
-0.04  0.28  6.26445069688
-0.04  0.3  4.84595975026
-0.04  0.32  3.74866481315
-0.04  0.34  2.89983586442
-0.04  0.36  2.24321150589
-0.04  0.38  1.73526988955
-0.04  0.4  1.3423440374
-0.04  0.42  1.03839035392
-0.04  0.44  0.803262425333
-0.04  0.46  0.621375691246
-0.04  0.48  0.480674481334
-0.04  0.5  0.37183295108
-0.04  0.52  0.287636953652
-0.04  0.54  0.222505877615
-0.04  0.56  0.172122757332
-0.04  0.58  0.133148139317
-0.04  0.6  0.102998739262
-0.04  0.62  0.0796762188649
-0.04  0.64  0.0616347335711
-0.04  0.66  0.0476784721527
-0.04  0.68  0.0368823969068
-0.04  0.7  0.0285309310507
-0.04  0.72  0.0220705294365
-0.04  0.74  0.0170729889166
-0.04  0.76  0.0132070665266
-0.04  0.78  0.0102165243057
-0.04  0.8  0.00790314553799
-0.04  0.82  0.00611359671113
-0.04  0.84  0.00472926438805
-0.04  0.86  0.00365839336627
-0.04  0.88  0.00283000503338
-0.04  0.9  0.00218919281967
-0.04  0.92  0.001693482925
-0.04  0.94  0.00131001910453
-0.04  0.96  0.00101338491749
-0.04  0.98  0.000783919095114
-0.02  -1  0.000787889080345
-0.02  -0.98  0.00101851698173
-0.02  -0.96  0.00131665340713
-0.02  -0.94  0.00170205919549
-0.02  -0.92  0.0022002795035
-0.02  -0.9  0.00284433696923
-0.02  -0.88  0.00367692049199
-0.02  -0.86  0.0047532147037
-0.02  -0.84  0.00614455767228
-0.02  -0.82  0.00794316927419
-0.02  -0.8  0.0102682636381
-0.02  -0.78  0.0132739507999
-0.02  -0.76  0.0171594513006
-0.02  -0.74  0.0221823007614
-0.02  -0.72  0.0286754196537
-0.02  -0.7  0.0370691796653
-0.02  -0.68  0.0479199292513
-0.02  -0.66  0.0619468690753
-0.02  -0.64  0.0800797214892
-0.02  -0.62  0.103520353644
-0.02  -0.6  0.13382243868
-0.02  -0.58  0.172994435045
-0.02  -0.56  0.22363270952
-0.02  -0.54  0.289093627517
-0.02  -0.52  0.37371601699
-0.02  -0.5  0.48310875115
-0.02  -0.48  0.624522511285
-0.02  -0.46  0.80733037059
-0.02  -0.44  1.04364905267
-0.02  -0.42  1.3491420425
-0.02  -0.4  1.74405778089
-0.02  -0.38  2.25457175544
-0.02  -0.36  2.9145214431
-0.02  -0.34  3.76764909869
-0.02  -0.32  4.87050104381
-0.02  -0.3  6.29617562475
-0.02  -0.28  8.13916825828
-0.02  -0.26  10.5216347009
-0.02  -0.24  13.6014876787
-0.02  -0.22  17.5828635314
-0.02  -0.2  16.3914434116
-0.02  -0.18  16.5566149327
-0.02  -0.16  17.2571475881
-0.02  -0.14  18.3663539943
-0.02  -0.12  19.7136275493
-0.02  -0.1  21.1301095712
-0.02  -0.08  22.4716960105
-0.02  -0.06  23.6249719875
-0.02  -0.04  24.5058814832
-0.02  -0.02  25.056803196
-0.02  6.17561557e-16  25.2441261086
-0.02  0.02  25.056803196
-0.02  0.04  24.5058814832
-0.02  0.06  23.6249719875
-0.02  0.08  22.4716960105
-0.02  0.1  21.1301095712
-0.02  0.12  19.7136275493
-0.02  0.14  18.3663539943
-0.02  0.16  17.2571475881
-0.02  0.18  16.5566149327
-0.02  0.2  22.7296526136
-0.02  0.22  17.5828635314
-0.02  0.24  13.6014876787
-0.02  0.26  10.5216347009
-0.02  0.28  8.13916825828
-0.02  0.3  6.29617562475
-0.02  0.32  4.87050104381
-0.02  0.34  3.76764909869
-0.02  0.36  2.91452144311
-0.02  0.38  2.25457175544
-0.02  0.4  1.74405778089
-0.02  0.42  1.3491420425
-0.02  0.44  1.04364905268
-0.02  0.46  0.80733037059
-0.02  0.48  0.624522511285
-0.02  0.5  0.483108751151
-0.02  0.52  0.37371601699
-0.02  0.54  0.289093627517
-0.02  0.56  0.22363270952
-0.02  0.58  0.172994435045
-0.02  0.6  0.13382243868
-0.02  0.62  0.103520353644
-0.02  0.64  0.0800797214892
-0.02  0.66  0.0619468690753
-0.02  0.68  0.0479199292514
-0.02  0.7  0.0370691796653
-0.02  0.72  0.0286754196537
-0.02  0.74  0.0221823007614
-0.02  0.76  0.0171594513006
-0.02  0.78  0.0132739507999
-0.02  0.8  0.0102682636381
-0.02  0.82  0.00794316927419
-0.02  0.84  0.00614455767229
-0.02  0.86  0.0047532147037
-0.02  0.88  0.00367692049199
-0.02  0.9  0.00284433696923
-0.02  0.92  0.00220027950351
-0.02  0.94  0.00170205919549
-0.02  0.96  0.00131665340713
-0.02  0.98  0.00101851698173
2.8449465e-16  -1  0.00102367503618
2.8449465e-16  -0.98  0.0013233213077
2.8449465e-16  -0.96  0.0017106788986
2.8449465e-16  -0.94  0.00221142233341
2.8449465e-16  -0.92  0.00285874148601
2.8449465e-16  -0.9  0.00369554144426
2.8449465e-16  -0.88  0.00477728631044
2.8449465e-16  -0.86  0.00617567542839
2.8449465e-16  -0.84  0.00798339570177
2.8449465e-16  -0.82  0.0103202649929
2.8449465e-16  -0.8  0.0133411737939
2.8449465e-16  -0.78  0.0172463515543
2.8449465e-16  -0.76  0.0222946381276
2.8449465e-16  -0.74  0.0288206399873
2.8449465e-16  -0.72  0.0372569083438
2.8449465e-16  -0.7  0.0481626091562
2.8449465e-16  -0.68  0.0622605853208
2.8449465e-16  -0.66  0.0804852675635
2.8449465e-16  -0.64  0.104044609626
2.8449465e-16  -0.62  0.134500152883
2.8449465e-16  -0.6  0.173870527178
2.8449465e-16  -0.58  0.224765248018
2.8449465e-16  -0.56  0.290557678385
2.8449465e-16  -0.54  0.375608619272
2.8449465e-16  -0.52  0.485555348789
2.8449465e-16  -0.5  0.627685267699
2.8449465e-16  -0.48  0.811418917058
2.8449465e-16  -0.46  1.04893438295
2.8449465e-16  -0.44  1.35597447459
2.8449465e-16  -0.42  1.75289017658
2.8449465e-16  -0.4  2.26598953647
2.8449465e-16  -0.38  2.92928139366
2.8449465e-16  -0.36  3.78672952596
2.8449465e-16  -0.34  4.89516662133
2.8449465e-16  -0.32  6.32806121651
2.8449465e-16  -0.3  8.18038727945
2.8449465e-16  -0.28  10.5749191975
2.8449465e-16  -0.26  13.6703694109
2.8449465e-16  -0.24  17.6719080629
2.8449465e-16  -0.22  22.8447619223
2.8449465e-16  -0.2  21.2967939854
2.8449465e-16  -0.18  21.5113952117
2.8449465e-16  -0.16  22.4215712876
2.8449465e-16  -0.14  23.8627219981
2.8449465e-16  -0.12  25.6131845182
2.8449465e-16  -0.1  27.4535670304
2.8449465e-16  -0.08  29.1966404923
2.8449465e-16  -0.06  30.6950491604
2.8449465e-16  -0.04  31.8395821693
2.8449465e-16  -0.02  32.555374301
2.8449465e-16  6.17561557e-16  32.798756008
2.8449465e-16  0.02  32.555374301
2.8449465e-16  0.04  31.8395821693
2.8449465e-16  0.06  30.6950491604
2.8449465e-16  0.08  29.1966404923
2.8449465e-16  0.1  27.4535670304
2.8449465e-16  0.12  25.6131845182
2.8449465e-16  0.14  23.8627219981
2.8449465e-16  0.16  22.4215712876
2.8449465e-16  0.18  21.5113952117
2.8449465e-16  0.2  29.5317939315
2.8449465e-16  0.22  22.8447619224
2.8449465e-16  0.24  17.6719080629
2.8449465e-16  0.26  13.6703694109
2.8449465e-16  0.28  10.5749191976
2.8449465e-16  0.3  8.18038727945
2.8449465e-16  0.32  6.32806121652
2.8449465e-16  0.34  4.89516662134
2.8449465e-16  0.36  3.78672952596
2.8449465e-16  0.38  2.92928139366
2.8449465e-16  0.4  2.26598953647
2.8449465e-16  0.42  1.75289017658
2.8449465e-16  0.44  1.35597447459
2.8449465e-16  0.46  1.04893438295
2.8449465e-16  0.48  0.811418917058
2.8449465e-16  0.5  0.627685267699
2.8449465e-16  0.52  0.485555348789
2.8449465e-16  0.54  0.375608619272
2.8449465e-16  0.56  0.290557678385
2.8449465e-16  0.58  0.224765248018
2.8449465e-16  0.6  0.173870527178
2.8449465e-16  0.62  0.134500152884
2.8449465e-16  0.64  0.104044609626
2.8449465e-16  0.66  0.0804852675636
2.8449465e-16  0.68  0.0622605853209
2.8449465e-16  0.7  0.0481626091562
2.8449465e-16  0.72  0.0372569083438
2.8449465e-16  0.74  0.0288206399873
2.8449465e-16  0.76  0.0222946381276
2.8449465e-16  0.78  0.0172463515543
2.8449465e-16  0.8  0.0133411737939
2.8449465e-16  0.82  0.0103202649929
2.8449465e-16  0.84  0.00798339570177
2.8449465e-16  0.86  0.0061756754284
2.8449465e-16  0.88  0.00477728631044
2.8449465e-16  0.9  0.00369554144426
2.8449465e-16  0.92  0.00285874148601
2.8449465e-16  0.94  0.00221142233341
2.8449465e-16  0.96  0.0017106788986
2.8449465e-16  0.98  0.0013233213077
0.02  -1  0.00128012652944
0.02  -0.98  0.00165484030879
0.02  -0.96  0.0021392388835
0.02  -0.94  0.0027654287706
0.02  -0.92  0.00357491458493
0.02  -0.9  0.00462135001465
0.02  -0.88  0.00597409405191
0.02  -0.86  0.00772280818981
0.02  -0.84  0.0099833992934
0.02  -0.82  0.0129057020454
0.02  -0.8  0.0166834101682
0.02  -0.78  0.0215669146755
0.02  -0.76  0.0278799000882
0.02  -0.74  0.0360407986317
0.02  -0.72  0.0465905244245
0.02  -0.7  0.0602283259129
0.02  -0.68  0.0778581328946
0.02  -0.66  0.100648470067
0.02  -0.64  0.130109908242
0.02  -0.62  0.168195186788
0.02  -0.6  0.217428643527
0.02  -0.58  0.281073530872
0.02  -0.56  0.363348308093
0.02  -0.54  0.469706245853
0.02  -0.52  0.607196875502
0.02  -0.5  0.784933240455
0.02  -0.48  1.01469591961
0.02  -0.46  1.31171385821
0.02  -0.44  1.69567376054
0.02  -0.42  2.19202494828
0.02  -0.4  2.83366617193
0.02  -0.38  3.6631261794
0.02  -0.36  4.73538257228
0.02  -0.34  6.12150578703
0.02  -0.32  7.91336972857
0.02  -0.3  10.2297412826
0.02  -0.28  13.2241523267
0.02  -0.26  17.0950760073
0.02  -0.24  22.0990817766
0.02  -0.22  28.5678411234
0.02  -0.2  26.6320756189
0.02  -0.18  26.9004388332
0.02  -0.16  28.0386325959
0.02  -0.14  29.8408209782
0.02  -0.12  32.0298100925
0.02  -0.1  34.3312459925
0.02  -0.08  36.5109949386
0.02  -0.06  38.3847855657
0.02  -0.04  39.8160474572
0.02  -0.02  40.7111601297
0.02  6.17561557e-16  41.0155139226
0.02  0.02  40.7111601297
0.02  0.04  39.8160474572
0.02  0.06  38.3847855657
0.02  0.08  36.5109949386
0.02  0.1  34.3312459925
0.02  0.12  32.0298100925
0.02  0.14  29.8408209782
0.02  0.16  28.0386325959
0.02  0.18  26.9004388332
0.02  0.2  36.9301111559
0.02  0.22  28.5678411234
0.02  0.24  22.0990817766
0.02  0.26  17.0950760073
0.02  0.28  13.2241523267
0.02  0.3  10.2297412826
0.02  0.32  7.91336972857
0.02  0.34  6.12150578703
0.02  0.36  4.73538257228
0.02  0.38  3.6631261794
0.02  0.4  2.83366617193
0.02  0.42  2.19202494828
0.02  0.44  1.69567376054
0.02  0.46  1.31171385821
0.02  0.48  1.01469591961
0.02  0.5  0.784933240455
0.02  0.52  0.607196875502
0.02  0.54  0.469706245853
0.02  0.56  0.363348308093
0.02  0.58  0.281073530872
0.02  0.6  0.217428643527
0.02  0.62  0.168195186788
0.02  0.64  0.130109908242
0.02  0.66  0.100648470067
0.02  0.68  0.0778581328947
0.02  0.7  0.060228325913
0.02  0.72  0.0465905244246
0.02  0.74  0.0360407986317
0.02  0.76  0.0278799000882
0.02  0.78  0.0215669146755
0.02  0.8  0.0166834101682
0.02  0.82  0.0129057020454
0.02  0.84  0.0099833992934
0.02  0.86  0.00772280818981
0.02  0.88  0.00597409405192
0.02  0.9  0.00462135001465
0.02  0.92  0.00357491458493
0.02  0.94  0.0027654287706
0.02  0.96  0.0021392388835
0.02  0.98  0.00165484030879
0.04  -1  0.00151002560162
0.04  -0.98  0.00195203456485
0.04  -0.96  0.00252342671428
0.04  -0.94  0.00326207460513
0.04  -0.92  0.00421693670327
0.04  -0.9  0.00545130241086
0.04  -0.88  0.00704698696369
0.04  -0.86  0.00910975424286
0.04  -0.84  0.0117763269313
0.04  -0.82  0.015223448657
0.04  -0.8  0.0196795987715
0.04  -0.78  0.0254401362356
0.04  -0.76  0.0328868763637
0.04  -0.74  0.042513398
0.04  -0.72  0.054957758515
0.04  -0.7  0.0710447850109
0.04  -0.68  0.091840744849
0.04  -0.66  0.118724019126
0.04  -0.64  0.153476463421
0.04  -0.62  0.198401511317
0.04  -0.6  0.256476848733
0.04  -0.58  0.331551778509
0.04  -0.56  0.428602356803
0.04  -0.54  0.554061212047
0.04  -0.52  0.716243907255
0.04  -0.5  0.925900105486
0.04  -0.48  1.19692607037
0.04  -0.46  1.5472857271
0.04  -0.44  2.00020133285
0.04  -0.42  2.5856926758
0.04  -0.4  3.3425668226
0.04  -0.38  4.32099029715
0.04  -0.36  5.58581417784
0.04  -0.34  7.2208725046
0.04  -0.32  9.33453889937
0.04  -0.3  12.0669096994
0.04  -0.28  15.5990897101
0.04  -0.26  20.1651960481
0.04  -0.24  26.067875704
0.04  -0.22  33.6983653468
0.04  -0.2  31.4149539783
0.04  -0.18  31.731512783
0.04  -0.16  33.0741157849
0.04  -0.14  35.199960796
0.04  -0.12  37.7820724297
0.04  -0.1  40.4968252683
0.04  -0.08  43.0680372836
0.04  -0.06  45.2783436509
0.04  -0.04  46.9666471499
0.04  -0.02  48.0225139104
0.04  6.17561557e-16  48.3815268741
0.04  0.02  48.0225139104
0.04  0.04  46.9666471499
0.04  0.06  45.2783436509
0.04  0.08  43.0680372836
0.04  0.1  40.4968252683
0.04  0.12  37.7820724297
0.04  0.14  35.199960796
0.04  0.16  33.0741157849
0.04  0.18  31.731512783
0.04  0.2  43.5624229585
0.04  0.22  33.6983653468
0.04  0.24  26.067875704
0.04  0.26  20.1651960481
0.04  0.28  15.5990897101
0.04  0.3  12.0669096994
0.04  0.32  9.33453889937
0.04  0.34  7.2208725046
0.04  0.36  5.58581417784
0.04  0.38  4.32099029715
0.04  0.4  3.3425668226
0.04  0.42  2.58569267581
0.04  0.44  2.00020133285
0.04  0.46  1.5472857271
0.04  0.48  1.19692607037
0.04  0.5  0.925900105487
0.04  0.52  0.716243907256
0.04  0.54  0.554061212048
0.04  0.56  0.428602356803
0.04  0.58  0.331551778509
0.04  0.6  0.256476848733
0.04  0.62  0.198401511317
0.04  0.64  0.153476463421
0.04  0.66  0.118724019126
0.04  0.68  0.091840744849
0.04  0.7  0.071044785011
0.04  0.72  0.0549577585151
0.04  0.74  0.042513398
0.04  0.76  0.0328868763637
0.04  0.78  0.0254401362356
0.04  0.8  0.0196795987716
0.04  0.82  0.015223448657
0.04  0.84  0.0117763269313
0.04  0.86  0.00910975424286
0.04  0.88  0.00704698696369
0.04  0.9  0.00545130241086
0.04  0.92  0.00421693670327
0.04  0.94  0.00326207460513
0.04  0.96  0.00252342671428
0.04  0.98  0.00195203456485
0.06  -1  0.00170860367957
0.06  -0.98  0.00220873966414
0.06  -0.96  0.00285527355598
0.06  -0.94  0.0036910583949
0.06  -0.92  0.00477149099989
0.06  -0.9  0.00616818373653
0.06  -0.88  0.0079737110703
0.06  -0.86  0.0103077455128
0.06  -0.84  0.0133249896592
0.06  -0.82  0.0172254300611
0.06  -0.8  0.0222675925743
0.06  -0.78  0.0287856777623
0.06  -0.76  0.037211712109
0.06  -0.74  0.048104183251
0.06  -0.72  0.0621850572064
0.06  -0.7  0.0803876311462
0.06  -0.68  0.103918393447
0.06  -0.66  0.134336991184
0.06  -0.64  0.173659605405
0.06  -0.62  0.224492586023
0.06  -0.6  0.290205203806
0.06  -0.58  0.375152969673
0.06  -0.56  0.484966323168
0.06  -0.54  0.626923824734
0.06  -0.52  0.810434587398
0.06  -0.5  1.04766192405
0.06  -0.48  1.35432954635
0.06  -0.46  1.75076375118
0.06  -0.44  2.2632406719
0.06  -0.42  2.92572789189
0.06  -0.4  3.78213585663
0.06  -0.38  4.88922831056
0.06  -0.36  6.32038466595
0.06  -0.34  8.17046367814
0.06  -0.32  10.5620907973
0.06  -0.3  13.6537859301
0.06  -0.28  17.6504703285
0.06  -0.26  22.8170490157
0.06  -0.24  29.4959690079
0.06  -0.22  38.1299171123
0.06  -0.2  35.5462224636
0.06  -0.18  35.9044107871
0.06  -0.16  37.4235747183
0.06  -0.14  39.8289820202
0.06  -0.12  42.7506579399
0.06  -0.1  45.822418236
0.06  -0.08  48.7317611674
0.06  -0.06  51.2327370371
0.06  -0.04  53.143063304
0.06  -0.02  54.3377833341
0.06  6.17561557e-16  54.7440088114
0.06  0.02  54.3377833341
0.06  0.04  53.143063304
0.06  0.06  51.2327370371
0.06  0.08  48.7317611674
0.06  0.1  45.822418236
0.06  0.12  42.7506579399
0.06  0.14  39.8289820202
0.06  0.16  37.4235747183
0.06  0.18  35.9044107871
0.06  0.2  49.2911617381
0.06  0.22  38.1299171123
0.06  0.24  29.4959690079
0.06  0.26  22.8170490157
0.06  0.28  17.6504703285
0.06  0.3  13.6537859301
0.06  0.32  10.5620907973
0.06  0.34  8.17046367814
0.06  0.36  6.32038466595
0.06  0.38  4.88922831056
0.06  0.4  3.78213585664
0.06  0.42  2.92572789189
0.06  0.44  2.2632406719
0.06  0.46  1.75076375118
0.06  0.48  1.35432954635
0.06  0.5  1.04766192405
0.06  0.52  0.810434587398
0.06  0.54  0.626923824734
0.06  0.56  0.484966323168
0.06  0.58  0.375152969673
0.06  0.6  0.290205203806
0.06  0.62  0.224492586023
0.06  0.64  0.173659605405
0.06  0.66  0.134336991184
0.06  0.68  0.103918393447
0.06  0.7  0.0803876311462
0.06  0.72  0.0621850572065
0.06  0.74  0.048104183251
0.06  0.76  0.037211712109
0.06  0.78  0.0287856777623
0.06  0.8  0.0222675925743
0.06  0.82  0.0172254300611
0.06  0.84  0.0133249896592
0.06  0.86  0.0103077455128
0.06  0.88  0.0079737110703
0.06  0.9  0.00616818373654
0.06  0.92  0.00477149099989
0.06  0.94  0.0036910583949
0.06  0.96  0.00285527355598
0.06  0.98  0.00220873966414
0.08  -1  0.00187174185113
0.08  -0.98  0.00241963102213
0.08  -0.96  0.00312789623191
0.08  -0.94  0.00404348214587
0.08  -0.92  0.00522707489372
0.08  -0.9  0.00675712441872
0.08  -0.88  0.00873504423382
0.08  -0.86  0.0112919332306
0.08  -0.84  0.0145972650705
0.08  -0.82  0.0188701211021
0.08  -0.8  0.0243937113349
0.08  -0.78  0.0315341459375
0.08  -0.76  0.0407647014574
0.08  -0.74  0.0526971901571
0.08  -0.72  0.0681225116626
0.08  -0.7  0.0880630747368
0.08  -0.68  0.113840563755
0.08  -0.66  0.147163541528
0.08  -0.64  0.190240694887
0.08  -0.62  0.245927229089
0.08  -0.6  0.317914114241
0.08  -0.58  0.410972727209
0.08  -0.56  0.531271104187
0.08  -0.54  0.686782765516
0.08  -0.52  0.887815210148
0.08  -0.5  1.14769310901
0.08  -0.48  1.48364148014
0.08  -0.46  1.91792738346
0.08  -0.44  2.4793358082
0.08  -0.42  3.20507757636
0.08  -0.4  4.14325572055
0.08  -0.38  5.35605381051
0.08  -0.36  6.92385755454
0.08  -0.34  8.95058286037
0.08  -0.32  11.5705635059
0.08  -0.3  14.9574549425
0.08  -0.28  19.3357443865
0.08  -0.26  24.9956300999
0.08  -0.24  32.312256079
0.08  -0.22  41.7705770464
0.08  -0.2  38.9401901859
0.08  -0.18  39.3325784756
0.08  -0.16  40.9967927944
0.08  -0.14  43.6318693601
0.08  -0.12  46.8325080804
0.08  -0.1  50.197561294
0.08  -0.08  53.3846894672
0.08  -0.06  56.1244595262
0.08  -0.04  58.2171845191
0.08  -0.02  59.5259769017
0.08  6.17561557e-16  59.9709889521
0.08  0.02  59.5259769017
0.08  0.04  58.2171845191
0.08  0.06  56.1244595262
0.08  0.08  53.3846894672
0.08  0.1  50.1975612939
0.08  0.12  46.8325080804
0.08  0.14  43.6318693601
0.08  0.16  40.9967927944
0.08  0.18  39.3325784756
0.08  0.2  53.997501831
0.08  0.22  41.7705770464
0.08  0.24  32.312256079
0.08  0.26  24.9956301
0.08  0.28  19.3357443865
0.08  0.3  14.9574549425
0.08  0.32  11.5705635059
0.08  0.34  8.95058286037
0.08  0.36  6.92385755454
0.08  0.38  5.35605381052
0.08  0.4  4.14325572055
0.08  0.42  3.20507757636
0.08  0.44  2.4793358082
0.08  0.46  1.91792738346
0.08  0.48  1.48364148014
0.08  0.5  1.14769310901
0.08  0.52  0.887815210149
0.08  0.54  0.686782765516
0.08  0.56  0.531271104187
0.08  0.58  0.410972727209
0.08  0.6  0.317914114241
0.08  0.62  0.245927229089
0.08  0.64  0.190240694887
0.08  0.66  0.147163541528
0.08  0.68  0.113840563755
0.08  0.7  0.0880630747369
0.08  0.72  0.0681225116627
0.08  0.74  0.0526971901571
0.08  0.76  0.0407647014574
0.08  0.78  0.0315341459375
0.08  0.8  0.0243937113349
0.08  0.82  0.0188701211021
0.08  0.84  0.0145972650705
0.08  0.86  0.0112919332306
0.08  0.88  0.00873504423382
0.08  0.9  0.00675712441873
0.08  0.92  0.00522707489372
0.08  0.94  0.00404348214587
0.08  0.96  0.00312789623191
0.08  0.98  0.00241963102213
0.1  -1  0.00199605629968
0.1  -0.98  0.00258033432426
0.1  -0.96  0.00333563999473
0.1  -0.94  0.00431203587451
0.1  -0.92  0.00557423865059
0.1  -0.9  0.00720590863294
0.1  -0.88  0.00931519485999
0.1  -0.86  0.0120419033462
0.1  -0.84  0.0155667635921
0.1  -0.82  0.0201234075515
0.1  -0.8  0.0260138550373
0.1  -0.78  0.0336285319556
0.1  -0.76  0.0434721482021
0.1  -0.74  0.0561971504376
0.1  -0.72  0.0726469670334
0.1  -0.7  0.0939119115124
0.1  -0.68  0.121401449834
0.1  -0.66  0.156937621485
0.1  -0.64  0.202875806434
0.1  -0.62  0.262260842535
0.1  -0.6  0.339028841026
0.1  -0.58  0.438268076683
0.1  -0.56  0.566556244767
0.1  -0.54  0.732396438532
0.1  -0.52  0.946780744415
0.1  -0.5  1.22391881068
0.1  -0.48  1.58217967991
0.1  -0.46  2.0453093111
0.1  -0.44  2.64400449025
0.1  -0.42  3.41794745006
0.1  -0.4  4.4184360558
0.1  -0.38  5.71178388913
0.1  -0.36  7.38371559169
0.1  -0.34  9.54504879689
0.1  -0.32  12.3390392552
0.1  -0.3  15.9508759966
0.1  -0.28  20.6199558814
0.1  -0.26  26.6557511097
0.1  -0.24  34.4583214102
0.1  -0.22  44.5448304766
0.1  -0.2  41.5264593695
0.1  -0.18  41.9449086964
0.1  -0.16  43.7196542218
0.1  -0.14  46.5297432177
0.1  -0.12  49.9429569986
0.1  -0.1  53.5315050998
0.1  -0.08  56.9303110112
0.1  -0.06  59.8520468704
0.1  -0.04  62.0837632276
0.1  -0.02  63.4794809537
0.1  6.17561557e-16  63.9540491246
0.1  0.02  63.4794809537
0.1  0.04  62.0837632276
0.1  0.06  59.8520468704
0.1  0.08  56.9303110112
0.1  0.1  53.5315050998
0.1  0.12  49.9429569986
0.1  0.14  46.5297432177
0.1  0.16  43.7196542218
0.1  0.18  41.9449086964
0.1  0.2  57.5838241965
0.1  0.22  44.5448304767
0.1  0.24  34.4583214102
0.1  0.26  26.6557511098
0.1  0.28  20.6199558814
0.1  0.3  15.9508759967
0.1  0.32  12.3390392552
0.1  0.34  9.5450487969
0.1  0.36  7.3837155917
0.1  0.38  5.71178388913
0.1  0.4  4.4184360558
0.1  0.42  3.41794745007
0.1  0.44  2.64400449025
0.1  0.46  2.0453093111
0.1  0.48  1.58217967991
0.1  0.5  1.22391881068
0.1  0.52  0.946780744416
0.1  0.54  0.732396438532
0.1  0.56  0.566556244767
0.1  0.58  0.438268076683
0.1  0.6  0.339028841026
0.1  0.62  0.262260842536
0.1  0.64  0.202875806434
0.1  0.66  0.156937621485
0.1  0.68  0.121401449834
0.1  0.7  0.0939119115125
0.1  0.72  0.0726469670334
0.1  0.74  0.0561971504377
0.1  0.76  0.0434721482022
0.1  0.78  0.0336285319557
0.1  0.8  0.0260138550373
0.1  0.82  0.0201234075516
0.1  0.84  0.0155667635921
0.1  0.86  0.0120419033462
0.1  0.88  0.00931519486
0.1  0.9  0.00720590863295
0.1  0.92  0.00557423865059
0.1  0.94  0.00431203587451
0.1  0.96  0.00333563999473
0.1  0.98  0.00258033432426
0.12  -1  0.00207896849137
0.12  -0.98  0.00268751625803
0.12  -0.96  0.00347419581737
0.12  -0.94  0.00449114923171
0.12  -0.92  0.00580578138993
0.12  -0.9  0.00750522768419
0.12  -0.88  0.00970212944794
0.12  -0.86  0.0125420999583
0.12  -0.84  0.0162133758581
0.12  -0.82  0.0209592937059
0.12  -0.8  0.0270944186145
0.12  -0.78  0.0350253940021
0.12  -0.76  0.0452778944055
0.12  -0.74  0.0585314678164
0.12  -0.72  0.075664576936
0.12  -0.7  0.0978128247333
0.12  -0.68  0.126444223568
0.12  -0.66  0.163456496808
0.12  -0.64  0.211302862201
0.12  -0.62  0.273154634084
0.12  -0.6  0.353111421892
0.12  -0.58  0.456472857174
0.12  -0.56  0.590089859513
0.12  -0.54  0.762818723671
0.12  -0.52  0.986108125401
0.12  -0.5  1.27475795337
0.12  -0.48  1.6479002635
0.12  -0.46  2.1302673745
0.12  -0.44  2.75383115553
0.12  -0.42  3.55992216
0.12  -0.4  4.601969064
0.12  -0.38  5.94903998294
0.12  -0.36  7.69042038885
0.12  -0.34  9.94153105826
0.12  -0.32  12.8515782994
0.12  -0.3  16.6134435246
0.12  -0.28  21.4764676616
0.12  -0.26  27.7629777676
0.12  -0.24  35.8896512532
0.12  -0.22  46.395133759
0.12  -0.2  43.2513855452
0.12  -0.18  43.6872164212
0.12  -0.16  45.5356813308
0.12  -0.14  48.4624958106
0.12  -0.12  52.0174876743
0.12  -0.1  55.7550968957
0.12  -0.08  59.2950824157
0.12  -0.06  62.3381813466
0.12  -0.04  64.6625987435
0.12  -0.02  66.1162917961
0.12  6.17561557e-16  66.6105725809
0.12  0.02  66.1162917961
0.12  0.04  64.6625987435
0.12  0.06  62.3381813466
0.12  0.08  59.2950824157
0.12  0.1  55.7550968957
0.12  0.12  52.0174876743
0.12  0.14  48.4624958106
0.12  0.16  45.5356813308
0.12  0.18  43.6872164212
0.12  0.2  59.9757412334
0.12  0.22  46.3951337591
0.12  0.24  35.8896512532
0.12  0.26  27.7629777676
0.12  0.28  21.4764676616
0.12  0.3  16.6134435246
0.12  0.32  12.8515782994
0.12  0.34  9.94153105827
0.12  0.36  7.69042038885
0.12  0.38  5.94903998294
0.12  0.4  4.601969064
0.12  0.42  3.55992216
0.12  0.44  2.75383115554
0.12  0.46  2.1302673745
0.12  0.48  1.6479002635
0.12  0.5  1.27475795338
0.12  0.52  0.986108125402
0.12  0.54  0.762818723671
0.12  0.56  0.590089859513
0.12  0.58  0.456472857175
0.12  0.6  0.353111421893
0.12  0.62  0.273154634084
0.12  0.64  0.211302862201
0.12  0.66  0.163456496808
0.12  0.68  0.126444223568
0.12  0.7  0.0978128247334
0.12  0.72  0.0756645769361
0.12  0.74  0.0585314678165
0.12  0.76  0.0452778944055
0.12  0.78  0.0350253940022
0.12  0.8  0.0270944186145
0.12  0.82  0.020959293706
0.12  0.84  0.0162133758581
0.12  0.86  0.0125420999583
0.12  0.88  0.00970212944794
0.12  0.9  0.00750522768419
0.12  0.92  0.00580578138993
0.12  0.94  0.00449114923171
0.12  0.96  0.00347419581737
0.12  0.98  0.00268751625803
0.14  -1  0.00211875865915
0.14  -0.98  0.0027389536527
0.14  -0.96  0.003540689771
0.14  -0.94  0.00457710704308
0.14  -0.92  0.00591690044562
0.14  -0.9  0.00764887308814
0.14  -0.88  0.00988782218937
0.14  -0.86  0.0127821479742
0.14  -0.84  0.0165236898182
0.14  -0.82  0.0213604415908
0.14  -0.8  0.0276129889858
0.14  -0.78  0.0356957583244
0.14  -0.76  0.046144485228
0.14  -0.74  0.0596517238156
0.14  -0.72  0.0771127500197
0.14  -0.7  0.0996849015458
0.14  -0.68  0.128864287601
0.14  -0.66  0.166584952799
0.14  -0.64  0.215347067956
0.14  -0.62  0.2783826444
0.14  -0.6  0.359869755546
0.14  -0.58  0.465209464606
0.14  -0.56  0.601383813515
0.14  -0.54  0.777418601025
0.14  -0.52  1.00498162344
0.14  -0.5  1.29915603014
0.14  -0.48  1.6794400527
0.14  -0.46  2.17103937109
0.14  -0.44  2.80653777623
0.14  -0.42  3.62805686266
0.14  -0.4  4.69004789824
0.14  -0.38  6.06290091926
0.14  -0.36  7.83761026633
0.14  -0.34  10.1318057981
0.14  -0.32  13.0975495389
0.14  -0.3  16.9314145318
0.14  -0.28  21.8875139352
0.14  -0.26  28.2943439465
0.14  -0.24  36.5765569233
0.14  -0.22  47.28310785
0.14  -0.2  44.0791902447
0.14  -0.18  44.5233626534
0.14  -0.16  46.4072060352
0.14  -0.14  49.3900379293
0.14  -0.12  53.0130701328
0.14  -0.1  56.822214877
0.14  -0.08  60.4299535248
0.14  -0.06  63.5312954822
0.14  -0.04  65.9002007868
0.14  -0.02  67.381716623
0.14  6.17561557e-16  67.8854576355
0.14  0.02  67.381716623
0.14  0.04  65.9002007868
0.14  0.06  63.5312954822
0.14  0.08  60.4299535248
0.14  0.1  56.822214877
0.14  0.12  53.0130701328
0.14  0.14  49.3900379293
0.14  0.16  46.4072060352
0.14  0.18  44.5233626534
0.14  0.2  61.1236397302
0.14  0.22  47.28310785
0.14  0.24  36.5765569234
0.14  0.26  28.2943439465
0.14  0.28  21.8875139352
0.14  0.3  16.9314145319
0.14  0.32  13.0975495389
0.14  0.34  10.1318057981
0.14  0.36  7.83761026633
0.14  0.38  6.06290091927
0.14  0.4  4.69004789824
0.14  0.42  3.62805686267
0.14  0.44  2.80653777623
0.14  0.46  2.17103937109
0.14  0.48  1.6794400527
0.14  0.5  1.29915603014
0.14  0.52  1.00498162345
0.14  0.54  0.777418601025
0.14  0.56  0.601383813515
0.14  0.58  0.465209464606
0.14  0.6  0.359869755546
0.14  0.62  0.2783826444
0.14  0.64  0.215347067957
0.14  0.66  0.166584952799
0.14  0.68  0.128864287601
0.14  0.7  0.0996849015459
0.14  0.72  0.0771127500197
0.14  0.74  0.0596517238156
0.14  0.76  0.046144485228
0.14  0.78  0.0356957583244
0.14  0.8  0.0276129889858
0.14  0.82  0.0213604415908
0.14  0.84  0.0165236898182
0.14  0.86  0.0127821479742
0.14  0.88  0.00988782218937
0.14  0.9  0.00764887308814
0.14  0.92  0.00591690044562
0.14  0.94  0.00457710704308
0.14  0.96  0.003540689771
0.14  0.98  0.0027389536527
0.16  -1  0.00211460147421
0.16  -0.98  0.00273357959237
0.16  -0.96  0.00353374263612
0.16  -0.94  0.00456812636925
0.16  -0.92  0.00590529098302
0.16  -0.9  0.00763386534772
0.16  -0.88  0.00986842144013
0.16  -0.86  0.0127570683113
0.16  -0.84  0.0164912689315
0.16  -0.82  0.0213185305852
0.16  -0.8  0.0275588099497
0.16  -0.78  0.0356257202065
0.16  -0.76  0.046053945818
0.16  -0.74  0.0595346820532
0.16  -0.72  0.0769614482367
0.16  -0.7  0.0994893112792
0.16  -0.68  0.128611444893
0.16  -0.66  0.166258098934
0.16  -0.64  0.214924538669
0.16  -0.62  0.277836433943
0.16  -0.6  0.359163660437
0.16  -0.58  0.464296684016
0.16  -0.56  0.600203847255
0.16  -0.54  0.77589323952
0.16  -0.52  1.00300976391
0.16  -0.5  1.29660697536
0.16  -0.48  1.67614484828
0.16  -0.46  2.16677960694
0.16  -0.44  2.80103111009
0.16  -0.42  3.62093830611
0.16  -0.4  4.68084562483
0.16  -0.38  6.05100499131
0.16  -0.36  7.82223220749
0.16  -0.34  10.1119263322
0.16  -0.32  13.0718510312
0.16  -0.3  16.8981936546
0.16  -0.28  21.8445687688
0.16  -0.26  28.2388280339
0.16  -0.24  36.5047906036
0.16  -0.22  47.1903343655
0.16  -0.2  43.9927031194
0.16  -0.18  44.436004024
0.16  -0.16  46.3161511447
0.16  -0.14  49.2931304685
0.16  -0.12  52.9090539743
0.16  -0.1  56.7107248521
0.16  -0.08  60.3113848094
0.16  -0.06  63.4066416698
0.16  -0.04  65.7708989804
0.16  -0.02  67.2495079563
0.16  6.17561557e-16  67.7522605861
0.16  0.02  67.2495079563
0.16  0.04  65.7708989804
0.16  0.06  63.4066416698
0.16  0.08  60.3113848094
0.16  0.1  56.7107248521
0.16  0.12  52.9090539743
0.16  0.14  49.2931304685
0.16  0.16  46.3161511447
0.16  0.18  44.436004024
0.16  0.2  61.0037099434
0.16  0.22  47.1903343655
0.16  0.24  36.5047906036
0.16  0.26  28.238828034
0.16  0.28  21.8445687688
0.16  0.3  16.8981936546
0.16  0.32  13.0718510312
0.16  0.34  10.1119263322
0.16  0.36  7.82223220749
0.16  0.38  6.05100499131
0.16  0.4  4.68084562483
0.16  0.42  3.62093830611
0.16  0.44  2.80103111009
0.16  0.46  2.16677960694
0.16  0.48  1.67614484829
0.16  0.5  1.29660697536
0.16  0.52  1.00300976391
0.16  0.54  0.77589323952
0.16  0.56  0.600203847255
0.16  0.58  0.464296684016
0.16  0.6  0.359163660437
0.16  0.62  0.277836433943
0.16  0.64  0.214924538669
0.16  0.66  0.166258098934
0.16  0.68  0.128611444893
0.16  0.7  0.0994893112793
0.16  0.72  0.0769614482368
0.16  0.74  0.0595346820532
0.16  0.76  0.046053945818
0.16  0.78  0.0356257202065
0.16  0.8  0.0275588099497
0.16  0.82  0.0213185305852
0.16  0.84  0.0164912689315
0.16  0.86  0.0127570683113
0.16  0.88  0.00986842144013
0.16  0.9  0.00763386534772
0.16  0.92  0.00590529098303
0.16  0.94  0.00456812636925
0.16  0.96  0.00353374263612
0.16  0.98  0.00273357959237
0.18  -1  0.00206658316501
0.18  -0.98  0.00267150554594
0.18  -0.96  0.00345349851041
0.18  -0.94  0.0044643934876
0.18  -0.92  0.00577119380595
0.18  -0.9  0.0074605157539
0.18  -0.88  0.00964432961111
0.18  -0.86  0.0124673811726
0.18  -0.84  0.016116785673
0.18  -0.82  0.0208344300085
0.18  -0.8  0.0269330052894
0.18  -0.78  0.0348167323811
0.18  -0.76  0.0450081541466
0.18  -0.74  0.0581827702127
0.18  -0.72  0.0752138098932
0.18  -0.7  0.0972301108724
0.18  -0.68  0.125690939918
0.18  -0.66  0.162482714826
0.18  -0.64  0.210044038453
0.18  -0.62  0.271527332226
0.18  -0.6  0.35100778241
0.18  -0.58  0.453753448327
0.18  -0.56  0.586574435628
0.18  -0.54  0.758274278248
0.18  -0.52  0.980233447161
0.18  -0.5  1.26716366162
0.18  -0.48  1.63808299948
0.18  -0.46  2.11757643821
0.18  -0.44  2.73742537655
0.18  -0.42  3.53871414364
0.18  -0.4  4.57455311759
0.18  -0.38  5.91359894474
0.18  -0.36  7.64460518446
0.18  -0.34  9.88230500112
0.18  -0.32  12.7750158156
0.18  -0.3  16.5144699611
0.18  -0.28  21.3485229322
0.18  -0.26  27.5975815426
0.18  -0.24  35.675840873
0.18  -0.22  46.1187376158
0.18  -0.2  42.9937180876
0.18  -0.18  43.4269525282
0.18  -0.16  45.2644053223
0.18  -0.14  48.1737834856
0.18  -0.12  51.7075967049
0.18  -0.1  55.4229393502
0.18  -0.08  58.9418356252
0.18  -0.06  61.9668054822
0.18  -0.04  64.2773753061
0.18  -0.02  65.7224080721
0.18  6.17561557e-16  66.2137442097
0.18  0.02  65.7224080721
0.18  0.04  64.2773753061
0.18  0.06  61.9668054822
0.18  0.08  58.9418356252
0.18  0.1  55.4229393502
0.18  0.12  51.7075967049
0.18  0.14  48.1737834856
0.18  0.16  45.2644053223
0.18  0.18  43.4269525282
0.18  0.2  59.6184394601
0.18  0.22  46.1187376158
0.18  0.24  35.675840873
0.18  0.26  27.5975815426
0.18  0.28  21.3485229322
0.18  0.3  16.5144699612
0.18  0.32  12.7750158156
0.18  0.34  9.88230500113
0.18  0.36  7.64460518447
0.18  0.38  5.91359894475
0.18  0.4  4.57455311759
0.18  0.42  3.53871414365
0.18  0.44  2.73742537655
0.18  0.46  2.11757643821
0.18  0.48  1.63808299948
0.18  0.5  1.26716366162
0.18  0.52  0.980233447162
0.18  0.54  0.758274278248
0.18  0.56  0.586574435628
0.18  0.58  0.453753448327
0.18  0.6  0.35100778241
0.18  0.62  0.271527332226
0.18  0.64  0.210044038453
0.18  0.66  0.162482714826
0.18  0.68  0.125690939918
0.18  0.7  0.0972301108724
0.18  0.72  0.0752138098932
0.18  0.74  0.0581827702128
0.18  0.76  0.0450081541466
0.18  0.78  0.0348167323811
0.18  0.8  0.0269330052894
0.18  0.82  0.0208344300085
0.18  0.84  0.016116785673
0.18  0.86  0.0124673811726
0.18  0.88  0.00964432961111
0.18  0.9  0.0074605157539
0.18  0.92  0.00577119380596
0.18  0.94  0.0044643934876
0.18  0.96  0.00345349851041
0.18  0.98  0.00267150554595
0.2  -1  0.0019756997287
0.2  -0.98  0.00255401905507
0.2  -0.96  0.00330162181982
0.2  -0.94  0.00426806002854
0.2  -0.92  0.00551739036189
0.2  -0.9  0.00713241992892
0.2  -0.88  0.00922019482144
0.2  -0.86  0.0119190952569
0.2  -0.84  0.015408007585
0.2  -0.82  0.0199181810885
0.2  -0.8  0.025748555463
0.2  -0.78  0.0332855748967
0.2  -0.76  0.0430288020546
0.2  -0.74  0.0556240296883
0.2  -0.72  0.0719060845535
0.2  -0.7  0.0929541607248
0.2  -0.68  0.120163349871
0.2  -0.66  0.155337109599
0.2  -0.64  0.200806798783
0.2  -0.62  0.259586202818
0.2  -0.6  0.33557129092
0.2  -0.58  0.433798445633
0.2  -0.56  0.56077828028
0.2  -0.54  0.724927170208
0.2  -0.52  0.937125100215
0.2  -0.5  1.21143680296
0.2  -0.48  1.56604398625
0.2  -0.46  2.02445043843
0.2  -0.44  2.61703988754
0.2  -0.42  3.38308987119
0.2  -0.4  4.37337509873
0.2  -0.38  5.65353285972
0.2  -0.36  7.30841354204
0.2  -0.34  9.44770461705
0.2  -0.32  12.2132008565
0.2  -0.3  15.7882026594
0.2  -0.28  20.4096654223
0.2  -0.26  26.3839052256
0.2  -0.24  34.1069018305
0.2  -0.22  44.0905446913
0.2  -0.2  41.1029561256
0.2  -0.18  41.5171379408
0.2  -0.16  43.27378391
0.2  -0.14  46.0552145078
0.2  -0.12  49.4336189857
0.2  -0.1  52.9855696551
0.2  -0.08  56.3497132006
0.2  -0.06  59.2416520429
0.2  -0.04  61.4506084747
0.2  -0.02  62.8320921198
0.2  6.17561557e-16  63.301820457
0.2  0.02  62.8320921198
0.2  0.04  61.4506084747
0.2  0.06  59.2416520429
0.2  0.08  56.3497132006
0.2  0.1  52.9855696551
0.2  0.12  49.4336189857
0.2  0.14  46.0552145078
0.2  0.16  43.27378391
0.2  0.18  41.5171379408
0.2  0.2  56.9965616002
0.2  0.22  44.0905446913
0.2  0.24  34.1069018306
0.2  0.26  26.3839052256
0.2  0.28  20.4096654223
0.2  0.3  15.7882026594
0.2  0.32  12.2132008565
0.2  0.34  9.44770461706
0.2  0.36  7.30841354204
0.2  0.38  5.65353285973
0.2  0.4  4.37337509873
0.2  0.42  3.3830898712
0.2  0.44  2.61703988755
0.2  0.46  2.02445043844
0.2  0.48  1.56604398626
0.2  0.5  1.21143680296
0.2  0.52  0.937125100216
0.2  0.54  0.724927170208
0.2  0.56  0.56077828028
0.2  0.58  0.433798445633
0.2  0.6  0.335571290921
0.2  0.62  0.259586202818
0.2  0.64  0.200806798783
0.2  0.66  0.155337109599
0.2  0.68  0.120163349871
0.2  0.7  0.0929541607248
0.2  0.72  0.0719060845535
0.2  0.74  0.0556240296884
0.2  0.76  0.0430288020546
0.2  0.78  0.0332855748968
0.2  0.8  0.025748555463
0.2  0.82  0.0199181810886
0.2  0.84  0.015408007585
0.2  0.86  0.0119190952569
0.2  0.88  0.00922019482144
0.2  0.9  0.00713241992893
0.2  0.92  0.00551739036189
0.2  0.94  0.00426806002854
0.2  0.96  0.00330162181982
0.2  0.98  0.00255401905507
0.22  -1  0.0018438362721
0.22  -0.98  0.00238355702791
0.22  -0.96  0.003081262795
0.22  -0.94  0.00398319834629
0.22  -0.92  0.00514914504912
0.22  -0.9  0.00665638324578
0.22  -0.88  0.00860481448706
0.22  -0.86  0.0111235831266
0.22  -0.84  0.014379636163
0.22  -0.82  0.0185887886868
0.22  -0.8  0.0240300283627
0.22  -0.78  0.0310640070659
0.22  -0.76  0.0401569453195
0.22  -0.74  0.0519115339492
0.22  -0.72  0.0671068811512
0.22  -0.7  0.0867501527167
0.22  -0.68  0.112143328184
0.22  -0.66  0.144969497602
0.22  -0.64  0.18740441875
0.22  -0.62  0.242260728966
0.22  -0.6  0.313174370116
0.22  -0.58  0.404845583172
0.22  -0.56  0.523350445802
0.22  -0.54  0.676543602068
0.22  -0.52  0.874578877636
0.22  -0.5  1.13058228748
0.22  -0.48  1.46152204387
0.22  -0.46  1.88933322976
0.22  -0.44  2.44237168234
0.22  -0.42  3.15729345187
0.22  -0.4  4.08148440849
0.22  -0.38  5.27620103442
0.22  -0.36  6.82063057689
0.22  -0.34  8.81713967359
0.22  -0.32  11.3980593359
0.22  -0.3  14.7344560066
0.22  -0.28  19.0474700484
0.22  -0.26  24.6229731916
0.22  -0.24  31.8305164548
0.22  -0.22  41.1478244277
0.22  -0.2  38.3596354719
0.22  -0.18  38.7461736908
0.22  -0.16  40.3855764341
0.22  -0.14  42.9813669533
0.22  -0.12  46.1342877275
0.22  -0.1  49.4491717586
0.22  -0.08  52.588783413
0.22  -0.06  55.2877065624
0.22  -0.04  57.3492313646
0.22  -0.02  58.6385111156
0.22  6.17561557e-16  59.0768885337
0.22  0.02  58.6385111156
0.22  0.04  57.3492313646
0.22  0.06  55.2877065624
0.22  0.08  52.588783413
0.22  0.1  49.4491717586
0.22  0.12  46.1342877275
0.22  0.14  42.9813669533
0.22  0.16  40.3855764341
0.22  0.18  38.7461736908
0.22  0.2  53.1924594293
0.22  0.22  41.1478244278
0.22  0.24  31.8305164548
0.22  0.26  24.6229731917
0.22  0.28  19.0474700484
0.22  0.3  14.7344560066
0.22  0.32  11.3980593359
0.22  0.34  8.81713967359
0.22  0.36  6.82063057689
0.22  0.38  5.27620103442
0.22  0.4  4.08148440849
0.22  0.42  3.15729345187
0.22  0.44  2.44237168234
0.22  0.46  1.88933322976
0.22  0.48  1.46152204387
0.22  0.5  1.13058228748
0.22  0.52  0.874578877637
0.22  0.54  0.676543602069
0.22  0.56  0.523350445802
0.22  0.58  0.404845583172
0.22  0.6  0.313174370117
0.22  0.62  0.242260728966
0.22  0.64  0.18740441875
0.22  0.66  0.144969497602
0.22  0.68  0.112143328184
0.22  0.7  0.0867501527167
0.22  0.72  0.0671068811513
0.22  0.74  0.0519115339492
0.22  0.76  0.0401569453195
0.22  0.78  0.0310640070659
0.22  0.8  0.0240300283627
0.22  0.82  0.0185887886868
0.22  0.84  0.014379636163
0.22  0.86  0.0111235831266
0.22  0.88  0.00860481448707
0.22  0.9  0.00665638324578
0.22  0.92  0.00514914504912
0.22  0.94  0.00398319834629
0.22  0.96  0.003081262795
0.22  0.98  0.00238355702791
0.24  -1  0.0016737279108
0.24  -0.98  0.00216365519269
0.24  -0.96  0.00279699212916
0.24  -0.94  0.00361571705001
0.24  -0.92  0.00467409602246
0.24  -0.9  0.00604227967095
0.24  -0.88  0.00781095284447
0.24  -0.86  0.0100973453168
0.24  -0.84  0.0130530019164
0.24  -0.82  0.0168738270984
0.24  -0.8  0.0218130697268
0.24  -0.78  0.0281981087119
0.24  -0.76  0.0364521520761
0.24  -0.74  0.047122287688
0.24  -0.72  0.0609157449007
0.24  -0.7  0.0787467705596
0.24  -0.68  0.101797226377
0.24  -0.66  0.131594924139
0.24  -0.64  0.170114890902
0.24  -0.62  0.219910276144
0.24  -0.6  0.28428157757
0.24  -0.58  0.367495402046
0.24  -0.56  0.475067261408
0.24  -0.54  0.614127147184
0.24  -0.52  0.793892114962
0.24  -0.5  1.02627720186
0.24  -0.48  1.32668516945
0.24  -0.46  1.71502741719
0.24  -0.44  2.21704373385
0.24  -0.42  2.86600836146
0.24  -0.4  3.7049354519
0.24  -0.38  4.78943009635
0.24  -0.36  6.19137389722
0.24  -0.34  8.00368936681
0.24  -0.32  10.3464989425
0.24  -0.3  13.3750868458
0.24  -0.28  17.2901915059
0.24  -0.26  22.3513107435
0.24  -0.24  28.8939015963
0.24  -0.22  37.3516148129
0.24  -0.2  34.8206581621
0.24  -0.18  35.1715351978
0.24  -0.16  36.6596901767
0.24  -0.14  39.0159986561
0.24  -0.12  41.8780377537
0.24  -0.1  44.8870977272
0.24  -0.08  47.7370555756
0.24  -0.06  50.1869818911
0.24  -0.04  52.0583148573
0.24  -0.02  53.2286484366
0.24  6.17561557e-16  53.6265820988
0.24  0.02  53.2286484366
0.24  0.04  52.0583148573
0.24  0.06  50.1869818911
0.24  0.08  47.7370555756
0.24  0.1  44.8870977272
0.24  0.12  41.8780377537
0.24  0.14  39.0159986561
0.24  0.16  36.6596901767
0.24  0.18  35.1715351978
0.24  0.2  48.2850377435
0.24  0.22  37.351614813
0.24  0.24  28.8939015963
0.24  0.26  22.3513107435
0.24  0.28  17.2901915059
0.24  0.3  13.3750868458
0.24  0.32  10.3464989425
0.24  0.34  8.00368936682
0.24  0.36  6.19137389723
0.24  0.38  4.78943009635
0.24  0.4  3.7049354519
0.24  0.42  2.86600836146
0.24  0.44  2.21704373385
0.24  0.46  1.71502741719
0.24  0.48  1.32668516945
0.24  0.5  1.02627720186
0.24  0.52  0.793892114962
0.24  0.54  0.614127147184
0.24  0.56  0.475067261408
0.24  0.58  0.367495402046
0.24  0.6  0.28428157757
0.24  0.62  0.219910276144
0.24  0.64  0.170114890902
0.24  0.66  0.131594924139
0.24  0.68  0.101797226377
0.24  0.7  0.0787467705596
0.24  0.72  0.0609157449007
0.24  0.74  0.047122287688
0.24  0.76  0.0364521520761
0.24  0.78  0.0281981087119
0.24  0.8  0.0218130697268
0.24  0.82  0.0168738270984
0.24  0.84  0.0130530019164
0.24  0.86  0.0100973453169
0.24  0.88  0.00781095284447
0.24  0.9  0.00604227967095
0.24  0.92  0.00467409602247
0.24  0.94  0.00361571705001
0.24  0.96  0.00279699212916
0.24  0.98  0.00216365519269
0.26  -1  0.00146890303731
0.26  -0.98  0.00189887475958
0.26  -0.96  0.00245470617257
0.26  -0.94  0.00317323844726
0.26  -0.92  0.00410209676242
0.26  -0.9  0.00530284695837
0.26  -0.88  0.00685507619456
0.26  -0.86  0.00886166808174
0.26  -0.84  0.0114556219307
0.26  -0.82  0.0148088681057
0.26  -0.8  0.0191436637747
0.26  -0.78  0.0247473243804
0.26  -0.76  0.0319912672516
0.26  -0.74  0.0413556295877
0.26  -0.72  0.0534610925271
0.26  -0.7  0.0691100206352
0.26  -0.68  0.089339643588
0.26  -0.66  0.115490804996
0.26  -0.64  0.149296835122
0.26  -0.62  0.192998438084
0.26  -0.6  0.24949220841
0.26  -0.58  0.322522620778
0.26  -0.56  0.416930218289
0.26  -0.54  0.538972449446
0.26  -0.52  0.696738419331
0.26  -0.5  0.900685045165
0.26  -0.48  1.16433015329
0.26  -0.46  1.50514845688
0.26  -0.44  1.94572980081
0.26  -0.42  2.51527644363
0.26  -0.4  3.2515386182
0.26  -0.38  4.20331666222
0.26  -0.36  5.43369556309
0.26  -0.34  7.02422630626
0.26  -0.32  9.08033117217
0.26  -0.3  11.7382912511
0.26  -0.28  15.1742793167
0.26  -0.26  19.6160367686
0.26  -0.24  25.3579686044
0.26  -0.22  32.7806569353
0.26  -0.2  30.5594297647
0.26  -0.18  30.8673677158
0.26  -0.16  32.1734075771
0.26  -0.14  34.2413593988
0.26  -0.12  36.753152323
0.26  -0.1  39.3939742307
0.26  -0.08  41.8951643661
0.26  -0.06  44.0452774058
0.26  -0.04  45.6876032941
0.26  -0.02  46.7147156092
0.26  6.17561557e-16  47.063951564
0.26  0.02  46.7147156092
0.26  0.04  45.6876032941
0.26  0.06  44.0452774058
0.26  0.08  41.8951643661
0.26  0.1  39.3939742307
0.26  0.12  36.753152323
0.26  0.14  34.2413593988
0.26  0.16  32.1734075771
0.26  0.18  30.8673677158
0.26  0.2  42.3760864238
0.26  0.22  32.7806569354
0.26  0.24  25.3579686045
0.26  0.26  19.6160367686
0.26  0.28  15.1742793167
0.26  0.3  11.7382912511
