-0.56  0.7  0.00477288243084
-0.56  0.72  0.00407475485384
-0.56  0.74  0.00347874211432
-0.56  0.76  0.00296990791644
-0.56  0.78  0.00253550069027
-0.56  0.8  0.00216463403284
-0.56  0.82  0.00184801389096
-0.56  0.84  0.00157770564879
-0.56  0.86  0.00134693528355
-0.56  0.88  0.00114991960602
-0.56  0.9  0.000981721331719
-0.56  0.92  0.000838125350771
-0.56  0.94  0.000715533095706
-0.56  0.96  0.000610872360058
-0.56  0.98  0.000521520307757
-0.54  -1  0.000539647161678
-0.54  -0.98  0.000632104887096
-0.54  -0.96  0.000740403390704
-0.54  -0.94  0.000867256672361
-0.54  -0.92  0.00101584372141
-0.54  -0.9  0.00118988818329
-0.54  -0.88  0.00139375167548
-0.54  -0.86  0.00163254309117
-0.54  -0.84  0.00191224663002
-0.54  -0.82  0.00223987176438
-0.54  -0.8  0.00262362889917
-0.54  -0.78  0.00307313512765
-0.54  -0.76  0.00359965523927
-0.54  -0.74  0.00421638401938
-0.54  -0.72  0.00493877691533
-0.54  -0.7  0.00578493735564
-0.54  -0.68  0.00677607042845
-0.54  -0.66  0.00793701428875
-0.54  -0.64  0.00929686261161
-0.54  -0.62  0.0108896936902
-0.54  -0.6  0.0127554244502
-0.54  -0.58  0.0149408107825
-0.54  -0.56  0.0175006192628
-0.54  -0.54  0.020498999622
-0.54  -0.52  0.0240110923614
-0.54  -0.5  0.0281249118015
-0.54  -0.48  0.0329435517526
-0.54  -0.46  0.0385877690829
-0.54  -0.44  0.0451990099301
-0.54  -0.42  0.0529429543923
-0.54  -0.4  0.0620136685323
-0.54  -0.38  0.0726384677426
-0.54  -0.36  0.085083613353
-0.54  -0.34  0.0996609852351
-0.54  -0.32  0.116735897626
-0.54  -0.3  0.136736254036
-0.54  -0.28  0.160163270665
-0.54  -0.26  0.187604037063
-0.54  -0.24  0.219746228809
-0.54  -0.22  0.25739534091
-0.54  -0.2  0.22435548882
-0.54  -0.18  0.224505332795
-0.54  -0.16  0.223019652673
-0.54  -0.14  0.220032224029
-0.54  -0.12  0.215819525378
-0.54  -0.1  0.210789503581
-0.54  -0.08  0.205459523261
-0.54  -0.06  0.200417810401
-0.54  -0.04  0.196263254625
-0.54  -0.02  0.193523973981
-0.54  6.17561557e-16  0.19256690484
-0.54  0.02  0.193523973981
-0.54  0.04  0.196263254625
-0.54  0.06  0.200417810401
-0.54  0.08  0.205459523261
-0.54  0.1  0.210789503581
-0.54  0.12  0.215819525378
-0.54  0.14  0.220032224029
-0.54  0.16  0.223019652673
-0.54  0.18  0.224505332795
-0.54  0.2  0.301494873796
-0.54  0.22  0.25739534091
-0.54  0.24  0.219746228809
-0.54  0.26  0.187604037063
-0.54  0.28  0.160163270665
-0.54  0.3  0.136736254036
-0.54  0.32  0.116735897626
-0.54  0.34  0.0996609852351
-0.54  0.36  0.085083613353
-0.54  0.38  0.0726384677427
-0.54  0.4  0.0620136685323
-0.54  0.42  0.0529429543923
-0.54  0.44  0.0451990099301
-0.54  0.46  0.0385877690829
-0.54  0.48  0.0329435517526
-0.54  0.5  0.0281249118015
-0.54  0.52  0.0240110923614
-0.54  0.54  0.020498999622
-0.54  0.56  0.0175006192628
-0.54  0.58  0.0149408107825
-0.54  0.6  0.0127554244502
-0.54  0.62  0.0108896936902
-0.54  0.64  0.00929686261162
-0.54  0.66  0.00793701428876
-0.54  0.68  0.00677607042845
-0.54  0.7  0.00578493735564
-0.54  0.72  0.00493877691533
-0.54  0.74  0.00421638401938
-0.54  0.76  0.00359965523927
-0.54  0.78  0.00307313512765
-0.54  0.8  0.00262362889917
-0.54  0.82  0.00223987176438
-0.54  0.84  0.00191224663003
-0.54  0.86  0.00163254309117
-0.54  0.88  0.00139375167548
-0.54  0.9  0.00118988818329
-0.54  0.92  0.00101584372141
-0.54  0.94  0.000867256672361
-0.54  0.96  0.000740403390704
-0.54  0.98  0.000632104887096
-0.52  -1  0.000654075408244
-0.52  -0.98  0.000766138120313
-0.52  -0.96  0.000897400532107
-0.52  -0.94  0.00105115212737
-0.52  -0.92  0.00123124597696
-0.52  -0.9  0.00144219529818
-0.52  -0.88  0.00168928655771
-0.52  -0.86  0.00197871195229
-0.52  -0.84  0.0023177245875
-0.52  -0.82  0.00271482024319
-0.52  -0.8  0.00317995028079
-0.52  -0.78  0.00372477102809
-0.52  -0.76  0.00436293589101
-0.52  -0.74  0.00511043751294
-0.52  -0.72  0.00598600855618
-0.52  -0.7  0.00701159114928
-0.52  -0.68  0.00821288676475
-0.52  -0.66  0.00962000030727
-0.52  -0.64  0.0112681945536
-0.52  -0.62  0.0131987738505
-0.52  -0.6  0.0154601192169
-0.52  -0.58  0.0181089007893
-0.52  -0.56  0.0212114979967
-0.52  -0.54  0.0248456630526
-0.52  -0.52  0.029102469454
-0.52  -0.5  0.0340885943163
-0.52  -0.48  0.0399289917408
-0.52  -0.46  0.0467700242093
-0.52  -0.44  0.0547831304816
-0.52  -0.42  0.0641691219132
-0.52  -0.4  0.0751632148603
-0.52  -0.38  0.0880409252877
-0.52  -0.36  0.103124973299
-0.52  -0.34  0.120793370618
-0.52  -0.32  0.141488893704
-0.52  -0.3  0.165730179887
-0.52  -0.28  0.194124724607
-0.52  -0.26  0.227384105475
-0.52  -0.24  0.266341814662
-0.52  -0.22  0.311974146519
-0.52  -0.2  0.271928434656
-0.52  -0.18  0.272110051954
-0.52  -0.16  0.270309344193
-0.52  -0.14  0.266688453084
-0.52  -0.12  0.261582482395
-0.52  -0.1  0.255485881145
-0.52  -0.08  0.249025717353
-0.52  -0.06  0.242914946036
-0.52  -0.04  0.237879446994
-0.52  -0.02  0.23455932186
-0.52  6.17561557e-16  0.233399313184
-0.52  0.02  0.23455932186
-0.52  0.04  0.237879446994
-0.52  0.06  0.242914946036
-0.52  0.08  0.249025717353
-0.52  0.1  0.255485881145
-0.52  0.12  0.261582482395
-0.52  0.14  0.266688453084
-0.52  0.16  0.270309344193
-0.52  0.18  0.272110051954
-0.52  0.2  0.365424663865
-0.52  0.22  0.311974146519
-0.52  0.24  0.266341814662
-0.52  0.26  0.227384105475
-0.52  0.28  0.194124724607
-0.52  0.3  0.165730179887
-0.52  0.32  0.141488893705
-0.52  0.34  0.120793370618
-0.52  0.36  0.103124973299
-0.52  0.38  0.0880409252877
-0.52  0.4  0.0751632148603
-0.52  0.42  0.0641691219132
-0.52  0.44  0.0547831304816
-0.52  0.46  0.0467700242093
-0.52  0.48  0.0399289917408
-0.52  0.5  0.0340885943163
-0.52  0.52  0.029102469454
-0.52  0.54  0.0248456630526
-0.52  0.56  0.0212114979967
-0.52  0.58  0.0181089007893
-0.52  0.6  0.0154601192169
-0.52  0.62  0.0131987738505
-0.52  0.64  0.0112681945536
-0.52  0.66  0.00962000030727
-0.52  0.68  0.00821288676475
-0.52  0.7  0.00701159114929
-0.52  0.72  0.00598600855618
-0.52  0.74  0.00511043751294
-0.52  0.76  0.00436293589101
-0.52  0.78  0.00372477102809
-0.52  0.8  0.00317995028079
-0.52  0.82  0.00271482024319
-0.52  0.84  0.0023177245875
-0.52  0.86  0.00197871195229
-0.52  0.88  0.00168928655771
-0.52  0.9  0.00144219529818
-0.52  0.92  0.00123124597696
-0.52  0.94  0.00105115212737
-0.52  0.96  0.000897400532107
-0.52  0.98  0.000766138120313
-0.5  -1  0.000792767330305
-0.5  -0.98  0.000928592123522
-0.5  -0.96  0.00108768777282
-0.5  -0.94  0.001274041273
-0.5  -0.92  0.0014923227105
-0.5  -0.9  0.00174800229745
-0.5  -0.88  0.00204748745725
-0.5  -0.86  0.00239828339682
-0.5  -0.84  0.0028091811899
-0.5  -0.82  0.00329047808452
-0.5  -0.8  0.00385423555576
-0.5  -0.78  0.00451458157074
-0.5  -0.76  0.00528806464057
-0.5  -0.74  0.00619406853209
-0.5  -0.72  0.00725529803208
-0.5  -0.7  0.00849834793748
-0.5  -0.68  0.00995436953066
-0.5  -0.66  0.0116598512419
-0.5  -0.64  0.0136575330627
-0.5  -0.62  0.0159974776255
-0.5  -0.6  0.0187383247914
-0.5  -0.58  0.0219487611865
-0.5  -0.56  0.0257092415135
-0.5  -0.54  0.0301140047762
-0.5  -0.52  0.0352734359426
-0.5  -0.5  0.0413168322328
-0.5  -0.48  0.0483956433541
-0.5  -0.46  0.0566872668859
-0.5  -0.44  0.0663994939272
-0.5  -0.42  0.0777757164173
-0.5  -0.4  0.0911010266261
-0.5  -0.38  0.10670936167
-0.5  -0.36  0.124991872098
-0.5  -0.34  0.146406724265
-0.5  -0.32  0.17149058215
-0.5  -0.3  0.200872056347
-0.5  -0.28  0.235287457276
-0.5  -0.26  0.275599247394
-0.5  -0.24  0.32281765481
-0.5  -0.22  0.378125989973
-0.5  -0.2  0.329588876847
-0.5  -0.18  0.329809004769
-0.5  -0.16  0.327626470054
-0.5  -0.14  0.323237795381
-0.5  -0.12  0.317049140831
-0.5  -0.1  0.309659799731
-0.5  -0.08  0.301829805302
-0.5  -0.06  0.294423289475
-0.5  -0.04  0.288320049571
-0.5  -0.02  0.284295916106
-0.5  6.17561557e-16  0.282889936047
-0.5  0.02  0.284295916106
-0.5  0.04  0.288320049571
-0.5  0.06  0.294423289475
-0.5  0.08  0.301829805302
-0.5  0.1  0.309659799731
-0.5  0.12  0.317049140831
-0.5  0.14  0.323237795381
-0.5  0.16  0.327626470054
-0.5  0.18  0.329809004769
-0.5  0.2  0.442910299865
-0.5  0.22  0.378125989973
-0.5  0.24  0.32281765481
-0.5  0.26  0.275599247394
-0.5  0.28  0.235287457276
-0.5  0.3  0.200872056347
-0.5  0.32  0.17149058215
-0.5  0.34  0.146406724265
-0.5  0.36  0.124991872098
-0.5  0.38  0.10670936167
-0.5  0.4  0.0911010266261
-0.5  0.42  0.0777757164173
-0.5  0.44  0.0663994939272
-0.5  0.46  0.0566872668859
-0.5  0.48  0.0483956433541
-0.5  0.5  0.0413168322328
-0.5  0.52  0.0352734359426
-0.5  0.54  0.0301140047762
-0.5  0.56  0.0257092415135
-0.5  0.58  0.0219487611865
-0.5  0.6  0.0187383247914
-0.5  0.62  0.0159974776255
-0.5  0.64  0.0136575330627
-0.5  0.66  0.0116598512419
-0.5  0.68  0.00995436953066
-0.5  0.7  0.00849834793748
-0.5  0.72  0.00725529803208
-0.5  0.74  0.00619406853209
-0.5  0.76  0.00528806464057
-0.5  0.78  0.00451458157074
-0.5  0.8  0.00385423555576
-0.5  0.82  0.00329047808452
-0.5  0.84  0.0028091811899
-0.5  0.86  0.00239828339682
-0.5  0.88  0.00204748745725
-0.5  0.9  0.00174800229745
-0.5  0.92  0.0014923227105
-0.5  0.94  0.001274041273
-0.5  0.96  0.00108768777283
-0.5  0.98  0.000928592123522
-0.48  -1  0.000960867863364
-0.48  -0.98  0.00112549331381
-0.48  -0.96  0.00131832403573
-0.48  -0.94  0.00154419243709
-0.48  -0.92  0.00180875886211
-0.48  -0.9  0.00211865344156
-0.48  -0.88  0.00248164224622
-0.48  -0.86  0.00290682190745
-0.48  -0.84  0.00340484758208
-0.48  -0.82  0.00398819997451
-0.48  -0.8  0.0046714981077
-0.48  -0.78  0.00547186568118
-0.48  -0.76  0.00640936019722
-0.48  -0.74  0.00750747560911
-0.48  -0.72  0.00879373108812
-0.48  -0.7  0.010300360664
-0.48  -0.68  0.0120651210216
-0.48  -0.66  0.0141322376966
-0.48  -0.64  0.0165535133842
-0.48  -0.62  0.0193896261332
-0.48  -0.6  0.0227116499597
-0.48  -0.58  0.026602835988
-0.48  -0.56  0.0311606987542
-0.48  -0.54  0.0364994599556
-0.48  -0.52  0.0427529108882
-0.48  -0.5  0.050077765305
-0.48  -0.48  0.0586575867196
-0.48  -0.46  0.0687073885747
-0.48  -0.44  0.0804790225573
-0.48  -0.42  0.0942674900929
-0.48  -0.4  0.110418335189
-0.48  -0.38  0.129336303893
-0.48  -0.36  0.151495487377
-0.48  -0.34  0.17745120283
-0.48  -0.32  0.207853909916
-0.48  -0.3  0.243465511523
-0.48  -0.28  0.285178447329
-0.48  -0.26  0.334038058665
-0.48  -0.24  0.391268785147
-0.48  -0.22  0.458304849581
-0.48  -0.2  0.399475795455
-0.48  -0.18  0.399742599898
-0.48  -0.16  0.397097274608
-0.48  -0.14  0.391778013465
-0.48  -0.12  0.384277099833
-0.48  -0.1  0.375320902821
-0.48  -0.08  0.365830615155
-0.48  -0.06  0.356853601641
-0.48  -0.04  0.349456214208
-0.48  -0.02  0.344578792578
-0.48  6.17561557e-16  0.342874684697
-0.48  0.02  0.344578792578
-0.48  0.04  0.349456214208
-0.48  0.06  0.356853601641
-0.48  0.08  0.365830615155
-0.48  0.1  0.375320902821
-0.48  0.12  0.384277099833
-0.48  0.14  0.391778013465
-0.48  0.16  0.397097274608
-0.48  0.18  0.399742599898
-0.48  0.2  0.536826200103
-0.48  0.22  0.458304849581
-0.48  0.24  0.391268785148
-0.48  0.26  0.334038058665
-0.48  0.28  0.285178447329
-0.48  0.3  0.243465511523
-0.48  0.32  0.207853909916
-0.48  0.34  0.17745120283
-0.48  0.36  0.151495487377
-0.48  0.38  0.129336303893
-0.48  0.4  0.110418335189
-0.48  0.42  0.0942674900929
-0.48  0.44  0.0804790225573
-0.48  0.46  0.0687073885748
-0.48  0.48  0.0586575867196
-0.48  0.5  0.050077765305
-0.48  0.52  0.0427529108882
-0.48  0.54  0.0364994599556
-0.48  0.56  0.0311606987542
-0.48  0.58  0.026602835988
-0.48  0.6  0.0227116499597
-0.48  0.62  0.0193896261332
-0.48  0.64  0.0165535133843
-0.48  0.66  0.0141322376966
-0.48  0.68  0.0120651210216
-0.48  0.7  0.010300360664
-0.48  0.72  0.00879373108813
-0.48  0.74  0.00750747560911
-0.48  0.76  0.00640936019723
-0.48  0.78  0.00547186568118
-0.48  0.8  0.0046714981077
-0.48  0.82  0.00398819997451
-0.48  0.84  0.00340484758208
-0.48  0.86  0.00290682190745
-0.48  0.88  0.00248164224622
-0.48  0.9  0.00211865344156
-0.48  0.92  0.00180875886211
-0.48  0.94  0.00154419243709
-0.48  0.96  0.00131832403573
-0.48  0.98  0.00112549331381
-0.46  -1  0.00116461288899
-0.46  -0.98  0.00136414596607
-0.46  -0.96  0.00159786503683
-0.46  -0.94  0.0018716271861
-0.46  -0.92  0.00219229299284
-0.46  -0.9  0.00256789845871
-0.46  -0.88  0.00300785639318
-0.46  -0.86  0.00352319230198
-0.46  -0.84  0.00412682069027
-0.46  -0.82  0.00483386870484
-0.46  -0.8  0.00566205522587
-0.46  -0.78  0.00663213490857
-0.46  -0.76  0.00776841830234
-0.46  -0.74  0.00909938108197
-0.46  -0.72  0.0106583776584
-0.46  -0.7  0.0124844770525
-0.46  -0.68  0.0146234419786
-0.46  -0.66  0.0171288756751
-0.46  -0.64  0.020063565221
-0.46  -0.62  0.023501055003
-0.46  -0.6  0.027527489764
-0.46  -0.58  0.0322437734226
-0.46  -0.56  0.0377680977612
-0.46  -0.54  0.0442389043555
-0.46  -0.52  0.0518183539702
-0.46  -0.5  0.0606963903673
-0.46  -0.48  0.0710955003653
-0.46  -0.46  0.0832762894401
-0.46  -0.44  0.0975440125926
-0.46  -0.42  0.11425622415
-0.46  -0.4  0.133831738208
-0.46  -0.38  0.156761124263
-0.46  -0.36  0.183619001061
-0.46  -0.34  0.215078436758
-0.46  -0.32  0.251927816243
-0.46  -0.3  0.29509059836
-0.46  -0.28  0.345648458113
-0.46  -0.26  0.404868393843
-0.46  -0.24  0.47423447866
-0.46  -0.22  0.555485051859
-0.46  -0.2  0.484181725674
-0.46  -0.18  0.484505104053
-0.46  -0.16  0.48129885682
-0.46  -0.14  0.474851685129
-0.46  -0.12  0.465760257444
-0.46  -0.1  0.454904964147
-0.46  -0.08  0.443402330166
-0.46  -0.06  0.43252180638
-0.46  -0.04  0.42355585687
-0.46  -0.02  0.41764421354
-0.46  6.17561557e-16  0.415578762005
-0.46  0.02  0.41764421354
-0.46  0.04  0.42355585687
-0.46  0.06  0.43252180638
-0.46  0.08  0.443402330166
-0.46  0.1  0.454904964147
-0.46  0.12  0.465760257444
-0.46  0.14  0.474851685129
-0.46  0.16  0.48129885682
-0.46  0.18  0.484505104053
-0.46  0.2  0.650656282332
-0.46  0.22  0.555485051859
-0.46  0.24  0.47423447866
-0.46  0.26  0.404868393843
-0.46  0.28  0.345648458113
-0.46  0.3  0.29509059836
-0.46  0.32  0.251927816244
-0.46  0.34  0.215078436758
-0.46  0.36  0.183619001062
-0.46  0.38  0.156761124263
-0.46  0.4  0.133831738208
-0.46  0.42  0.11425622415
-0.46  0.44  0.0975440125926
-0.46  0.46  0.0832762894401
-0.46  0.48  0.0710955003653
-0.46  0.5  0.0606963903673
-0.46  0.52  0.0518183539702
-0.46  0.54  0.0442389043555
-0.46  0.56  0.0377680977613
-0.46  0.58  0.0322437734226
-0.46  0.6  0.027527489764
-0.46  0.62  0.023501055003
-0.46  0.64  0.0200635652211
-0.46  0.66  0.0171288756751
-0.46  0.68  0.0146234419786
-0.46  0.7  0.0124844770525
-0.46  0.72  0.0106583776584
-0.46  0.74  0.00909938108197
-0.46  0.76  0.00776841830234
-0.46  0.78  0.00663213490857
-0.46  0.8  0.00566205522587
-0.46  0.82  0.00483386870484
-0.46  0.84  0.00412682069027
-0.46  0.86  0.00352319230198
-0.46  0.88  0.00300785639318
-0.46  0.9  0.00256789845871
-0.46  0.92  0.00219229299284
-0.46  0.94  0.0018716271861
-0.46  0.96  0.00159786503683
-0.46  0.98  0.00136414596608
-0.44  -1  0.00141156056199
-0.44  -0.98  0.00165340317346
-0.44  -0.96  0.00193668066933
-0.44  -0.94  0.00226849208661
-0.44  -0.92  0.00265715273999
-0.44  -0.9  0.00311240260671
-0.44  -0.88  0.00364565041386
-0.44  -0.86  0.00427025954529
-0.44  -0.84  0.00500188293282
-0.44  -0.82  0.00585885532444
-0.44  -0.8  0.00686265275972
-0.44  -0.78  0.00803843076718
-0.44  -0.76  0.00941565477101
-0.44  -0.74  0.0110288385052
-0.44  -0.72  0.0129184089405
-0.44  -0.7  0.0151317193987
-0.44  -0.68  0.0177242362441
-0.44  -0.66  0.0207609288912
-0.44  -0.64  0.0243178979613
-0.44  -0.62  0.0284842823919
-0.44  -0.6  0.033364493291
-0.44  -0.58  0.0390808305174
-0.44  -0.56  0.0457765475593
-0.44  -0.54  0.0536194415192
-0.44  -0.52  0.06280605817
-0.44  -0.5  0.0735666174636
-0.44  -0.48  0.0861707829264
-0.44  -0.46  0.100934419526
-0.44  -0.44  0.11822750936
-0.44  -0.42  0.138483423545
-0.44  -0.4  0.162209782652
-0.44  -0.38  0.190001177862
-0.44  -0.36  0.222554071641
-0.44  -0.34  0.260684251335
-0.44  -0.32  0.305347273106
-0.44  -0.3  0.35766240851
-0.44  -0.28  0.418940693854
-0.44  -0.26  0.490717785237
-0.44  -0.24  0.574792442655
-0.44  -0.22  0.673271607578
-0.44  -0.2  0.586848930883
-0.44  -0.18  0.58724087929
-0.44  -0.16  0.583354770704
-0.44  -0.14  0.575540523258
-0.44  -0.12  0.564521324608
-0.44  -0.1  0.551364245504
-0.44  -0.08  0.537422561842
-0.44  -0.06  0.524234902307
-0.44  -0.04  0.513367788565
-0.44  -0.02  0.506202624364
-0.44  6.17561557e-16  0.503699208889
-0.44  0.02  0.506202624364
-0.44  0.04  0.513367788565
-0.44  0.06  0.524234902307
-0.44  0.08  0.537422561842
-0.44  0.1  0.551364245504
-0.44  0.12  0.564521324608
-0.44  0.14  0.575540523258
-0.44  0.16  0.583354770704
-0.44  0.18  0.58724087929
-0.44  0.2  0.788623203668
-0.44  0.22  0.673271607578
-0.44  0.24  0.574792442655
-0.44  0.26  0.490717785237
-0.44  0.28  0.418940693854
-0.44  0.3  0.35766240851
-0.44  0.32  0.305347273106
-0.44  0.34  0.260684251335
-0.44  0.36  0.222554071641
-0.44  0.38  0.190001177862
-0.44  0.4  0.162209782652
-0.44  0.42  0.138483423545
-0.44  0.44  0.11822750936
-0.44  0.46  0.100934419526
-0.44  0.48  0.0861707829264
-0.44  0.5  0.0735666174636
-0.44  0.52  0.06280605817
-0.44  0.54  0.0536194415192
-0.44  0.56  0.0457765475593
-0.44  0.58  0.0390808305174
-0.44  0.6  0.0333644932911
-0.44  0.62  0.0284842823919
-0.44  0.64  0.0243178979613
-0.44  0.66  0.0207609288912
-0.44  0.68  0.0177242362441
-0.44  0.7  0.0151317193987
-0.44  0.72  0.0129184089405
-0.44  0.74  0.0110288385052
-0.44  0.76  0.00941565477101
-0.44  0.78  0.00803843076718
-0.44  0.8  0.00686265275972
-0.44  0.82  0.00585885532444
-0.44  0.84  0.00500188293282
-0.44  0.86  0.00427025954529
-0.44  0.88  0.00364565041386
-0.44  0.9  0.00311240260671
-0.44  0.92  0.00265715273999
-0.44  0.94  0.00226849208661
-0.44  0.96  0.00193668066933
-0.44  0.98  0.00165340317346
-0.42  -1  0.00171087168878
-0.42  -0.98  0.00200399526296
-0.42  -0.96  0.00234733968672
-0.42  -0.94  0.0027495092961
-0.42  -0.92  0.00322058260767
-0.42  -0.9  0.00377236488982
-0.42  -0.88  0.00441868400706
-0.42  -0.86  0.00517573695136
-0.42  -0.84  0.00606249574463
-0.42  -0.82  0.0071011828845
-0.42  -0.8  0.00831782824817
-0.42  -0.78  0.00974292141061
-0.42  -0.76  0.0114121757244
-0.42  -0.74  0.0133674233092
-0.42  -0.72  0.0156576633802
-0.42  -0.7  0.0183402901858
-0.42  -0.68  0.0214825313287
-0.42  -0.66  0.0251631325139
-0.42  -0.64  0.0294743309447
-0.42  -0.62  0.0345241668206
-0.42  -0.6  0.0404391908638
-0.42  -0.58  0.0473676357265
-0.42  -0.56  0.0554831307549
-0.42  -0.54  0.0649890532037
-0.42  -0.52  0.0761236249442
-0.42  -0.5  0.0891658823906
-0.42  -0.48  0.104442669255
-0.42  -0.46  0.122336827367
-0.42  -0.44  0.143296790832
-0.42  -0.42  0.167847823953
-0.42  -0.4  0.196605184542
-0.42  -0.38  0.230289542506
-0.42  -0.36  0.269745040096
-0.42  -0.34  0.315960446423
-0.42  -0.32  0.370093936364
-0.42  -0.3  0.433502114849
-0.42  -0.28  0.507774013877
-0.42  -0.26  0.594770914228
-0.42  -0.24  0.696672989841
-0.42  -0.22  0.816033943766
-0.42  -0.2  0.711285968504
-0.42  -0.18  0.711761026714
-0.42  -0.16  0.707050897133
-0.42  -0.14  0.697579695482
-0.42  -0.12  0.68422395609
-0.42  -0.1  0.668277014277
-0.42  -0.08  0.651379098231
-0.42  -0.06  0.635395091631
-0.42  -0.04  0.622223685642
-0.42  -0.02  0.613539200606
-0.42  6.17561557e-16  0.61050495413
-0.42  0.02  0.613539200606
-0.42  0.04  0.622223685642
-0.42  0.06  0.635395091631
-0.42  0.08  0.651379098231
-0.42  0.1  0.668277014277
-0.42  0.12  0.68422395609
-0.42  0.14  0.697579695482
-0.42  0.16  0.707050897133
-0.42  0.18  0.711761026714
-0.42  0.2  0.955845004885
-0.42  0.22  0.816033943766
-0.42  0.24  0.696672989841
-0.42  0.26  0.594770914228
-0.42  0.28  0.507774013877
-0.42  0.3  0.433502114849
-0.42  0.32  0.370093936364
-0.42  0.34  0.315960446423
-0.42  0.36  0.269745040096
-0.42  0.38  0.230289542506
-0.42  0.4  0.196605184542
-0.42  0.42  0.167847823953
-0.42  0.44  0.143296790832
-0.42  0.46  0.122336827367
-0.42  0.48  0.104442669255
-0.42  0.5  0.0891658823907
-0.42  0.52  0.0761236249442
-0.42  0.54  0.0649890532037
-0.42  0.56  0.0554831307549
-0.42  0.58  0.0473676357265
-0.42  0.6  0.0404391908638
-0.42  0.62  0.0345241668206
-0.42  0.64  0.0294743309447
-0.42  0.66  0.0251631325139
-0.42  0.68  0.0214825313287
-0.42  0.7  0.0183402901858
-0.42  0.72  0.0156576633802
-0.42  0.74  0.0133674233092
-0.42  0.76  0.0114121757244
-0.42  0.78  0.00974292141061
-0.42  0.8  0.00831782824817
-0.42  0.82  0.0071011828845
-0.42  0.84  0.00606249574463
-0.42  0.86  0.00517573695136
-0.42  0.88  0.00441868400706
-0.42  0.9  0.00377236488982
-0.42  0.92  0.00322058260767
-0.42  0.94  0.0027495092961
-0.42  0.96  0.00234733968672
-0.42  0.98  0.00200399526296
-0.4  -1  0.00207364955801
-0.4  -0.98  0.00242892784919
-0.4  -0.96  0.00284507595501
-0.4  -0.94  0.00333252269821
-0.4  -0.92  0.00390348367134
-0.4  -0.9  0.00457226736389
-0.4  -0.88  0.00535563373822
-0.4  -0.86  0.00627321424039
-0.4  -0.84  0.00734800377124
-0.4  -0.82  0.00860693694701
-0.4  -0.8  0.0100815630906
-0.4  -0.78  0.0118088368691
-0.4  -0.76  0.0138320443911
-0.4  -0.74  0.0162018879725
-0.4  -0.72  0.0189777567545
-0.4  -0.7  0.0222292150177
-0.4  -0.68  0.0260377454878
-0.4  -0.66  0.0304987913224
-0.4  -0.64  0.0357241479515
-0.4  -0.62  0.0418447647112
-0.4  -0.6  0.0490140264818
-0.4  -0.58  0.0574115975687
-0.4  -0.56  0.0672479241553
-0.4  -0.54  0.0787695081606
-0.4  -0.52  0.0922650846667
-0.4  -0.5  0.108072857726
-0.4  -0.48  0.126588975875
-0.4  -0.46  0.148277459765
-0.4  -0.44  0.173681830684
-0.4  -0.42  0.2034387314
-0.4  -0.4  0.238293880658
-0.4  -0.38  0.279120761166
-0.4  -0.36  0.326942509388
-0.4  -0.34  0.382957555712
-0.4  -0.32  0.448569657558
-0.4  -0.3  0.525423078041
-0.4  -0.28  0.61544379181
-0.4  -0.26  0.720887750666
-0.4  -0.24  0.84439741854
-0.4  -0.22  0.989067992594
-0.4  -0.2  0.862108972799
-0.4  -0.18  0.862684763639
-0.4  -0.16  0.856975885417
-0.4  -0.14  0.845496384501
-0.4  -0.12  0.829308657936
-0.4  -0.1  0.809980283366
-0.4  -0.08  0.789499287409
-0.4  -0.06  0.770125988734
-0.4  -0.04  0.754161682126
-0.4  -0.02  0.743635715348
-0.4  6.17561557e-16  0.739958079027
-0.4  0.02  0.743635715348
-0.4  0.04  0.754161682126
-0.4  0.06  0.770125988734
-0.4  0.08  0.789499287409
-0.4  0.1  0.809980283366
-0.4  0.12  0.829308657936
-0.4  0.14  0.845496384501
-0.4  0.16  0.856975885417
-0.4  0.18  0.862684763639
-0.4  0.2  1.15852496999
-0.4  0.22  0.989067992594
-0.4  0.24  0.84439741854
-0.4  0.26  0.720887750666
-0.4  0.28  0.61544379181
-0.4  0.3  0.525423078041
-0.4  0.32  0.448569657558
-0.4  0.34  0.382957555712
-0.4  0.36  0.326942509388
-0.4  0.38  0.279120761166
-0.4  0.4  0.238293880658
-0.4  0.42  0.2034387314
-0.4  0.44  0.173681830684
-0.4  0.46  0.148277459765
-0.4  0.48  0.126588975875
-0.4  0.5  0.108072857726
-0.4  0.52  0.0922650846668
-0.4  0.54  0.0787695081606
-0.4  0.56  0.0672479241553
-0.4  0.58  0.0574115975688
-0.4  0.6  0.0490140264818
-0.4  0.62  0.0418447647112
-0.4  0.64  0.0357241479515
-0.4  0.66  0.0304987913224
-0.4  0.68  0.0260377454878
-0.4  0.7  0.0222292150177
-0.4  0.72  0.0189777567545
-0.4  0.74  0.0162018879725
-0.4  0.76  0.0138320443911
-0.4  0.78  0.0118088368691
-0.4  0.8  0.0100815630906
-0.4  0.82  0.00860693694701
-0.4  0.84  0.00734800377124
-0.4  0.86  0.00627321424039
-0.4  0.88  0.00535563373822
-0.4  0.9  0.00457226736389
-0.4  0.92  0.00390348367134
-0.4  0.94  0.00333252269821
-0.4  0.96  0.00284507595501
-0.4  0.98  0.0024289278492
-0.38  -1  0.00251335182972
-0.38  -0.98  0.00294396429255
-0.38  -0.96  0.00344835357045
-0.38  -0.94  0.00403915984203
-0.38  -0.92  0.00473118892717
-0.38  -0.9  0.00554178332623
-0.38  -0.88  0.00649125682945
-0.38  -0.86  0.00760340358787
-0.38  -0.84  0.00890609440344
-0.38  -0.82  0.0104319751814
-0.38  -0.8  0.0122192850486
-0.38  -0.78  0.0143128146399
-0.38  -0.76  0.0167650285677
-0.38  -0.74  0.0196373802041
-0.38  -0.72  0.023001851725
-0.38  -0.7  0.0269427580095
-0.38  -0.68  0.0315588596014
-0.38  -0.66  0.0369658376839
-0.38  -0.64  0.043299193093
-0.38  -0.62  0.0507176420168
-0.38  -0.6  0.0594070934814
-0.38  -0.58  0.0695853082984
-0.38  -0.56  0.0815073562302
-0.38  -0.54  0.0954720081305
-0.38  -0.52  0.111829223251
-0.38  -0.5  0.130988919347
-0.38  -0.48  0.153431245367
-0.38  -0.46  0.179718614155
-0.38  -0.44  0.210509796727
-0.38  -0.42  0.24657643131
-0.38  -0.4  0.288822360871
-0.38  -0.38  0.338306283761
-0.38  -0.36  0.396268285068
-0.38  -0.34  0.464160913612
-0.38  -0.32  0.543685583337
-0.38  -0.3  0.636835211367
-0.38  -0.28  0.745944161232
-0.38  -0.26  0.87374674287
-0.38  -0.24  1.02344573542
-0.38  -0.22  1.19879265005
-0.38  -0.2  1.04491289564
-0.38  -0.18  1.04561077873
-0.38  -0.16  1.0386913745
-0.38  -0.14  1.0247777291
-0.38  -0.12  1.00515751313
-0.38  -0.1  0.981730697638
-0.38  -0.08  0.956906855797
-0.38  -0.06  0.93342559037
-0.38  -0.04  0.914076168926
-0.38  -0.02  0.901318247629
-0.38  6.17561557e-16  0.896860795336
-0.38  0.02  0.901318247629
-0.38  0.04  0.914076168926
-0.38  0.06  0.93342559037
-0.38  0.08  0.956906855797
-0.38  0.1  0.981730697638
-0.38  0.12  1.00515751313
-0.38  0.14  1.0247777291
-0.38  0.16  1.0386913745
-0.38  0.18  1.04561077873
-0.38  0.2  1.40418174414
-0.38  0.22  1.19879265005
-0.38  0.24  1.02344573542
-0.38  0.26  0.87374674287
-0.38  0.28  0.745944161232
-0.38  0.3  0.636835211367
-0.38  0.32  0.543685583337
-0.38  0.34  0.464160913612
-0.38  0.36  0.396268285068
-0.38  0.38  0.338306283761
-0.38  0.4  0.288822360871
-0.38  0.42  0.24657643131
-0.38  0.44  0.210509796727
-0.38  0.46  0.179718614155
-0.38  0.48  0.153431245367
-0.38  0.5  0.130988919347
-0.38  0.52  0.111829223251
-0.38  0.54  0.0954720081305
-0.38  0.56  0.0815073562302
-0.38  0.58  0.0695853082984
-0.38  0.6  0.0594070934814
-0.38  0.62  0.0507176420168
-0.38  0.64  0.043299193093
-0.38  0.66  0.0369658376839
-0.38  0.68  0.0315588596014
-0.38  0.7  0.0269427580095
-0.38  0.72  0.023001851725
-0.38  0.74  0.0196373802041
-0.38  0.76  0.0167650285677
-0.38  0.78  0.0143128146399
-0.38  0.8  0.0122192850486
-0.38  0.82  0.0104319751814
-0.38  0.84  0.00890609440344
-0.38  0.86  0.00760340358787
-0.38  0.88  0.00649125682945
-0.38  0.9  0.00554178332623
-0.38  0.92  0.00473118892717
-0.38  0.94  0.00403915984203
-0.38  0.96  0.00344835357046
-0.38  0.98  0.00294396429255
-0.36  -1  0.0030462897627
-0.36  -0.98  0.00356821045907
-0.36  -0.96  0.00417955180632
-0.36  -0.94  0.00489563424077
-0.36  -0.92  0.00573440304846
-0.36  -0.9  0.00671687808055
-0.36  -0.88  0.0078676805184
-0.36  -0.86  0.00921564988931
-0.36  -0.84  0.0107945667956
-0.36  -0.82  0.0126439994688
-0.36  -0.8  0.0148102953637
-0.36  -0.78  0.0173477426429
-0.36  -0.76  0.0203199306571
-0.36  -0.74  0.0238013435184
-0.36  -0.72  0.0278792266981
-0.36  -0.7  0.0326557734308
-0.36  -0.68  0.0382506857134
-0.36  -0.66  0.0448041740811
-0.36  -0.64  0.0524804713341
-0.36  -0.62  0.0614719482711
-0.36  -0.6  0.0720039345721
-0.36  -0.58  0.0843403656411
-0.36  -0.56  0.0987903969242
-0.36  -0.54  0.115716151457
-0.36  -0.52  0.135541794798
-0.36  -0.5  0.158764164776
-0.36  -0.48  0.185965222422
-0.36  -0.46  0.217826636125
-0.36  -0.44  0.255146864492
-0.36  -0.42  0.298861166008
-0.36  -0.4  0.350065036958
-0.36  -0.38  0.410041664954
-0.36  -0.36  0.480294086092
-0.36  -0.34  0.562582851576
-0.36  -0.32  0.658970147776
-0.36  -0.3  0.771871475361
-0.36  -0.28  0.904116182634
-0.36  -0.26  1.05901837002
-0.36  -0.24  1.24045994262
-0.36  -0.22  1.4529878922
-0.36  -0.2  1.26647905767
-0.36  -0.18  1.26732492178
-0.36  -0.16  1.25893830833
-0.36  -0.14  1.24207437586
-0.36  -0.12  1.21829383612
-0.36  -0.1  1.18989953518
-0.36  -0.08  1.15981197865
-0.36  -0.06  1.13135168207
-0.36  -0.04  1.10789935686
-0.36  -0.02  1.09243621136
-0.36  6.17561557e-16  1.08703358881
-0.36  0.02  1.09243621136
-0.36  0.04  1.10789935686
-0.36  0.06  1.13135168207
-0.36  0.08  1.15981197865
-0.36  0.1  1.18989953518
-0.36  0.12  1.21829383612
-0.36  0.14  1.24207437586
-0.36  0.16  1.25893830833
-0.36  0.18  1.26732492178
-0.36  0.2  1.7019282464
-0.36  0.22  1.4529878922
-0.36  0.24  1.24045994262
-0.36  0.26  1.05901837002
-0.36  0.28  0.904116182634
-0.36  0.3  0.771871475361
-0.36  0.32  0.658970147776
-0.36  0.34  0.562582851577
-0.36  0.36  0.480294086092
-0.36  0.38  0.410041664954
-0.36  0.4  0.350065036958
-0.36  0.42  0.298861166009
-0.36  0.44  0.255146864492
-0.36  0.46  0.217826636125
-0.36  0.48  0.185965222422
-0.36  0.5  0.158764164776
-0.36  0.52  0.135541794798
-0.36  0.54  0.115716151457
-0.36  0.56  0.0987903969242
-0.36  0.58  0.0843403656411
-0.36  0.6  0.0720039345721
-0.36  0.62  0.0614719482711
-0.36  0.64  0.0524804713341
-0.36  0.66  0.0448041740811
-0.36  0.68  0.0382506857134
-0.36  0.7  0.0326557734308
-0.36  0.72  0.0278792266981
-0.36  0.74  0.0238013435184
-0.36  0.76  0.0203199306571
-0.36  0.78  0.0173477426429
-0.36  0.8  0.0148102953637
-0.36  0.82  0.0126439994688
-0.36  0.84  0.0107945667956
-0.36  0.86  0.00921564988931
-0.36  0.88  0.0078676805184
-0.36  0.9  0.00671687808055
-0.36  0.92  0.00573440304846
-0.36  0.94  0.00489563424077
-0.36  0.96  0.00417955180632
-0.36  0.98  0.00356821045907
-0.34  -1  0.0036922332992
-0.34  -0.98  0.0043248234744
-0.34  -0.96  0.00506579529761
-0.34  -0.94  0.00593371779199
-0.34  -0.92  0.00695034141067
-0.34  -0.9  0.008141143111
-0.34  -0.88  0.00953596481635
-0.34  -0.86  0.0111697612656
-0.34  -0.84  0.0130834759914
-0.34  -0.82  0.0153250673804
-0.34  -0.8  0.0179507105275
-0.34  -0.78  0.021026205004
-0.34  -0.76  0.0246286238192
-0.34  -0.74  0.0288482448979
-0.34  -0.72  0.0337908134778
-0.34  -0.7  0.0395801921238
-0.34  -0.68  0.0463614647686
-0.34  -0.66  0.0543045725693
-0.34  -0.64  0.063608572694
-0.34  -0.62  0.074506626767
-0.34  -0.6  0.0872718439841
-0.34  -0.58  0.102224125328
-0.34  -0.56  0.119738180403
-0.34  -0.54  0.140252917794
-0.34  -0.52  0.164282444276
-0.34  -0.5  0.192428948515
-0.34  -0.48  0.225397792136
-0.34  -0.46  0.264015186343
-0.34  -0.44  0.309248897068
-0.34  -0.42  0.362232497541
-0.34  -0.4  0.424293776045
-0.34  -0.38  0.496988010774
-0.34  -0.36  0.582136945669
-0.34  -0.34  0.681874443983
-0.34  -0.32  0.79869996367
-0.34  -0.3  0.935541194712
-0.34  -0.28  1.09582742809
-0.34  -0.26  1.28357549506
-0.34  -0.24  1.50349043041
-0.34  -0.22  1.76108338235
-0.34  -0.2  1.53502670913
-0.34  -0.18  1.53605193256
-0.34  -0.16  1.52588699886
-0.34  -0.14  1.50544719244
-0.34  -0.12  1.47662416261
-0.34  -0.1  1.44220905716
-0.34  -0.08  1.4057416536
-0.34  -0.06  1.37124655861
-0.34  -0.04  1.34282133882
-0.34  -0.02  1.32407934604
-0.34  6.17561557e-16  1.31753113676
-0.34  0.02  1.32407934604
-0.34  0.04  1.34282133882
-0.34  0.06  1.37124655861
-0.34  0.08  1.4057416536
-0.34  0.1  1.44220905716
-0.34  0.12  1.47662416261
-0.34  0.14  1.50544719244
-0.34  0.16  1.52588699886
-0.34  0.18  1.53605193256
-0.34  0.2  2.06280972387
-0.34  0.22  1.76108338235
-0.34  0.24  1.50349043041
-0.34  0.26  1.28357549506
-0.34  0.28  1.09582742809
-0.34  0.3  0.935541194712
-0.34  0.32  0.798699963671
-0.34  0.34  0.681874443983
-0.34  0.36  0.582136945669
-0.34  0.38  0.496988010774
-0.34  0.4  0.424293776045
-0.34  0.42  0.362232497541
-0.34  0.44  0.309248897068
-0.34  0.46  0.264015186343
-0.34  0.48  0.225397792136
-0.34  0.5  0.192428948515
-0.34  0.52  0.164282444276
-0.34  0.54  0.140252917794
-0.34  0.56  0.119738180403
-0.34  0.58  0.102224125328
-0.34  0.6  0.0872718439841
-0.34  0.62  0.074506626767
-0.34  0.64  0.063608572694
-0.34  0.66  0.0543045725693
-0.34  0.68  0.0463614647686
-0.34  0.7  0.0395801921238
-0.34  0.72  0.0337908134778
-0.34  0.74  0.0288482448979
-0.34  0.76  0.0246286238192
-0.34  0.78  0.021026205004
-0.34  0.8  0.0179507105275
-0.34  0.82  0.0153250673804
-0.34  0.84  0.0130834759914
-0.34  0.86  0.0111697612656
-0.34  0.88  0.00953596481635
-0.34  0.9  0.008141143111
-0.34  0.92  0.00695034141067
-0.34  0.94  0.00593371779199
-0.34  0.96  0.00506579529761
-0.34  0.98  0.0043248234744
-0.32  -1  0.00447514445364
-0.32  -0.98  0.00524187076387
-0.32  -0.96  0.00613996026045
-0.32  -0.94  0.00719191939254
-0.32  -0.92  0.0084241106383
-0.32  -0.9  0.00986741315816
-0.32  -0.88  0.0115579966378
-0.32  -0.86  0.0135382277136
-0.32  -0.84  0.0158577316959
-0.32  -0.82  0.0185746361976
-0.32  -0.8  0.0217570278328
-0.32  -0.78  0.0254846584925
-0.32  -0.76  0.0298509439556
-0.32  -0.74  0.0349653049227
-0.32  -0.72  0.0409559091383
-0.32  -0.7  0.0479728833211
-0.32  -0.68  0.0561920753943
-0.32  -0.66  0.0658194612983
-0.32  -0.64  0.0770963068225
-0.32  -0.62  0.0903052138142
-0.32  -0.6  0.105777202283
-0.32  -0.58  0.123900005882
-0.32  -0.56  0.145127788657
-0.32  -0.54  0.169992526558
-0.32  -0.52  0.199117338953
-0.32  -0.5  0.233232104226
-0.32  -0.48  0.273191750792
-0.32  -0.46  0.319997681917
-0.32  -0.44  0.374822871244
-0.32  -0.42  0.439041257943
-0.32  -0.4  0.514262178122
-0.32  -0.38  0.602370695379
-0.32  -0.36  0.705574841177
-0.32  -0.34  0.826460948915
-0.32  -0.32  0.968058468385
-0.32  -0.3  1.13391588489
-0.32  -0.28  1.32818964555
-0.32  -0.26  1.55574832143
-0.32  -0.24  1.82229461563
-0.32  -0.22  2.13450827515
-0.32  -0.2  1.86051793234
-0.32  -0.18  1.86176054692
-0.32  -0.16  1.84944021314
-0.32  -0.14  1.82466629478
-0.32  -0.12  1.7897315516
-0.32  -0.1  1.74801897392
-0.32  -0.08  1.70381892329
-0.32  -0.06  1.66200939488
-0.32  -0.04  1.62755681445
-0.32  -0.02  1.60484071873
-0.32  6.17561557e-16  1.59690400941
-0.32  0.02  1.60484071873
-0.32  0.04  1.62755681445
-0.32  0.06  1.66200939488
-0.32  0.08  1.70381892329
-0.32  0.1  1.74801897392
-0.32  0.12  1.7897315516
-0.32  0.14  1.82466629478
-0.32  0.16  1.84944021314
-0.32  0.18  1.86176054692
-0.32  0.2  2.50021348778
-0.32  0.22  2.13450827515
-0.32  0.24  1.82229461563
-0.32  0.26  1.55574832143
-0.32  0.28  1.32818964555
-0.32  0.3  1.13391588489
-0.32  0.32  0.968058468386
-0.32  0.34  0.826460948915
-0.32  0.36  0.705574841177
-0.32  0.38  0.60237069538
-0.32  0.4  0.514262178122
-0.32  0.42  0.439041257943
-0.32  0.44  0.374822871244
-0.32  0.46  0.319997681917
-0.32  0.48  0.273191750792
-0.32  0.5  0.233232104226
-0.32  0.52  0.199117338953
-0.32  0.54  0.169992526558
-0.32  0.56  0.145127788657
-0.32  0.58  0.123900005882
-0.32  0.6  0.105777202283
-0.32  0.62  0.0903052138142
-0.32  0.64  0.0770963068225
-0.32  0.66  0.0658194612983
-0.32  0.68  0.0561920753943
-0.32  0.7  0.0479728833211
-0.32  0.72  0.0409559091383
-0.32  0.74  0.0349653049227
-0.32  0.76  0.0298509439556
-0.32  0.78  0.0254846584925
-0.32  0.8  0.0217570278328
-0.32  0.82  0.0185746361976
-0.32  0.84  0.0158577316959
-0.32  0.86  0.0135382277136
-0.32  0.88  0.0115579966378
-0.32  0.9  0.00986741315816
-0.32  0.92  0.0084241106383
-0.32  0.94  0.00719191939254
-0.32  0.96  0.00613996026045
-0.32  0.98  0.00524187076387
-0.3  -1  0.00542406621091
-0.3  -0.98  0.00635337124573
-0.3  -0.96  0.00744189407291
-0.3  -0.94  0.0087169134701
-0.3  -0.92  0.0102103818868
-0.3  -0.9  0.0119597261842
-0.3  -0.88  0.0140087855662
-0.3  -0.86  0.0164089102055
-0.3  -0.84  0.019220248098
-0.3  -0.82  0.0225132523928
-0.3  -0.8  0.0263704469744
-0.3  -0.78  0.0308884945408
-0.3  -0.76  0.0361806190058
-0.3  -0.74  0.0423794429319
-0.3  -0.72  0.0496403110995
-0.3  -0.7  0.0581451835035
-0.3  -0.68  0.0681071953373
-0.3  -0.66  0.0797759982379
-0.3  -0.64  0.0934440166465
-0.3  -0.62  0.109453776072
-0.3  -0.6  0.128206486903
-0.3  -0.58  0.150172098889
-0.3  -0.56  0.175901078249
-0.3  -0.54  0.206038202556
-0.3  -0.52  0.241338719098
-0.3  -0.5  0.282687271648
-0.3  -0.48  0.331120069959
-0.3  -0.46  0.38785085756
-0.3  -0.44  0.454301328605
-0.3  -0.42  0.532136756046
-0.3  -0.4  0.623307723984
-0.3  -0.38  0.730099010008
-0.3  -0.36  0.855186842556
-0.3  -0.34  1.00170596817
-0.3  -0.32  1.17332820939
-0.3  -0.3  1.37435448195
-0.3  -0.28  1.60982257729
-0.3  -0.26  1.88563341146
-0.3  -0.24  2.20869890421
-0.3  -0.22  2.58711519418
-0.3  -0.2  2.25502719658
-0.3  -0.18  2.25653329853
-0.3  -0.16  2.24160052778
-0.3  -0.14  2.21157348063
-0.3  -0.12  2.16923107984
-0.3  -0.1  2.11867365416
-0.3  -0.08  2.06510130501
-0.3  -0.06  2.01442637089
-0.3  -0.04  1.97266837195
-0.3  -0.02  1.94513549373
-0.3  6.17561557e-16  1.93551586305
-0.3  0.02  1.94513549373
-0.3  0.04  1.97266837195
-0.3  0.06  2.01442637089
-0.3  0.08  2.06510130501
-0.3  0.1  2.11867365416
-0.3  0.12  2.16923107984
-0.3  0.14  2.21157348063
-0.3  0.16  2.24160052778
-0.3  0.18  2.25653329853
-0.3  0.2  3.03036553113
-0.3  0.22  2.58711519418
-0.3  0.24  2.20869890421
-0.3  0.26  1.88563341146
-0.3  0.28  1.60982257729
-0.3  0.3  1.37435448195
-0.3  0.32  1.17332820939
-0.3  0.34  1.00170596817
-0.3  0.36  0.855186842556
-0.3  0.38  0.730099010008
-0.3  0.4  0.623307723984
-0.3  0.42  0.532136756046
-0.3  0.44  0.454301328605
-0.3  0.46  0.38785085756
-0.3  0.48  0.33112006996
-0.3  0.5  0.282687271648
-0.3  0.52  0.241338719098
-0.3  0.54  0.206038202556
-0.3  0.56  0.175901078249
-0.3  0.58  0.150172098889
-0.3  0.6  0.128206486903
-0.3  0.62  0.109453776072
-0.3  0.64  0.0934440166465
-0.3  0.66  0.0797759982379
-0.3  0.68  0.0681071953373
-0.3  0.7  0.0581451835035
-0.3  0.72  0.0496403110995
-0.3  0.74  0.0423794429319
-0.3  0.76  0.0361806190058
-0.3  0.78  0.0308884945408
-0.3  0.8  0.0263704469744
-0.3  0.82  0.0225132523928
-0.3  0.84  0.019220248098
-0.3  0.86  0.0164089102055
-0.3  0.88  0.0140087855662
-0.3  0.9  0.0119597261842
-0.3  0.92  0.0102103818868
-0.3  0.94  0.00871691347011
-0.3  0.96  0.00744189407291
-0.3  0.98  0.00635337124573
-0.28  -1  0.00657419990909
-0.28  -0.98  0.00770055730184
-0.28  -0.96  0.00901989345912
-0.28  -0.94  0.0105652714245
-0.28  -0.92  0.0123754189314
-0.28  -0.9  0.0144956989342
-0.28  -0.88  0.0169792464204
-0.28  -0.86  0.0198882999925
-0.28  -0.84  0.0232957615902
-0.28  -0.82  0.0272870234395
-0.28  -0.8  0.0319621080129
-0.28  -0.78  0.0374381746287
-0.28  -0.76  0.0438524555066
-0.28  -0.74  0.0513656948564
-0.28  -0.72  0.0601661771866
-0.28  -0.7  0.0704744457828
-0.28  -0.68  0.0825488296022
-0.28  -0.66  0.0966919170913
-0.28  -0.64  0.113258139163
-0.28  -0.62  0.132662651362
-0.28  -0.6  0.155391737816
-0.28  -0.58  0.182014997693
-0.28  -0.56  0.21319961956
-0.28  -0.54  0.249727101375
-0.28  -0.52  0.292512835106
-0.28  -0.5  0.34262904679
-0.28  -0.48  0.401331666905
-0.28  -0.46  0.470091804445
-0.28  -0.44  0.550632613445
-0.28  -0.42  0.64497247585
-0.28  -0.4  0.755475582896
-0.28  -0.38  0.884911182605
-0.28  -0.36  1.03652297814
-0.28  -0.34  1.21411041621
-0.28  -0.32  1.42212390254
-0.28  -0.3  1.6657763307
-0.28  -0.28  1.95117371908
-0.28  -0.26  2.28546822996
-0.28  -0.24  2.67703740527
-0.28  -0.22  3.13569411084
-0.28  -0.2  2.7331892743
-0.28  -0.18  2.73501473419
-0.28  -0.16  2.71691557826
-0.28  -0.14  2.68052151467
-0.28  -0.12  2.62920071646
-0.28  -0.1  2.56792295724
-0.28  -0.08  2.502990982
-0.28  -0.06  2.44157079752
-0.28  -0.04  2.39095831932
-0.28  -0.02  2.357587295
-0.28  6.17561557e-16  2.34592789176
-0.28  0.02  2.357587295
-0.28  0.04  2.39095831932
-0.28  0.06  2.44157079752
-0.28  0.08  2.502990982
-0.28  0.1  2.56792295724
-0.28  0.12  2.62920071646
-0.28  0.14  2.68052151467
-0.28  0.16  2.71691557826
-0.28  0.18  2.73501473419
-0.28  0.2  3.67293245041
-0.28  0.22  3.13569411084
-0.28  0.24  2.67703740527
-0.28  0.26  2.28546822996
-0.28  0.28  1.95117371908
-0.28  0.3  1.6657763307
-0.28  0.32  1.42212390254
-0.28  0.34  1.21411041621
-0.28  0.36  1.03652297815
-0.28  0.38  0.884911182605
-0.28  0.4  0.755475582896
-0.28  0.42  0.64497247585
-0.28  0.44  0.550632613445
-0.28  0.46  0.470091804445
-0.28  0.48  0.401331666905
-0.28  0.5  0.34262904679
-0.28  0.52  0.292512835106
-0.28  0.54  0.249727101375
-0.28  0.56  0.21319961956
-0.28  0.58  0.182014997693
-0.28  0.6  0.155391737816
-0.28  0.62  0.132662651362
-0.28  0.64  0.113258139163
-0.28  0.66  0.0966919170913
-0.28  0.68  0.0825488296022
-0.28  0.7  0.0704744457828
-0.28  0.72  0.0601661771866
-0.28  0.74  0.0513656948564
-0.28  0.76  0.0438524555066
-0.28  0.78  0.0374381746287
-0.28  0.8  0.0319621080129
-0.28  0.82  0.0272870234395
-0.28  0.84  0.0232957615902
-0.28  0.86  0.0198882999925
-0.28  0.88  0.0169792464204
-0.28  0.9  0.0144956989342
-0.28  0.92  0.0123754189314
-0.28  0.94  0.0105652714245
-0.28  0.96  0.00901989345912
-0.28  0.98  0.00770055730184
-0.26  -1  0.00796821107341
-0.26  -0.98  0.00933340434007
-0.26  -0.96  0.0109324961114
-0.26  -0.94  0.0128055602085
-0.26  -0.92  0.0149995362981
-0.26  -0.9  0.0175694062185
-0.26  -0.88  0.0205795718439
-0.26  -0.86  0.0241054690187
-0.26  -0.84  0.0282354580075
-0.26  -0.82  0.0330730378354
-0.26  -0.8  0.0387394400109
-0.26  -0.78  0.0453766666317
-0.26  -0.76  0.0531510490092
-0.26  -0.74  0.062257415991
-0.26  -0.72  0.0729239764432
-0.26  -0.7  0.0854180382471
-0.26  -0.68  0.100052707132
-0.26  -0.66  0.117194733219
-0.26  -0.64  0.137273701912
-0.26  -0.62  0.160792799463
-0.26  -0.6  0.188341423003
-0.26  -0.58  0.220609951051
-0.26  -0.56  0.258407044647
-0.26  -0.54  0.302679912692
-0.26  -0.52  0.35453804935
-0.26  -0.5  0.415281038371
-0.26  -0.48  0.486431121135
-0.26  -0.46  0.569771344573
-0.26  -0.44  0.667390244974
-0.26  -0.42  0.781734187457
-0.26  -0.4  0.915668672776
-0.26  -0.38  1.07255014781
-0.26  -0.36  1.25631011933
-0.26  -0.34  1.47155367901
-0.26  -0.32  1.72367490869
-0.26  -0.3  2.01899205799
-0.26  -0.28  2.36490588201
-0.26  -0.26  2.77008510689
-0.26  -0.24  3.24468367126
-0.26  -0.22  3.80059518761
-0.26  -0.2  3.31274213476
-0.26  -0.18  3.31495467011
-0.26  -0.16  3.29301772012
-0.26  -0.14  3.24890656066
-0.26  -0.12  3.18670356132
-0.26  -0.1  3.11243229997
-0.26  -0.08  3.03373197274
-0.26  -0.06  2.95928808591
-0.26  -0.04  2.89794360067
-0.26  -0.02  2.85749649392
-0.26  6.17561557e-16  2.84336479922
-0.26  0.02  2.85749649392
-0.26  0.04  2.89794360067
-0.26  0.06  2.95928808591
-0.26  0.08  3.03373197274
-0.26  0.1  3.11243229997
-0.26  0.12  3.18670356132
-0.26  0.14  3.24890656066
-0.26  0.16  3.29301772012
-0.26  0.18  3.31495467011
-0.26  0.2  4.45175100058
-0.26  0.22  3.80059518761
-0.26  0.24  3.24468367126
-0.26  0.26  2.77008510689
-0.26  0.28  2.36490588201
-0.26  0.3  2.01899205799
-0.26  0.32  1.72367490869
-0.26  0.34  1.47155367902
-0.26  0.36  1.25631011933
-0.26  0.38  1.07255014781
-0.26  0.4  0.915668672777
-0.26  0.42  0.781734187457
-0.26  0.44  0.667390244974
-0.26  0.46  0.569771344573
-0.26  0.48  0.486431121135
-0.26  0.5  0.415281038371
-0.26  0.52  0.35453804935
-0.26  0.54  0.302679912692
-0.26  0.56  0.258407044647
-0.26  0.58  0.220609951051
-0.26  0.6  0.188341423003
-0.26  0.62  0.160792799463
-0.26  0.64  0.137273701912
-0.26  0.66  0.117194733219
-0.26  0.68  0.100052707132
-0.26  0.7  0.0854180382472
-0.26  0.72  0.0729239764432
-0.26  0.74  0.062257415991
-0.26  0.76  0.0531510490092
-0.26  0.78  0.0453766666317
-0.26  0.8  0.0387394400109
-0.26  0.82  0.0330730378354
-0.26  0.84  0.0282354580075
-0.26  0.86  0.0241054690187
-0.26  0.88  0.0205795718439
-0.26  0.9  0.0175694062185
-0.26  0.92  0.0149995362981
-0.26  0.94  0.0128055602085
-0.26  0.96  0.0109324961114
-0.26  0.98  0.00933340434007
-0.24  -1  0.00965781214268
-0.24  -0.98  0.0113124846892
-0.24  -0.96  0.0132506522132
-0.24  -0.94  0.0155208858972
-0.24  -0.92  0.0181800786224
-0.24  -0.9  0.0212948707249
-0.24  -0.88  0.0249433200268
-0.24  -0.86  0.0292168579935
-0.24  -0.84  0.0342225810395
-0.24  -0.82  0.0400859344035
-0.24  -0.8  0.0469538558518
-0.24  -0.78  0.0549984579917
-0.24  -0.76  0.0644213414765
-0.24  -0.74  0.0754586471907
-0.24  -0.72  0.0883869740268
-0.24  -0.7  0.103530310554
-0.24  -0.68  0.121268154288
-0.24  -0.66  0.14204502204
-0.24  -0.64  0.166381589667
-0.24  -0.62  0.194887740397
-0.24  -0.6  0.228277848728
-0.24  -0.58  0.267388682909
-0.24  -0.56  0.313200374658
-0.24  -0.54  0.36686098162
-0.24  -0.52  0.429715258106
-0.24  -0.5  0.503338355128
-0.24  -0.48  0.589575294253
-0.24  -0.46  0.690587204515
-0.24  -0.44  0.808905481097
-0.24  -0.42  0.947495223008
-0.24  -0.4  1.10982953955
-0.24  -0.38  1.29997658768
-0.24  -0.36  1.52270152154
-0.24  -0.34  1.78358590892
-0.24  -0.32  2.08916760736
-0.24  -0.3  2.44710460529
-0.24  -0.28  2.86636693395
-0.24  -0.26  3.35746145968
-0.24  -0.24  3.93269518976
-0.24  -0.22  4.60648369052
-0.24  -0.2  4.01518495431
-0.24  -0.18  4.01786664165
-0.24  -0.16  3.99127812133
-0.24  -0.14  3.93781351208
-0.24  -0.12  3.8624208202
-0.24  -0.1  3.77240087932
-0.24  -0.08  3.67701272143
-0.24  -0.06  3.5867835511
-0.24  -0.04  3.51243141497
-0.24  -0.02  3.4634077941
-0.24  6.17561557e-16  3.44627957656
-0.24  0.02  3.4634077941
-0.24  0.04  3.51243141497
-0.24  0.06  3.5867835511
-0.24  0.08  3.67701272143
-0.24  0.1  3.77240087932
-0.24  0.12  3.8624208202
-0.24  0.14  3.93781351208
-0.24  0.16  3.99127812133
-0.24  0.18  4.01786664165
-0.24  0.2  5.39571234666
-0.24  0.22  4.60648369052
-0.24  0.24  3.93269518976
-0.24  0.26  3.35746145968
-0.24  0.28  2.86636693395
-0.24  0.3  2.44710460529
-0.24  0.32  2.08916760736
-0.24  0.34  1.78358590892
-0.24  0.36  1.52270152154
-0.24  0.38  1.29997658768
-0.24  0.4  1.10982953955
-0.24  0.42  0.947495223008
-0.24  0.44  0.808905481097
-0.24  0.46  0.690587204515
-0.24  0.48  0.589575294253
-0.24  0.5  0.503338355128
-0.24  0.52  0.429715258106
-0.24  0.54  0.36686098162
-0.24  0.56  0.313200374658
-0.24  0.58  0.267388682909
-0.24  0.6  0.228277848728
-0.24  0.62  0.194887740397
-0.24  0.64  0.166381589667
-0.24  0.66  0.14204502204
-0.24  0.68  0.121268154288
-0.24  0.7  0.103530310554
-0.24  0.72  0.0883869740268
-0.24  0.74  0.0754586471907
-0.24  0.76  0.0644213414765
-0.24  0.78  0.0549984579917
-0.24  0.8  0.0469538558518
-0.24  0.82  0.0400859344035
-0.24  0.84  0.0342225810395
-0.24  0.86  0.0292168579935
-0.24  0.88  0.0249433200268
-0.24  0.9  0.0212948707249
-0.24  0.92  0.0181800786224
-0.24  0.94  0.0155208858972
-0.24  0.96  0.0132506522132
-0.24  0.98  0.0113124846892
-0.22  -1  0.0117056808014
-0.22  -0.98  0.0137112145987
-0.22  -0.96  0.0160603564167
-0.22  -0.94  0.0188119766033
-0.22  -0.92  0.0220350317602
-0.22  -0.9  0.025810292821
-0.22  -0.88  0.0302323691998
-0.22  -0.86  0.0354120797379
-0.22  -0.84  0.0414792298638
-0.22  -0.82  0.0485858645644
-0.22  -0.8  0.0569100786881
-0.22  -0.78  0.0666604800661
-0.22  -0.76  0.0780814173003
-0.22  -0.74  0.0914591032284
-0.22  -0.72  0.107128787522
-0.22  -0.7  0.125483158163
-0.22  -0.68  0.146982182351
-0.22  -0.66  0.172164633445
-0.22  -0.64  0.201661592822
-0.22  -0.62  0.236212265003
-0.22  -0.6  0.276682502389
-0.22  -0.58  0.324086503837
-0.22  -0.56  0.379612230851
-0.22  -0.54  0.444651178329
-0.22  -0.52  0.520833245932
-0.22  -0.5  0.610067583959
-0.22  -0.48  0.714590437352
-0.22  -0.46  0.837021186801
-0.22  -0.44  0.980427991383
-0.22  -0.42  1.14840467774
-0.22  -0.4  1.34516080267
-0.22  -0.38  1.57562714618
-0.22  -0.36  1.84557927858
-0.22  -0.34  2.16178229843
-0.22  -0.32  2.53216036831
-0.22  -0.3  2.96599529727
-0.22  -0.28  3.47415914627
-0.22  -0.26  4.06938668607
-0.22  -0.24  4.76659453511
-0.22  -0.22  5.58325497549
-0.22  -0.2  4.86657565287
-0.22  -0.18  4.86982597246
-0.22  -0.16  4.83759955024
-0.22  -0.14  4.77279816036
-0.22  -0.12  4.68141899779
-0.22  -0.1  4.5723109847
-0.22  -0.08  4.45669646332
-0.22  -0.06  4.34733485519
-0.22  -0.04  4.25721689063
-0.22  -0.02  4.19779816834
-0.22  6.17561557e-16  4.17703803714
-0.22  0.02  4.19779816834
-0.22  0.04  4.25721689063
-0.22  0.06  4.34733485519
-0.22  0.08  4.45669646332
-0.22  0.1  4.5723109847
-0.22  0.12  4.68141899779
-0.22  0.14  4.77279816036
-0.22  0.16  4.83759955024
-0.22  0.18  4.86982597246
-0.22  0.2  6.53983381463
-0.22  0.22  5.58325497549
