-0.56  0.66  0.0000977747039052
-0.56  0.68  0.0000765658567813
-0.56  0.7  0.0000599575369753
-0.56  0.72  0.0000469518188821
-0.56  0.74  0.000036767242411
-0.56  0.76  0.0000287918582644
-0.56  0.78  0.0000225464584222
-0.56  0.8  0.0000176557825033
-0.56  0.82  0.0000138259699137
-0.56  0.84  0.0000108269029717
-0.56  0.86  0.0000084783800841
-0.56  0.88  0.000006639288173
-0.56  0.9  0.0000051991237721
-0.56  0.92  0.00000407135332784
-0.56  0.94  0.00000318821375422
-0.56  0.96  0.00000249664082778
-0.56  0.98  0.00000195508077671
-0.54  -1  0.00000197006175399
-0.54  -0.98  0.00000251577155627
-0.54  -0.96  0.00000321264372069
-0.54  -0.94  0.00000410255042846
-0.54  -0.92  0.00000523896251229
-0.54  -0.9  0.00000669016229876
-0.54  -0.88  0.00000854334641232
-0.54  -0.86  0.0000109098650618
-0.54  -0.84  0.0000139319126162
-0.54  -0.82  0.0000177910714795
-0.54  -0.8  0.0000227192226299
-0.54  -0.78  0.0000290124783941
-0.54  -0.76  0.0000370489746186
-0.54  -0.74  0.0000473115912969
-0.54  -0.72  0.0000604169668414
-0.54  -0.7  0.000077152549349
-0.54  -0.68  0.0000985239111172
-0.54  -0.66  0.000125815169346
-0.54  -0.64  0.000160666143458
-0.54  -0.62  0.000205170885099
-0.54  -0.6  0.000262003501089
-0.54  -0.58  0.000334578829494
-0.54  -0.56  0.000427257623201
-0.54  -0.54  0.000545608569614
-0.54  -0.52  0.000696742890171
-0.54  -0.5  0.000889741624378
-0.54  -0.48  0.00113620127212
-0.54  -0.46  0.00145093057961
-0.54  -0.44  0.00185284033605
-0.54  -0.42  0.00236607964511
-0.54  -0.4  0.00302148694526
-0.54  -0.38  0.0038584429646
-0.54  -0.36  0.00492723694683
-0.54  -0.34  0.00629208832501
-0.54  -0.32  0.008035005403
-0.54  -0.3  0.0102607128971
-0.54  -0.28  0.0131029444134
-0.54  -0.26  0.0167324779499
-0.54  -0.24  0.0213673972438
-0.54  -0.22  0.0272861955258
-0.54  -0.2  0.0251870097814
-0.54  -0.18  0.0253743759905
-0.54  -0.16  0.0262447094862
-0.54  -0.14  0.027650439224
-0.54  -0.12  0.0293829958766
-0.54  -0.1  0.0312261531544
-0.54  -0.08  0.0329879514233
-0.54  -0.06  0.0345127946303
-0.54  -0.04  0.0356830623859
-0.54  -0.02  0.0364171398954
-0.54  6.17561557e-16  0.0366670988552
-0.54  0.02  0.0364171398954
-0.54  0.04  0.0356830623859
-0.54  0.06  0.0345127946303
-0.54  0.08  0.0329879514233
-0.54  0.1  0.0312261531544
-0.54  0.12  0.0293829958766
-0.54  0.14  0.027650439224
-0.54  0.16  0.0262447094862
-0.54  0.18  0.0253743759905
-0.54  0.2  0.034844509033
-0.54  0.22  0.0272861955258
-0.54  0.24  0.0213673972438
-0.54  0.26  0.0167324779499
-0.54  0.28  0.0131029444134
-0.54  0.3  0.0102607128971
-0.54  0.32  0.00803500540299
-0.54  0.34  0.006292088325
-0.54  0.36  0.00492723694683
-0.54  0.38  0.0038584429646
-0.54  0.4  0.00302148694526
-0.54  0.42  0.00236607964511
-0.54  0.44  0.00185284033605
-0.54  0.46  0.00145093057961
-0.54  0.48  0.00113620127212
-0.54  0.5  0.000889741624378
-0.54  0.52  0.00069674289017
-0.54  0.54  0.000545608569614
-0.54  0.56  0.000427257623201
-0.54  0.58  0.000334578829494
-0.54  0.6  0.000262003501088
-0.54  0.62  0.000205170885099
-0.54  0.64  0.000160666143458
-0.54  0.66  0.000125815169346
-0.54  0.68  0.0000985239111171
-0.54  0.7  0.0000771525493489
-0.54  0.72  0.0000604169668413
-0.54  0.74  0.0000473115912968
-0.54  0.76  0.0000370489746186
-0.54  0.78  0.0000290124783941
-0.54  0.8  0.0000227192226299
-0.54  0.82  0.0000177910714795
-0.54  0.84  0.0000139319126162
-0.54  0.86  0.0000109098650618
-0.54  0.88  0.00000854334641232
-0.54  0.9  0.00000669016229875
-0.54  0.92  0.00000523896251229
-0.54  0.94  0.00000410255042846
-0.54  0.96  0.00000321264372069
-0.54  0.98  0.00000251577155627
-0.52  -1  0.00000253504887564
-0.52  -0.98  0.00000323726088391
-0.52  -0.96  0.00000413398657959
-0.52  -0.94  0.00000527910652031
-0.52  -0.92  0.00000674142625194
-0.52  -0.9  0.0000086088105507
-0.52  -0.88  0.0000109934628561
-0.52  -0.86  0.000014038667114
-0.52  -0.84  0.0000179273971192
-0.52  -0.82  0.0000228933106585
-0.52  -0.8  0.0000292347890449
-0.52  -0.78  0.0000373328656239
-0.52  -0.76  0.0000476741204991
-0.52  -0.74  0.0000608799171288
-0.52  -0.72  0.0000777437374997
-0.52  -0.7  0.0000992788591949
-0.52  -0.68  0.000126779239075
-0.52  -0.66  0.000161897261821
-0.52  -0.64  0.000206743024933
-0.52  -0.62  0.000264011125809
-0.52  -0.6  0.000337142569009
-0.52  -0.58  0.000430531522071
-0.52  -0.56  0.000549789342952
-0.52  -0.54  0.000702081743446
-0.52  -0.52  0.000896559347318
-0.52  -0.5  0.00114490751364
-0.52  -0.48  0.00146204846196
-0.52  -0.46  0.00186703788702
-0.52  -0.44  0.00238420993714
-0.52  -0.42  0.00304463935299
-0.52  -0.4  0.00388800862095
-0.52  -0.38  0.00496499233047
-0.52  -0.36  0.00634030200158
-0.52  -0.34  0.00809657433398
-0.52  -0.32  0.0103393365063
-0.52  -0.3  0.0132033468699
-0.52  -0.28  0.0168606920243
-0.52  -0.26  0.0215311267922
-0.52  -0.24  0.0274952783832
-0.52  -0.22  0.0351115081281
-0.52  -0.2  0.0324103042443
-0.52  -0.18  0.0326514045533
-0.52  -0.16  0.033771337949
-0.52  -0.14  0.0355802120028
-0.52  -0.12  0.0378096425195
-0.52  -0.1  0.040181392428
-0.52  -0.08  0.042448450662
-0.52  -0.06  0.0444105983202
-0.52  -0.04  0.0459164830733
-0.52  -0.02  0.046861084105
-0.52  6.17561557e-16  0.0471827279208
-0.52  0.02  0.046861084105
-0.52  0.04  0.0459164830733
-0.52  0.06  0.0444105983202
-0.52  0.08  0.042448450662
-0.52  0.1  0.040181392428
-0.52  0.12  0.0378096425195
-0.52  0.14  0.0355802120028
-0.52  0.16  0.033771337949
-0.52  0.18  0.0326514045533
-0.52  0.2  0.0448374439366
-0.52  0.22  0.0351115081281
-0.52  0.24  0.0274952783832
-0.52  0.26  0.0215311267922
-0.52  0.28  0.0168606920243
-0.52  0.3  0.0132033468699
-0.52  0.32  0.0103393365062
-0.52  0.34  0.00809657433397
-0.52  0.36  0.00634030200158
-0.52  0.38  0.00496499233046
-0.52  0.4  0.00388800862095
-0.52  0.42  0.00304463935298
-0.52  0.44  0.00238420993713
-0.52  0.46  0.00186703788702
-0.52  0.48  0.00146204846195
-0.52  0.5  0.00114490751364
-0.52  0.52  0.000896559347317
-0.52  0.54  0.000702081743445
-0.52  0.56  0.000549789342952
-0.52  0.58  0.000430531522071
-0.52  0.6  0.000337142569009
-0.52  0.62  0.000264011125809
-0.52  0.64  0.000206743024933
-0.52  0.66  0.000161897261821
-0.52  0.68  0.000126779239075
-0.52  0.7  0.0000992788591948
-0.52  0.72  0.0000777437374997
-0.52  0.74  0.0000608799171288
-0.52  0.76  0.0000476741204991
-0.52  0.78  0.0000373328656239
-0.52  0.8  0.0000292347890448
-0.52  0.82  0.0000228933106584
-0.52  0.84  0.0000179273971192
-0.52  0.86  0.000014038667114
-0.52  0.88  0.0000109934628561
-0.52  0.9  0.00000860881055069
-0.52  0.92  0.00000674142625193
-0.52  0.94  0.00000527910652031
-0.52  0.96  0.00000413398657958
-0.52  0.98  0.00000323726088391
-0.5  -1  0.0000032620666783
-0.5  -0.98  0.00000416566361297
-0.5  -0.96  0.00000531955813529
-0.5  -0.94  0.00000679308301964
-0.5  -0.92  0.00000867477631376
-0.5  -0.9  0.0000110777012258
-0.5  -0.88  0.0000141462396274
-0.5  -0.86  0.0000180647673661
-0.5  -0.84  0.0000230687326517
-0.5  -0.82  0.0000294588031704
-0.5  -0.8  0.0000376189319688
-0.5  -0.78  0.0000480394276131
-0.5  -0.76  0.0000613464148133
-0.5  -0.74  0.0000783394556814
-0.5  -0.72  0.000100039592128
-0.5  -0.7  0.000127750696072
-0.5  -0.68  0.000163137813736
-0.5  -0.66  0.000208327211427
-0.5  -0.64  0.000266034134129
-0.5  -0.62  0.000339725953403
-0.5  -0.6  0.000433830507478
-0.5  -0.58  0.000554002151832
-0.5  -0.56  0.000707461506151
-0.5  -0.54  0.000903429311656
-0.5  -0.52  0.00115368046751
-0.5  -0.5  0.00147325153605
-0.5  -0.48  0.00188134422797
-0.5  -0.46  0.0024024791541
-0.5  -0.44  0.00306796916806
-0.5  -0.42  0.00391780082673
-0.5  -0.4  0.00500303701803
-0.5  -0.38  0.00638888511966
-0.5  -0.36  0.00815861504226
-0.5  -0.34  0.0104185625757
-0.5  -0.32  0.013304518669
-0.5  -0.3  0.0169898885501
-0.5  -0.28  0.0216961109326
-0.5  -0.26  0.0277059633563
-0.5  -0.24  0.0353805531271
-0.5  -0.22  0.0451810147686
-0.5  -0.2  0.0417051420684
-0.5  -0.18  0.0420153866919
-0.5  -0.16  0.04345650187
-0.5  -0.14  0.0457841365885
-0.5  -0.12  0.0486529376874
-0.5  -0.1  0.0517048734588
-0.5  -0.08  0.0546220933964
-0.5  -0.06  0.0571469585204
-0.5  -0.04  0.0590847106962
-0.5  -0.02  0.0603002105547
-0.5  6.17561557e-16  0.0607140974757
-0.5  0.02  0.0603002105547
-0.5  0.04  0.0590847106962
-0.5  0.06  0.0571469585204
-0.5  0.08  0.0546220933964
-0.5  0.1  0.0517048734588
-0.5  0.12  0.0486529376874
-0.5  0.14  0.0457841365885
-0.5  0.16  0.04345650187
-0.5  0.18  0.0420153866919
-0.5  0.2  0.0576962176986
-0.5  0.22  0.0451810147685
-0.5  0.24  0.0353805531271
-0.5  0.26  0.0277059633563
-0.5  0.28  0.0216961109325
-0.5  0.3  0.0169898885501
-0.5  0.32  0.013304518669
-0.5  0.34  0.0104185625756
-0.5  0.36  0.00815861504226
-0.5  0.38  0.00638888511966
-0.5  0.4  0.00500303701802
-0.5  0.42  0.00391780082673
-0.5  0.44  0.00306796916806
-0.5  0.46  0.0024024791541
-0.5  0.48  0.00188134422796
-0.5  0.5  0.00147325153604
-0.5  0.52  0.00115368046751
-0.5  0.54  0.000903429311655
-0.5  0.56  0.00070746150615
-0.5  0.58  0.000554002151831
-0.5  0.6  0.000433830507477
-0.5  0.62  0.000339725953403
-0.5  0.64  0.000266034134129
-0.5  0.66  0.000208327211427
-0.5  0.68  0.000163137813735
-0.5  0.7  0.000127750696072
-0.5  0.72  0.000100039592128
-0.5  0.74  0.0000783394556813
-0.5  0.76  0.0000613464148133
-0.5  0.78  0.000048039427613
-0.5  0.8  0.0000376189319687
-0.5  0.82  0.0000294588031704
-0.5  0.84  0.0000230687326517
-0.5  0.86  0.0000180647673661
-0.5  0.88  0.0000141462396274
-0.5  0.9  0.0000110777012258
-0.5  0.92  0.00000867477631375
-0.5  0.94  0.00000679308301963
-0.5  0.96  0.00000531955813529
-0.5  0.98  0.00000416566361296
-0.48  -1  0.00000419758337438
-0.48  -0.98  0.00000536031971431
-0.48  -0.96  0.00000684513561183
-0.48  -0.94  0.00000874124754524
-0.48  -0.92  0.0000111625850794
-0.48  -0.9  0.0000142546364246
-0.48  -0.88  0.0000182031902245
-0.48  -0.86  0.0000232454988313
-0.48  -0.84  0.0000296845338237
-0.48  -0.82  0.000037907190322
-0.48  -0.8  0.0000484075339247
-0.48  -0.78  0.0000618164870771
-0.48  -0.76  0.0000789397386056
-0.48  -0.74  0.000100806154244
-0.48  -0.72  0.000128729596943
-0.48  -0.7  0.000164387871488
-0.48  -0.68  0.000209923536887
-0.48  -0.66  0.000268072643927
-0.48  -0.64  0.000342329133205
-0.48  -0.62  0.000437154771648
-0.48  -0.6  0.000558247241727
-0.48  -0.58  0.000712882491758
-0.48  -0.56  0.000910351917695
-0.48  -0.54  0.00116252064489
-0.48  -0.52  0.00148454045467
-0.48  -0.5  0.0018957601925
-0.48  -0.48  0.00242088836054
-0.48  -0.46  0.00309147774988
-0.48  -0.44  0.00394782131789
-0.48  -0.42  0.00504137322633
-0.48  -0.4  0.00643784051014
-0.48  -0.38  0.0082211311429
-0.48  -0.36  0.0104983957217
-0.48  -0.34  0.0134064657058
-0.48  -0.32  0.0171200750557
-0.48  -0.3  0.0218623592783
-0.48  -0.28  0.0279182627214
-0.48  -0.26  0.0356516597069
-0.48  -0.24  0.045527218242
-0.48  -0.22  0.0581383200081
-0.48  -0.2  0.0536656139304
-0.48  -0.18  0.0540648325246
-0.48  -0.16  0.0559192400855
-0.48  -0.14  0.0589144090258
-0.48  -0.12  0.0626059435604
-0.48  -0.1  0.0665331333199
-0.48  -0.08  0.0702869725626
-0.48  -0.06  0.0735359349268
-0.48  -0.04  0.0760294082733
-0.48  -0.02  0.0775934970859
-0.48  6.17561557e-16  0.0781260811897
-0.48  0.02  0.0775934970859
-0.48  0.04  0.0760294082733
-0.48  0.06  0.0735359349268
-0.48  0.08  0.0702869725626
-0.48  0.1  0.0665331333199
-0.48  0.12  0.0626059435604
-0.48  0.14  0.0589144090258
-0.48  0.16  0.0559192400855
-0.48  0.18  0.0540648325246
-0.48  0.2  0.074242714224
-0.48  0.22  0.058138320008
-0.48  0.24  0.045527218242
-0.48  0.26  0.0356516597068
-0.48  0.28  0.0279182627214
-0.48  0.3  0.0218623592783
-0.48  0.32  0.0171200750557
-0.48  0.34  0.0134064657058
-0.48  0.36  0.0104983957217
-0.48  0.38  0.0082211311429
-0.48  0.4  0.00643784051013
-0.48  0.42  0.00504137322632
-0.48  0.44  0.00394782131789
-0.48  0.46  0.00309147774988
-0.48  0.48  0.00242088836054
-0.48  0.5  0.0018957601925
-0.48  0.52  0.00148454045467
-0.48  0.54  0.00116252064489
-0.48  0.56  0.000910351917695
-0.48  0.58  0.000712882491757
-0.48  0.6  0.000558247241727
-0.48  0.62  0.000437154771648
-0.48  0.64  0.000342329133205
-0.48  0.66  0.000268072643927
-0.48  0.68  0.000209923536887
-0.48  0.7  0.000164387871488
-0.48  0.72  0.000128729596943
-0.48  0.74  0.000100806154244
-0.48  0.76  0.0000789397386055
-0.48  0.78  0.0000618164870771
-0.48  0.8  0.0000484075339247
-0.48  0.82  0.000037907190322
-0.48  0.84  0.0000296845338237
-0.48  0.86  0.0000232454988313
-0.48  0.88  0.0000182031902245
-0.48  0.9  0.0000142546364246
-0.48  0.92  0.0000111625850794
-0.48  0.94  0.00000874124754523
-0.48  0.96  0.00000684513561183
-0.48  0.98  0.00000536031971431
-0.46  -1  0.00000540139363249
-0.46  -0.98  0.00000689758706157
-0.46  -0.96  0.00000880822811834
-0.46  -0.94  0.0000112481193629
-0.46  -0.92  0.0000143638638217
-0.46  -0.9  0.0000183426737601
-0.46  -0.88  0.0000234236194973
-0.46  -0.86  0.0000299119941579
-0.46  -0.84  0.0000381976574801
-0.46  -0.82  0.0000487784608831
-0.46  -0.8  0.0000622901613107
-0.46  -0.78  0.0000795446212502
-0.46  -0.76  0.000101578590209
-0.46  -0.74  0.000129715998727
-0.46  -0.72  0.000165647507917
-0.46  -0.7  0.000211532094331
-0.46  -0.68  0.000270126773984
-0.46  -0.66  0.0003449522601
-0.46  -0.64  0.000440504508283
-0.46  -0.62  0.000562524859995
-0.46  -0.6  0.00071834501614
-0.46  -0.58  0.000917327568808
-0.46  -0.56  0.00117142856091
-0.46  -0.54  0.00149591587562
-0.46  -0.52  0.00191028662062
-0.46  -0.5  0.00243943862914
-0.46  -0.48  0.00311516646826
-0.46  -0.46  0.00397807184369
-0.46  -0.44  0.00508000318917
-0.46  -0.42  0.00648717102556
-0.46  -0.4  0.00828412627862
-0.46  -0.38  0.0105788405963
-0.46  -0.36  0.0135091939207
-0.46  -0.34  0.0172512591267
-0.46  -0.32  0.0220298815166
-0.46  -0.3  0.0281321888489
-0.46  -0.28  0.0359248436645
-0.46  -0.26  0.0458760745298
-0.46  -0.24  0.0585838099651
-0.46  -0.22  0.0748116055089
-0.46  -0.2  0.0690561876951
-0.46  -0.18  0.069569896794
-0.46  -0.16  0.0719561234149
-0.46  -0.14  0.0758102663823
-0.46  -0.12  0.0805604831977
-0.46  -0.1  0.085613937976
-0.46  -0.08  0.090444327649
-0.46  -0.06  0.0946250485689
-0.46  -0.04  0.0978336164173
-0.46  -0.02  0.0998462647913
-0.46  6.17561557e-16  0.100531586828
-0.46  0.02  0.0998462647913
-0.46  0.04  0.0978336164173
-0.46  0.06  0.0946250485689
-0.46  0.08  0.090444327649
-0.46  0.1  0.085613937976
-0.46  0.12  0.0805604831977
-0.46  0.14  0.0758102663823
-0.46  0.16  0.0719561234149
-0.46  0.18  0.069569896794
-0.46  0.2  0.0955345226293
-0.46  0.22  0.0748116055089
-0.46  0.24  0.058583809965
-0.46  0.26  0.0458760745298
-0.46  0.28  0.0359248436645
-0.46  0.3  0.0281321888489
-0.46  0.32  0.0220298815165
-0.46  0.34  0.0172512591267
-0.46  0.36  0.0135091939207
-0.46  0.38  0.0105788405963
-0.46  0.4  0.00828412627862
-0.46  0.42  0.00648717102556
-0.46  0.44  0.00508000318917
-0.46  0.46  0.00397807184369
-0.46  0.48  0.00311516646826
-0.46  0.5  0.00243943862914
-0.46  0.52  0.00191028662062
-0.46  0.54  0.00149591587562
-0.46  0.56  0.00117142856091
-0.46  0.58  0.000917327568808
-0.46  0.6  0.00071834501614
-0.46  0.62  0.000562524859995
-0.46  0.64  0.000440504508283
-0.46  0.66  0.0003449522601
-0.46  0.68  0.000270126773984
-0.46  0.7  0.000211532094331
-0.46  0.72  0.000165647507917
-0.46  0.74  0.000129715998727
-0.46  0.76  0.000101578590209
-0.46  0.78  0.0000795446212501
-0.46  0.8  0.0000622901613107
-0.46  0.82  0.0000487784608831
-0.46  0.84  0.00003819765748
-0.46  0.86  0.0000299119941578
-0.46  0.88  0.0000234236194972
-0.46  0.9  0.0000183426737601
-0.46  0.92  0.0000143638638217
-0.46  0.94  0.0000112481193629
-0.46  0.96  0.00000880822811833
-0.46  0.98  0.00000689758706156
-0.44  -1  0.00000695044042512
-0.44  -0.98  0.00000887572193593
-0.44  -0.96  0.0000113343090604
-0.44  -0.94  0.0000144739281833
-0.44  -0.92  0.0000184832261005
-0.44  -0.9  0.0000236031050283
-0.44  -0.88  0.0000301411974267
-0.44  -0.86  0.0000384903503681
-0.44  -0.84  0.0000491522301017
-0.44  -0.82  0.0000627674651145
-0.44  -0.8  0.0000801541388609
-0.44  -0.78  0.000102356945032
-0.44  -0.76  0.000130709958902
-0.44  -0.74  0.00016691679642
-0.44  -0.72  0.000213152977487
-0.44  -0.7  0.000272196643993
-0.44  -0.68  0.000347595486934
-0.44  -0.66  0.000443879912568
-0.44  -0.64  0.000566835255887
-0.44  -0.62  0.000723849397593
-0.44  -0.6  0.000924356671458
-0.44  -0.58  0.00118040473462
-0.44  -0.56  0.00150737846172
-0.44  -0.54  0.00192492435877
-0.44  -0.52  0.00245813104078
-0.44  -0.5  0.00313903670352
-0.44  -0.48  0.00400855416679
-0.44  -0.46  0.00511892915749
-0.44  -0.44  0.00653687954038
-0.44  -0.42  0.00834760412007
-0.44  -0.4  0.0106599018867
-0.44  -0.38  0.0136127092995
-0.44  -0.36  0.0173834484071
-0.44  -0.34  0.0221986874086
-0.44  -0.32  0.0283477542041
-0.44  -0.3  0.0362001209181
-0.44  -0.28  0.0462276039594
-0.44  -0.26  0.0590327135278
-0.44  -0.24  0.075384855973
-0.44  -0.22  0.0962665642566
-0.44  -0.2  0.0888605702931
-0.44  -0.18  0.0895216042282
-0.44  -0.16  0.0925921684376
-0.44  -0.14  0.0975516275897
-0.44  -0.12  0.103664142475
-0.44  -0.1  0.110166859879
-0.44  -0.08  0.116382540116
-0.44  -0.06  0.121762235369
-0.44  -0.04  0.125890977172
-0.44  -0.02  0.128480825935
-0.44  6.17561557e-16  0.129362689082
-0.44  0.02  0.128480825935
-0.44  0.04  0.125890977172
-0.44  0.06  0.121762235369
-0.44  0.08  0.116382540116
-0.44  0.1  0.110166859879
-0.44  0.12  0.103664142475
-0.44  0.14  0.0975516275897
-0.44  0.16  0.0925921684376
-0.44  0.18  0.0895216042282
-0.44  0.2  0.122932534315
-0.44  0.22  0.0962665642565
-0.44  0.24  0.0753848559729
-0.44  0.26  0.0590327135278
-0.44  0.28  0.0462276039594
-0.44  0.3  0.0362001209181
-0.44  0.32  0.028347754204
-0.44  0.34  0.0221986874086
-0.44  0.36  0.0173834484071
-0.44  0.38  0.0136127092995
-0.44  0.4  0.0106599018867
-0.44  0.42  0.00834760412007
-0.44  0.44  0.00653687954037
-0.44  0.46  0.00511892915748
-0.44  0.48  0.00400855416678
-0.44  0.5  0.00313903670352
-0.44  0.52  0.00245813104078
-0.44  0.54  0.00192492435876
-0.44  0.56  0.00150737846172
-0.44  0.58  0.00118040473462
-0.44  0.6  0.000924356671457
-0.44  0.62  0.000723849397593
-0.44  0.64  0.000566835255886
-0.44  0.66  0.000443879912567
-0.44  0.68  0.000347595486934
-0.44  0.7  0.000272196643993
-0.44  0.72  0.000213152977487
-0.44  0.74  0.00016691679642
-0.44  0.76  0.000130709958902
-0.44  0.78  0.000102356945032
-0.44  0.8  0.0000801541388608
-0.44  0.82  0.0000627674651144
-0.44  0.84  0.0000491522301017
-0.44  0.86  0.0000384903503681
-0.44  0.88  0.0000301411974267
-0.44  0.9  0.0000236031050283
-0.44  0.92  0.0000184832261005
-0.44  0.94  0.0000144739281833
-0.44  0.96  0.0000113343090604
-0.44  0.98  0.00000887572193592
-0.42  -1  0.0000089437329308
-0.42  -0.98  0.0000114211591939
-0.42  -0.96  0.0000145848359227
-0.42  -0.94  0.0000186248554355
-0.42  -0.92  0.000023783965883
-0.42  -0.9  0.0000303721569856
-0.42  -0.88  0.000038785286041
-0.42  -0.86  0.0000495288633597
-0.42  -0.84  0.0000632484263003
-0.42  -0.82  0.0000807683269535
-0.42  -0.8  0.000103141264067
-0.42  -0.78  0.000131711535383
-0.42  -0.76  0.000168195810957
-0.42  -0.74  0.000214786280802
-0.42  -0.72  0.000274282374561
-0.42  -0.7  0.000350258967724
-0.42  -0.68  0.000447281181183
-0.42  -0.66  0.000571178680563
-0.42  -0.64  0.00072939595685
-0.42  -0.62  0.00093143963522
-0.42  -0.6  0.00118944968904
-0.42  -0.58  0.0015189288809
-0.42  -0.56  0.00193967425986
-0.42  -0.54  0.00247696668467
-0.42  -0.52  0.00316308984654
-0.42  -0.5  0.00403927006335
-0.42  -0.48  0.00515815339943
-0.42  -0.46  0.00658696895103
-0.42  -0.44  0.00841156836603
-0.42  -0.42  0.0107415843163
-0.42  -0.4  0.0137170178739
-0.42  -0.38  0.0175166505995
-0.42  -0.36  0.0223687867905
-0.42  -0.34  0.0285649713476
-0.42  -0.32  0.0364775075077
-0.42  -0.3  0.046581827014
-0.42  -0.28  0.0594850568533
-0.42  -0.26  0.0759624990188
-0.42  -0.24  0.0970042152167
-0.42  -0.22  0.123874515601
-0.42  -0.2  0.114344582526
-0.42  -0.18  0.115195192072
-0.42  -0.16  0.119146352654
-0.42  -0.14  0.125528117754
-0.42  -0.12  0.13339361941
-0.42  -0.1  0.1417612284
-0.42  -0.08  0.149759481837
-0.42  -0.06  0.156682001081
-0.42  -0.04  0.161994810307
-0.42  -0.02  0.165327392742
-0.42  6.17561557e-16  0.166462162337
-0.42  0.02  0.165327392742
-0.42  0.04  0.161994810307
-0.42  0.06  0.156682001081
-0.42  0.08  0.149759481837
-0.42  0.1  0.1417612284
-0.42  0.12  0.13339361941
-0.42  0.14  0.125528117754
-0.42  0.16  0.119146352654
-0.42  0.18  0.115195192072
-0.42  0.2  0.158187925969
-0.42  0.22  0.123874515601
-0.42  0.24  0.0970042152166
-0.42  0.26  0.0759624990187
-0.42  0.28  0.0594850568533
-0.42  0.3  0.046581827014
-0.42  0.32  0.0364775075077
-0.42  0.34  0.0285649713476
-0.42  0.36  0.0223687867905
-0.42  0.38  0.0175166505994
-0.42  0.4  0.0137170178739
-0.42  0.42  0.0107415843163
-0.42  0.44  0.00841156836603
-0.42  0.46  0.00658696895102
-0.42  0.48  0.00515815339943
-0.42  0.5  0.00403927006334
-0.42  0.52  0.00316308984654
-0.42  0.54  0.00247696668467
-0.42  0.56  0.00193967425986
-0.42  0.58  0.00151892888089
-0.42  0.6  0.00118944968904
-0.42  0.62  0.00093143963522
-0.42  0.64  0.00072939595685
-0.42  0.66  0.000571178680563
-0.42  0.68  0.000447281181182
-0.42  0.7  0.000350258967724
-0.42  0.72  0.000274282374561
-0.42  0.74  0.000214786280802
-0.42  0.76  0.000168195810957
-0.42  0.78  0.000131711535383
-0.42  0.8  0.000103141264067
-0.42  0.82  0.0000807683269535
-0.42  0.84  0.0000632484263003
-0.42  0.86  0.0000495288633596
-0.42  0.88  0.000038785286041
-0.42  0.9  0.0000303721569856
-0.42  0.92  0.000023783965883
-0.42  0.94  0.0000186248554355
-0.42  0.96  0.0000145848359227
-0.42  0.98  0.0000114211591939
-0.4  -1  0.0000115086748242
-0.4  -0.98  0.0000146965935024
-0.4  -0.96  0.0000187675700177
-0.4  -0.94  0.0000239662125997
-0.4  -0.92  0.0000306048862924
-0.4  -0.9  0.0000390824816842
-0.4  -0.88  0.0000499083826028
-0.4  -0.86  0.0000637330728933
-0.4  -0.84  0.0000813872213161
-0.4  -0.82  0.000103931593015
-0.4  -0.8  0.000132720786531
-0.4  -0.78  0.000169484626055
-0.4  -0.76  0.000216432099446
-0.4  -0.74  0.000276384087222
-0.4  -0.72  0.000352942857669
-0.4  -0.7  0.000450708512316
-0.4  -0.68  0.000575555387111
-0.4  -0.66  0.000734985017102
-0.4  -0.64  0.000938576872812
-0.4  -0.62  0.00119856395121
-0.4  -0.6  0.00153056780617
-0.4  -0.58  0.00195453718336
-0.4  -0.56  0.00249594665832
-0.4  -0.54  0.00318732729887
-0.4  -0.52  0.00407022132315
-0.4  -0.5  0.00519767820056
-0.4  -0.48  0.00663744217617
-0.4  -0.46  0.00847602274362
-0.4  -0.44  0.0108238926447
-0.4  -0.42  0.0138221257219
-0.4  -0.4  0.0176508734652
-0.4  -0.38  0.0225401895738
-0.4  -0.36  0.0287838529365
-0.4  -0.34  0.0367570195963
-0.4  -0.32  0.0469387643337
-0.4  -0.3  0.0599408662991
-0.4  -0.28  0.0765445683049
-0.4  -0.26  0.0977475184917
-0.4  -0.24  0.124823714901
-0.4  -0.22  0.159400054774
-0.4  -0.2  0.147137065516
-0.4  -0.18  0.148231618399
-0.4  -0.16  0.153315918508
-0.4  -0.14  0.161527887706
-0.4  -0.12  0.171649109079
-0.4  -0.1  0.182416435391
-0.4  -0.08  0.192708479964
-0.4  -0.06  0.201616284295
-0.4  -0.04  0.208452735503
-0.4  -0.02  0.2127410576
-0.4  6.17561557e-16  0.2142012638
-0.4  0.02  0.2127410576
-0.4  0.04  0.208452735503
-0.4  0.06  0.201616284295
-0.4  0.08  0.192708479964
-0.4  0.1  0.182416435391
-0.4  0.12  0.171649109079
-0.4  0.14  0.161527887706
-0.4  0.16  0.153315918508
-0.4  0.18  0.148231618399
-0.4  0.2  0.203554088117
-0.4  0.22  0.159400054774
-0.4  0.24  0.124823714901
-0.4  0.26  0.0977475184916
-0.4  0.28  0.0765445683048
-0.4  0.3  0.059940866299
-0.4  0.32  0.0469387643336
-0.4  0.34  0.0367570195962
-0.4  0.36  0.0287838529364
-0.4  0.38  0.0225401895738
-0.4  0.4  0.0176508734652
-0.4  0.42  0.0138221257219
-0.4  0.44  0.0108238926447
-0.4  0.46  0.00847602274361
-0.4  0.48  0.00663744217616
-0.4  0.5  0.00519767820056
-0.4  0.52  0.00407022132314
-0.4  0.54  0.00318732729887
-0.4  0.56  0.00249594665832
-0.4  0.58  0.00195453718336
-0.4  0.6  0.00153056780616
-0.4  0.62  0.00119856395121
-0.4  0.64  0.000938576872811
-0.4  0.66  0.000734985017102
-0.4  0.68  0.000575555387111
-0.4  0.7  0.000450708512315
-0.4  0.72  0.000352942857669
-0.4  0.74  0.000276384087222
-0.4  0.76  0.000216432099446
-0.4  0.78  0.000169484626055
-0.4  0.8  0.000132720786531
-0.4  0.82  0.000103931593015
-0.4  0.84  0.0000813872213161
-0.4  0.86  0.0000637330728933
-0.4  0.88  0.0000499083826028
-0.4  0.9  0.0000390824816842
-0.4  0.92  0.0000306048862924
-0.4  0.94  0.0000239662125997
-0.4  0.96  0.0000187675700177
-0.4  0.98  0.0000146965935024
-0.38  -1  0.0000148092074342
-0.38  -0.98  0.0000189113781628
-0.38  -0.96  0.0000241498557979
-0.38  -0.94  0.0000308393989078
-0.38  -0.92  0.000039381954615
-0.38  -0.9  0.0000502908099454
-0.38  -0.88  0.0000642214331332
-0.38  -0.86  0.0000820108580108
-0.38  -0.84  0.000104727977928
-0.38  -0.82  0.000133737771155
-0.38  -0.8  0.000170783316811
-0.38  -0.78  0.000218090529319
-0.38  -0.76  0.00027850190444
-0.38  -0.74  0.000355647313155
-0.38  -0.72  0.000454162105673
-0.38  -0.7  0.000579965630555
-0.38  -0.68  0.000740616904016
-0.38  -0.66  0.00094576880011
-0.38  -0.64  0.00120774805221
-0.38  -0.62  0.00154229591572
-0.38  -0.6  0.00196951399531
-0.38  -0.58  0.00251507206768
-0.38  -0.56  0.0032117504728
-0.38  -0.54  0.00410140974968
-0.38  -0.52  0.00523750586393
-0.38  -0.5  0.0066883021568
-0.38  -0.48  0.0085409710085
-0.38  -0.46  0.0109068316679
-0.38  -0.44  0.013928038968
-0.38  -0.42  0.0177861248254
-0.38  -0.4  0.0227129057459
-0.38  -0.38  0.0290044117246
-0.38  -0.36  0.0370386734706
-0.38  -0.34  0.0472984367168
-0.38  -0.32  0.0604001684246
-0.38  -0.3  0.0771310977477
-0.38  -0.28  0.098496517393
-0.38  -0.26  0.125780187523
-0.38  -0.24  0.160621471622
-0.38  -0.22  0.205113839103
-0.38  -0.2  0.189333990036
-0.38  -0.18  0.190742445913
-0.38  -0.16  0.197284854672
-0.38  -0.14  0.207851905802
-0.38  -0.12  0.22087575686
-0.38  -0.1  0.234731007035
-0.38  -0.08  0.247974671082
-0.38  -0.06  0.25943711347
-0.38  -0.04  0.268234166614
-0.38  -0.02  0.27375232161
-0.38  6.17561557e-16  0.27563129524
-0.38  0.02  0.27375232161
-0.38  0.04  0.268234166614
-0.38  0.06  0.25943711347
-0.38  0.08  0.247974671082
-0.38  0.1  0.234731007035
-0.38  0.12  0.22087575686
-0.38  0.14  0.207851905802
-0.38  0.16  0.197284854672
-0.38  0.18  0.190742445913
-0.38  0.2  0.261930653274
-0.38  0.22  0.205113839103
-0.38  0.24  0.160621471622
-0.38  0.26  0.125780187523
-0.38  0.28  0.098496517393
-0.38  0.3  0.0771310977477
-0.38  0.32  0.0604001684245
-0.38  0.34  0.0472984367167
-0.38  0.36  0.0370386734706
-0.38  0.38  0.0290044117246
-0.38  0.4  0.0227129057459
-0.38  0.42  0.0177861248254
-0.38  0.44  0.013928038968
-0.38  0.46  0.0109068316679
-0.38  0.48  0.00854097100849
-0.38  0.5  0.0066883021568
-0.38  0.52  0.00523750586393
-0.38  0.54  0.00410140974968
-0.38  0.56  0.0032117504728
-0.38  0.58  0.00251507206768
-0.38  0.6  0.00196951399531
-0.38  0.62  0.00154229591572
-0.38  0.64  0.00120774805221
-0.38  0.66  0.000945768800109
-0.38  0.68  0.000740616904016
-0.38  0.7  0.000579965630555
-0.38  0.72  0.000454162105673
-0.38  0.74  0.000355647313155
-0.38  0.76  0.00027850190444
-0.38  0.78  0.000218090529319
-0.38  0.8  0.000170783316811
-0.38  0.82  0.000133737771155
-0.38  0.84  0.000104727977928
-0.38  0.86  0.0000820108580108
-0.38  0.88  0.0000642214331331
-0.38  0.9  0.0000502908099454
-0.38  0.92  0.000039381954615
-0.38  0.94  0.0000308393989077
-0.38  0.96  0.0000241498557979
-0.38  0.98  0.0000189113781628
-0.36  -1  0.0000190562882504
-0.36  -0.98  0.0000243349061781
-0.36  -0.96  0.0000310757084965
-0.36  -0.94  0.0000396837222833
-0.36  -0.92  0.0000506761676709
-0.36  -0.9  0.0000647135354761
-0.36  -0.88  0.0000826392733762
-0.36  -0.86  0.00010553046521
-0.36  -0.84  0.000134762548512
-0.36  -0.82  0.000172091958899
-0.36  -0.8  0.000219761667056
-0.36  -0.78  0.000280635949618
-0.36  -0.76  0.000358372491768
-0.36  -0.74  0.000457642162491
-0.36  -0.72  0.000584409667875
-0.36  -0.7  0.000746291945756
-0.36  -0.68  0.000953015836179
-0.36  -0.66  0.00121700252719
-0.36  -0.64  0.00155411389293
-0.36  -0.62  0.00198460556839
-0.36  -0.6  0.00253434402716
-0.36  -0.58  0.00323636079143
-0.36  -0.56  0.00413283716025
-0.36  -0.54  0.00527763871025
-0.36  -0.52  0.00673955185648
-0.36  -0.5  0.00860641694514
-0.36  -0.48  0.0109904062185
-0.36  -0.46  0.0140347637836
-0.36  -0.44  0.017922412561
-0.36  -0.42  0.0228869453708
-0.36  -0.4  0.0292266605638
-0.36  -0.38  0.0373224855424
-0.36  -0.36  0.0476608651209
-0.36  -0.34  0.0608629899927
-0.36  -0.32  0.0777221215237
-0.36  -0.3  0.0992512555639
-0.36  -0.28  0.1267439892
-0.36  -0.26  0.161852247683
-0.36  -0.24  0.206685541818
-0.36  -0.22  0.263937719791
-0.36  -0.2  0.243632422987
-0.36  -0.18  0.245444805001
-0.36  -0.16  0.253863488291
-0.36  -0.14  0.267461027064
-0.36  -0.12  0.284219942826
-0.36  -0.1  0.302048691751
-0.36  -0.08  0.3190904599
-0.36  -0.06  0.33384017606
-0.36  -0.04  0.345160105313
-0.36  -0.02  0.352260792686
-0.36  6.17561557e-16  0.354678630593
-0.36  0.02  0.352260792686
-0.36  0.04  0.345160105313
-0.36  0.06  0.33384017606
-0.36  0.08  0.3190904599
-0.36  0.1  0.302048691751
-0.36  0.12  0.284219942826
-0.36  0.14  0.267461027064
-0.36  0.16  0.253863488291
-0.36  0.18  0.245444805001
-0.36  0.2  0.337048829424
-0.36  0.22  0.263937719791
-0.36  0.24  0.206685541818
-0.36  0.26  0.161852247683
-0.36  0.28  0.1267439892
-0.36  0.3  0.0992512555638
-0.36  0.32  0.0777221215237
-0.36  0.34  0.0608629899927
-0.36  0.36  0.0476608651209
-0.36  0.38  0.0373224855424
-0.36  0.4  0.0292266605638
-0.36  0.42  0.0228869453708
-0.36  0.44  0.017922412561
-0.36  0.46  0.0140347637836
-0.36  0.48  0.0109904062185
-0.36  0.5  0.00860641694513
-0.36  0.52  0.00673955185648
-0.36  0.54  0.00527763871025
-0.36  0.56  0.00413283716025
-0.36  0.58  0.00323636079143
-0.36  0.6  0.00253434402715
-0.36  0.62  0.00198460556839
-0.36  0.64  0.00155411389293
-0.36  0.66  0.00121700252719
-0.36  0.68  0.000953015836178
-0.36  0.7  0.000746291945756
-0.36  0.72  0.000584409667874
-0.36  0.74  0.000457642162491
-0.36  0.76  0.000358372491767
-0.36  0.78  0.000280635949618
-0.36  0.8  0.000219761667056
-0.36  0.82  0.000172091958899
-0.36  0.84  0.000134762548512
-0.36  0.86  0.00010553046521
-0.36  0.88  0.0000826392733761
-0.36  0.9  0.000064713535476
-0.36  0.92  0.0000506761676708
-0.36  0.94  0.0000396837222833
-0.36  0.96  0.0000310757084965
-0.36  0.98  0.0000243349061781
-0.34  -1  0.000024521374523
-0.34  -0.98  0.0000313138288282
-0.34  -0.96  0.0000399878022728
-0.34  -0.94  0.0000510644782336
-0.34  -0.92  0.0000652094085961
-0.34  -0.9  0.0000832725040292
-0.34  -0.88  0.00010633910162
-0.34  -0.86  0.000135795178315
-0.34  -0.84  0.000173410628571
-0.34  -0.82  0.000221445610032
-0.34  -0.8  0.000282786347103
-0.34  -0.78  0.000361118552299
-0.34  -0.76  0.000461148885548
-0.34  -0.74  0.000588887758019
-0.34  -0.72  0.000752010473
-0.34  -0.7  0.000960318403295
-0.34  -0.68  0.00122632791539
-0.34  -0.66  0.00156602242643
-0.34  -0.64  0.00199981278196
-0.34  -0.62  0.00255376365971
-0.34  -0.6  0.00326115968878
-0.34  -0.58  0.00416450538611
-0.34  -0.56  0.00531807907801
-0.34  -0.54  0.00679119426146
-0.34  -0.52  0.00867236436698
-0.34  -0.5  0.0110746211665
-0.34  -0.48  0.0141423063874
-0.34  -0.46  0.0180597446133
-0.34  -0.44  0.0230623185895
-0.34  -0.42  0.0294506124041
-0.34  -0.4  0.037608472349
-0.34  -0.38  0.0480260706643
-0.34  -0.36  0.0613293579716
-0.34  -0.34  0.078317674071
-0.34  -0.32  0.100011776982
-0.34  -0.3  0.127715176092
-0.34  -0.28  0.163092454673
-0.34  -0.26  0.208269287841
-0.34  -0.24  0.265960165631
-0.34  -0.22  0.33963149553
-0.34  -0.2  0.313502913658
-0.34  -0.18  0.315835062372
-0.34  -0.16  0.326668110405
-0.34  -0.14  0.344165239775
-0.34  -0.12  0.365730386388
-0.34  -0.1  0.388672179874
-0.34  -0.08  0.410601297121
-0.34  -0.06  0.429581032801
-0.34  -0.04  0.444147364983
-0.34  -0.02  0.453284433658
-0.34  6.17561557e-16  0.456395674844
-0.34  0.02  0.453284433658
-0.34  0.04  0.444147364983
-0.34  0.06  0.429581032801
-0.34  0.08  0.410601297121
-0.34  0.1  0.388672179874
-0.34  0.12  0.365730386388
-0.34  0.14  0.344165239775
-0.34  0.16  0.326668110405
-0.34  0.18  0.315835062372
-0.34  0.2  0.433709884645
-0.34  0.22  0.33963149553
-0.34  0.24  0.265960165631
-0.34  0.26  0.208269287841
-0.34  0.28  0.163092454673
-0.34  0.3  0.127715176092
-0.34  0.32  0.100011776982
-0.34  0.34  0.078317674071
-0.34  0.36  0.0613293579715
-0.34  0.38  0.0480260706643
-0.34  0.4  0.037608472349
-0.34  0.42  0.0294506124041
-0.34  0.44  0.0230623185895
-0.34  0.46  0.0180597446133
-0.34  0.48  0.0141423063874
-0.34  0.5  0.0110746211665
-0.34  0.52  0.00867236436698
-0.34  0.54  0.00679119426146
-0.34  0.56  0.00531807907801
-0.34  0.58  0.00416450538611
-0.34  0.6  0.00326115968877
-0.34  0.62  0.00255376365971
-0.34  0.64  0.00199981278196
-0.34  0.66  0.00156602242643
-0.34  0.68  0.00122632791539
-0.34  0.7  0.000960318403295
-0.34  0.72  0.000752010472999
-0.34  0.74  0.000588887758018
-0.34  0.76  0.000461148885548
-0.34  0.78  0.000361118552299
-0.34  0.8  0.000282786347103
-0.34  0.82  0.000221445610032
-0.34  0.84  0.000173410628571
-0.34  0.86  0.000135795178315
-0.34  0.88  0.00010633910162
-0.34  0.9  0.0000832725040292
-0.34  0.92  0.0000652094085961
-0.34  0.94  0.0000510644782335
-0.34  0.96  0.0000399878022728
-0.34  0.98  0.0000313138288282
-0.32  -1  0.0000315537737777
-0.32  -0.98  0.0000402942123017
-0.32  -0.96  0.0000514557642599
-0.32  -0.94  0.0000657090813873
-0.32  -0.92  0.0000839105868674
-0.32  -0.9  0.000107153934278
-0.32  -0.88  0.000136835720734
-0.32  -0.86  0.000174739402664
-0.32  -0.84  0.000223142456368
-0.32  -0.82  0.000284953222197
-0.32  -0.8  0.00036388565476
-0.32  -0.78  0.000464682479178
-0.32  -0.76  0.00059340016192
-0.32  -0.74  0.000757772818957
-0.32  -0.72  0.000967676926971
-0.32  -0.7  0.0012357247602
-0.32  -0.68  0.00157802221011
-0.32  -0.66  0.00201513652214
-0.32  -0.64  0.00257333209689
-0.32  -0.62  0.00328614860984
-0.32  -0.6  0.00419641627251
-0.32  -0.58  0.00535882932362
-0.32  -0.56  0.00684323238089
-0.32  -0.54  0.00873881711671
-0.32  -0.52  0.0111594814188
-0.32  -0.5  0.0142506730458
-0.32  -0.48  0.0181981289844
-0.32  -0.46  0.0232390356208
-0.32  -0.44  0.029676280295
-0.32  -0.42  0.0378966505545
-0.32  -0.4  0.0483940746272
-0.32  -0.38  0.0617992995358
-0.32  -0.36  0.0789177900918
-0.32  -0.34  0.100778125962
-0.32  -0.32  0.128693804788
-0.32  -0.3  0.164342164857
-0.32  -0.28  0.209865169457
-0.32  -0.26  0.267998108639
-0.32  -0.24  0.342233951541
-0.32  -0.22  0.437033224532
-0.32  -0.2  0.40341131803
-0.32  -0.18  0.406412295518
-0.32  -0.16  0.420352115516
-0.32  -0.14  0.442867185436
-0.32  -0.12  0.470616925038
-0.32  -0.1  0.500138115257
-0.32  -0.08  0.528356207358
-0.32  -0.06  0.552779075068
-0.32  -0.04  0.571522834721
-0.32  -0.02  0.583280291372
-0.32  6.17561557e-16  0.587283794538
-0.32  0.02  0.583280291372
-0.32  0.04  0.571522834721
-0.32  0.06  0.552779075068
-0.32  0.08  0.528356207358
-0.32  0.1  0.500138115257
-0.32  0.12  0.470616925038
-0.32  0.14  0.442867185436
-0.32  0.16  0.420352115516
-0.32  0.18  0.406412295518
-0.32  0.2  0.558092025894
-0.32  0.22  0.437033224532
-0.32  0.24  0.34223395154
-0.32  0.26  0.267998108639
-0.32  0.28  0.209865169457
-0.32  0.3  0.164342164857
-0.32  0.32  0.128693804788
-0.32  0.34  0.100778125962
-0.32  0.36  0.0789177900917
-0.32  0.38  0.0617992995357
-0.32  0.4  0.0483940746272
-0.32  0.42  0.0378966505545
-0.32  0.44  0.0296762802949
-0.32  0.46  0.0232390356208
-0.32  0.48  0.0181981289844
-0.32  0.5  0.0142506730458
-0.32  0.52  0.0111594814188
-0.32  0.54  0.0087388171167
-0.32  0.56  0.00684323238088
-0.32  0.58  0.00535882932362
-0.32  0.6  0.00419641627251
-0.32  0.62  0.00328614860984
-0.32  0.64  0.00257333209689
-0.32  0.66  0.00201513652214
-0.32  0.68  0.00157802221011
-0.32  0.7  0.0012357247602
-0.32  0.72  0.00096767692697
-0.32  0.74  0.000757772818957
-0.32  0.76  0.00059340016192
-0.32  0.78  0.000464682479178
-0.32  0.8  0.00036388565476
-0.32  0.82  0.000284953222196
-0.32  0.84  0.000223142456368
-0.32  0.86  0.000174739402664
-0.32  0.88  0.000136835720734
-0.32  0.9  0.000107153934278
-0.32  0.92  0.0000839105868674
-0.32  0.94  0.0000657090813872
-0.32  0.96  0.0000514557642599
-0.32  0.98  0.0000402942123017
-0.3  -1  0.0000406029702243
-0.3  -0.98  0.0000518500485496
-0.3  -0.96  0.0000662125829649
-0.3  -0.94  0.0000845535590712
-0.3  -0.92  0.000107975010662
-0.3  -0.9  0.000137884236401
-0.3  -0.88  0.000176078358606
-0.3  -0.86  0.000224852304937
-0.3  -0.84  0.00028713670116
-0.3  -0.82  0.000366673960385
-0.3  -0.8  0.000468243149277
-0.3  -0.78  0.00059794714251
-0.3  -0.76  0.000763579319395
-0.3  -0.74  0.000975091835976
-0.3  -0.72  0.00124519360915
-0.3  -0.7  0.00159011394318
-0.3  -0.68  0.00203057768182
-0.3  -0.66  0.00259305047893
-0.3  -0.64  0.0033113290107
-0.3  -0.62  0.00422857167887
-0.3  -0.6  0.00539989182156
-0.3  -0.58  0.00689566924695
-0.3  -0.56  0.00880577906644
-0.3  -0.54  0.0112449919203
-0.3  -0.52  0.0143598700732
-0.3  -0.5  0.0183375737378
-0.3  -0.48  0.0234171067618
-0.3  -0.46  0.0299036773857
-0.3  -0.44  0.0381870369507
-0.3  -0.42  0.0487648984526
-0.3  -0.4  0.0622728420683
-0.3  -0.38  0.0795225045539
-0.3  -0.36  0.101550347158
-0.3  -0.34  0.129679932312
-0.3  -0.32  0.165601451055
-0.3  -0.3  0.211473279656
-0.3  -0.28  0.270051667564
-0.3  -0.26  0.344856349098
-0.3  -0.24  0.440382029802
-0.3  -0.22  0.562368454807
-0.3  -0.2  0.519104239306
-0.3  -0.18  0.522965856634
-0.3  -0.16  0.540903428866
-0.3  -0.14  0.569875516959
-0.3  -0.12  0.605583507348
-0.3  -0.1  0.643570976481
-0.3  -0.08  0.679881636546
-0.3  -0.06  0.711308653085
-0.3  -0.04  0.735427870028
-0.3  -0.02  0.750557206558
-0.3  6.17561557e-16  0.755708860399
-0.3  0.02  0.750557206558
-0.3  0.04  0.735427870028
-0.3  0.06  0.711308653085
-0.3  0.08  0.679881636546
-0.3  0.1  0.643570976481
-0.3  0.12  0.605583507348
-0.3  0.14  0.569875516959
-0.3  0.16  0.540903428866
-0.3  0.18  0.522965856634
-0.3  0.2  0.718145286501
-0.3  0.22  0.562368454807
-0.3  0.24  0.440382029802
-0.3  0.26  0.344856349098
-0.3  0.28  0.270051667563
-0.3  0.3  0.211473279656
-0.3  0.32  0.165601451055
-0.3  0.34  0.129679932312
-0.3  0.36  0.101550347158
-0.3  0.38  0.0795225045539
-0.3  0.4  0.0622728420683
-0.3  0.42  0.0487648984525
-0.3  0.44  0.0381870369507
-0.3  0.46  0.0299036773857
-0.3  0.48  0.0234171067618
-0.3  0.5  0.0183375737378
-0.3  0.52  0.0143598700732
-0.3  0.54  0.0112449919203
-0.3  0.56  0.00880577906643
-0.3  0.58  0.00689566924694
-0.3  0.6  0.00539989182155
-0.3  0.62  0.00422857167887
-0.3  0.64  0.0033113290107
-0.3  0.66  0.00259305047893
-0.3  0.68  0.00203057768182
-0.3  0.7  0.00159011394317
-0.3  0.72  0.00124519360915
-0.3  0.74  0.000975091835976
-0.3  0.76  0.000763579319394
-0.3  0.78  0.00059794714251
-0.3  0.8  0.000468243149277
-0.3  0.82  0.000366673960384
-0.3  0.84  0.00028713670116
-0.3  0.86  0.000224852304937
-0.3  0.88  0.000176078358606
-0.3  0.9  0.000137884236401
-0.3  0.92  0.000107975010662
-0.3  0.94  0.0000845535590711
-0.3  0.96  0.0000662125829648
-0.3  0.98  0.0000518500485496
-0.28  -1  0.0000522473540771
-0.28  -0.98  0.0000667199426673
-0.28  -0.96  0.0000852014581056
-0.28  -0.94  0.000108802378616
-0.28  -0.92  0.00013894078641
-0.28  -0.9  0.000177427574414
-0.28  -0.88  0.000226575255371
-0.28  -0.86  0.000289336911222
-0.28  -0.84  0.000369483631645
-0.28  -0.82  0.000471831103322
-0.28  -0.8  0.000602528964737
-0.28  -0.78  0.000769430312649
-0.28  -0.76  0.00098256356237
-0.28  -0.74  0.00125473501398
-0.28  -0.72  0.0016022983302
-0.28  -0.7  0.00204613716073
-0.28  -0.68  0.0026129199548
-0.28  -0.66  0.00333670235858
-0.28  -0.64  0.00426097347884
-0.28  -0.62  0.00544126896447
-0.28  -0.6  0.00694850791508
-0.28  -0.58  0.00887325411796
-0.28  -0.56  0.0113311576534
-0.28  -0.54  0.0144699038324
-0.28  -0.52  0.0184780869989
-0.28  -0.5  0.0235965423885
-0.28  -0.48  0.0301328169266
-0.28  -0.46  0.038479648458
-0.28  -0.44  0.0491385637479
-0.28  -0.42  0.0627500131619
-0.28  -0.4  0.0801318526935
-0.28  -0.38  0.102328485566
-0.28  -0.36  0.130673616124
-0.28  -0.34  0.166870386644
-0.28  -0.32  0.213093712139
-0.28  -0.3  0.272120962063
-0.28  -0.28  0.347498841005
-0.28  -0.26  0.443756495585
-0.28  -0.24  0.56667765223
-0.28  -0.22  0.723648137508
-0.28  -0.2  0.667976328927
-0.28  -0.18  0.672945405986
-0.28  -0.16  0.696027231835
-0.28  -0.14  0.733308123764
-0.28  -0.12  0.779256683856
-0.28  -0.1  0.82813844643
-0.28  -0.08  0.874862513725
-0.28  -0.06  0.915302374447
-0.28  -0.04  0.946338657278
-0.28  -0.02  0.965806883329
-0.28  6.17561557e-16  0.97243596196
-0.28  0.02  0.965806883329
-0.28  0.04  0.946338657278
-0.28  0.06  0.915302374447
-0.28  0.08  0.874862513725
-0.28  0.1  0.82813844643
-0.28  0.12  0.779256683856
-0.28  0.14  0.733308123764
-0.28  0.16  0.696027231835
-0.28  0.18  0.672945405986
-0.28  0.2  0.924099662053
-0.28  0.22  0.723648137508
-0.28  0.24  0.56667765223
-0.28  0.26  0.443756495584
-0.28  0.28  0.347498841005
-0.28  0.3  0.272120962062
-0.28  0.32  0.213093712139
-0.28  0.34  0.166870386644
-0.28  0.36  0.130673616124
-0.28  0.38  0.102328485566
-0.28  0.4  0.0801318526935
-0.28  0.42  0.0627500131618
-0.28  0.44  0.0491385637478
-0.28  0.46  0.038479648458
-0.28  0.48  0.0301328169266
-0.28  0.5  0.0235965423885
-0.28  0.52  0.0184780869989
-0.28  0.54  0.0144699038324
-0.28  0.56  0.0113311576534
-0.28  0.58  0.00887325411795
-0.28  0.6  0.00694850791507
-0.28  0.62  0.00544126896446
-0.28  0.64  0.00426097347884
-0.28  0.66  0.00333670235858
-0.28  0.68  0.0026129199548
-0.28  0.7  0.00204613716073
-0.28  0.72  0.0016022983302
-0.28  0.74  0.00125473501398
-0.28  0.76  0.000982563562369
-0.28  0.78  0.000769430312648
-0.28  0.8  0.000602528964736
-0.28  0.82  0.000471831103322
-0.28  0.84  0.000369483631645
-0.28  0.86  0.000289336911222
-0.28  0.88  0.000226575255371
-0.28  0.9  0.000177427574414
-0.28  0.92  0.00013894078641
-0.28  0.94  0.000108802378616
-0.28  0.96  0.0000852014581055
-0.28  0.98  0.0000667199426673
-0.26  -1  0.0000672311900578
-0.26  -0.98  0.000085854321723
-0.26  -0.96  0.000109636086349
-0.26  -0.94  0.000140005432326
-0.26  -0.92  0.000178787128706
-0.26  -0.9  0.000228311408063
-0.26  -0.88  0.000291553980585
-0.26  -0.86  0.000372314832257
-0.26  -0.84  0.000475446550379
-0.26  -0.82  0.000607145895576
-0.26  -0.8  0.00077532613965
-0.26  -0.78  0.00099009254152
-0.26  -0.76  0.00126434953066
-0.26  -0.74  0.00161457608116
-0.26  -0.72  0.00206181586551
-0.26  -0.7  0.00263294168226
-0.26  -0.68  0.00336227013195
-0.26  -0.66  0.00429362356043
-0.26  -0.64  0.00548296316335
-0.26  -0.62  0.00700175146411
-0.26  -0.6  0.00894124620296
-0.26  -0.58  0.011417983639
-0.26  -0.56  0.0145807807348
-0.26  -0.54  0.0186196769551
-0.26  -0.52  0.0237773529563
-0.26  -0.5  0.0303637122692
-0.26  -0.48  0.0387745021265
-0.26  -0.46  0.0495150922862
-0.26  -0.44  0.0632308406207
-0.26  -0.42  0.0807458700165
-0.26  -0.4  0.103112586528
-0.26  -0.38  0.131674914126
-0.26  -0.36  0.168149045562
-0.26  -0.34  0.214726561328
-0.26  -0.32  0.274206112711
-0.26  -0.3  0.350161581238
-0.26  -0.28  0.447156818506
-0.26  -0.26  0.571019869255
-0.26  -0.24  0.729193154592
-0.26  -0.22  0.931180656459
-0.26  -0.2  0.859542924564
-0.26  -0.18  0.865937065857
-0.26  -0.16  0.895638447831
-0.26  -0.14  0.943610996395
-0.26  -0.12  1.00273698337
-0.26  -0.1  1.0656373757
-0.26  -0.08  1.12576127488
-0.26  -0.06  1.17779874185
-0.26  -0.04  1.2177358117
-0.26  -0.02  1.24278726223
-0.26  6.17561557e-16  1.25131747114
-0.26  0.02  1.24278726223
-0.26  0.04  1.2177358117
-0.26  0.06  1.17779874185
-0.26  0.08  1.12576127488
-0.26  0.1  1.0656373757
-0.26  0.12  1.00273698337
-0.26  0.14  0.943610996395
-0.26  0.16  0.895638447831
-0.26  0.18  0.865937065857
-0.26  0.2  1.1891189728
-0.26  0.22  0.931180656459
-0.26  0.24  0.729193154592
-0.26  0.26  0.571019869255
-0.26  0.28  0.447156818506
-0.26  0.3  0.350161581238
-0.26  0.32  0.274206112711
-0.26  0.34  0.214726561328
-0.26  0.36  0.168149045562
-0.26  0.38  0.131674914126
-0.26  0.4  0.103112586528
-0.26  0.42  0.0807458700164
-0.26  0.44  0.0632308406206
-0.26  0.46  0.0495150922861
-0.26  0.48  0.0387745021265
-0.26  0.5  0.0303637122692
-0.26  0.52  0.0237773529563
-0.26  0.54  0.018619676955
-0.26  0.56  0.0145807807348
-0.26  0.58  0.011417983639
-0.26  0.6  0.00894124620295
-0.26  0.62  0.00700175146411
-0.26  0.64  0.00548296316334
-0.26  0.66  0.00429362356043
-0.26  0.68  0.00336227013195
-0.26  0.7  0.00263294168226
-0.26  0.72  0.00206181586551
-0.26  0.74  0.00161457608116
-0.26  0.76  0.00126434953066
-0.26  0.78  0.00099009254152
-0.26  0.8  0.000775326139649
-0.26  0.82  0.000607145895576
-0.26  0.84  0.000475446550378
-0.26  0.86  0.000372314832257
-0.26  0.88  0.000291553980585
-0.26  0.9  0.000228311408063
-0.26  0.92  0.000178787128706
-0.26  0.94  0.000140005432326
-0.26  0.96  0.000109636086349
-0.26  0.98  0.0000858543217229
-0.24  -1  0.0000865121879649
-0.24  -0.98  0.00011047618244
-0.24  -0.96  0.000141078236185
-0.24  -0.94  0.000180157100701
-0.24  -0.92  0.000230060864176
-0.24  -0.9  0.000293788038437
-0.24  -0.88  0.000375167727191
-0.24  -0.86  0.000479089701114
-0.24  -0.84  0.000611798204052
-0.24  -0.82  0.000781267143941
-0.24  -0.8  0.000997679212131
-0.24  -0.78  0.00127403771941
-0.24  -0.76  0.00162694791146
-0.24  -0.74  0.00207761470974
-0.24  -0.72  0.00265311682796
-0.24  -0.7  0.00338803382062
-0.24  -0.68  0.00432652382613
-0.24  -0.66  0.00552497684767
-0.24  -0.64  0.0070554029965
-0.24  -0.62  0.00900975928325
-0.24  -0.6  0.0115054749363
-0.24  -0.58  0.0146925072412
-0.24  -0.56  0.0187623518567
-0.24  -0.54  0.0239595490009
-0.24  -0.52  0.0305963768676
-0.24  -0.5  0.0390716151371
-0.24  -0.48  0.0498945060073
-0.24  -0.46  0.0637153524618
-0.24  -0.44  0.0813645923008
-0.24  -0.42  0.103902695732
-0.24  -0.4  0.132683884661
-0.24  -0.38  0.169437502316
-0.24  -0.36  0.216371922366
-0.24  -0.34  0.276307241009
-0.24  -0.32  0.35284472495
-0.24  -0.3  0.450583196699
-0.24  -0.28  0.575395358897
-0.24  -0.26  0.734780660854
-0.24  -0.24  0.938315909603
-0.24  -0.22  1.19823070083
-0.24  -0.2  1.10604823431
-0.24  -0.18  1.11427612902
-0.24  -0.16  1.15249546647
-0.24  -0.14  1.2142258945
-0.24  -0.12  1.29030841652
-0.24  -0.1  1.37124779243
-0.24  -0.08  1.44861441441
-0.24  -0.06  1.51557552457
-0.24  -0.04  1.56696600704
-0.24  -0.02  1.59920187547
-0.24  6.17561557e-16  1.61017843316
-0.24  0.02  1.59920187547
-0.24  0.04  1.56696600704
-0.24  0.06  1.51557552457
-0.24  0.08  1.44861441441
-0.24  0.1  1.37124779243
-0.24  0.12  1.29030841652
-0.24  0.14  1.2142258945
-0.24  0.16  1.15249546647
-0.24  0.18  1.11427612902
-0.24  0.2  1.53014224498
-0.24  0.22  1.19823070083
-0.24  0.24  0.938315909603
-0.24  0.26  0.734780660854
-0.24  0.28  0.575395358897
-0.24  0.3  0.450583196699
-0.24  0.32  0.35284472495
-0.24  0.34  0.276307241009
-0.24  0.36  0.216371922366
-0.24  0.38  0.169437502316
-0.24  0.4  0.132683884661
-0.24  0.42  0.103902695732
-0.24  0.44  0.0813645923008
-0.24  0.46  0.0637153524618
-0.24  0.48  0.0498945060073
-0.24  0.5  0.0390716151371
-0.24  0.52  0.0305963768676
-0.24  0.54  0.0239595490009
-0.24  0.56  0.0187623518566
-0.24  0.58  0.0146925072412
-0.24  0.6  0.0115054749363
-0.24  0.62  0.00900975928324
-0.24  0.64  0.0070554029965
-0.24  0.66  0.00552497684767
-0.24  0.68  0.00432652382613
