0.5  -0.06  2.36354872046
0.5  -0.04  2.42965562867
0.5  -0.02  2.47134162325
0.5  6.17561557e-16  2.48557246169
0.5  0.02  2.47134162325
0.5  0.04  2.42965562867
0.5  0.06  2.36354872046
0.5  0.08  2.27811748236
0.5  0.1  2.18053816634
0.5  0.12  2.07997432706
0.5  0.14  1.98718903502
0.5  0.16  1.9135800534
0.5  0.18  1.86941020296
0.5  0.2  2.56533760133
0.5  0.22  2.04427979081
0.5  0.24  1.6290564879
0.5  0.26  1.29817114697
0.5  0.28  1.03449348709
0.5  0.3  0.824372639407
0.5  0.32  0.656930427387
0.5  0.34  0.523498192198
0.5  0.36  0.417168007157
0.5  0.38  0.33243504713
0.5  0.4  0.264912597956
0.5  0.42  0.211104951665
0.5  0.44  0.168226430004
0.5  0.46  0.134057166963
0.5  0.48  0.106828183976
0.5  0.5  0.0851298080519
0.5  0.52  0.0678386915256
0.5  0.54  0.0540596551692
0.5  0.56  0.0430793438271
0.5  0.58  0.0343292952715
0.5  0.6  0.0273565103165
0.5  0.62  0.0218000005761
0.5  0.64  0.0173720997167
0.5  0.66  0.0138435706693
0.5  0.68  0.0110317377866
0.5  0.7  0.00879102953268
0.5  0.72  0.00700544209258
0.5  0.74  0.00558253373283
0.5  0.76  0.00444863899613
0.5  0.78  0.00354505496339
0.5  0.8  0.0028250021421
0.5  0.82  0.00225120264291
0.5  0.84  0.0017939502643
0.5  0.86  0.00142957257131
0.5  0.88  0.00113920534884
0.5  0.9  0.000907815981415
0.5  0.92  0.000723425198935
0.5  0.94  0.00057648689731
0.5  0.96  0.000459393926641
0.5  0.98  0.000366084261099
0.52  -1  0.00022594538772
0.52  -0.98  0.000283535649852
0.52  -0.96  0.000355804849783
0.52  -0.94  0.000446494439748
0.52  -0.92  0.000560299514882
0.52  -0.9  0.000703111883216
0.52  -0.88  0.000882325090757
0.52  -0.86  0.00110721719311
0.52  -0.84  0.00138943109016
0.52  -0.82  0.00174357729117
0.52  -0.8  0.00218799031619
0.52  -0.78  0.00274567789336
0.52  -0.76  0.00344551209314
0.52  -0.74  0.00432372406562
0.52  -0.72  0.00542577976518
0.52  -0.7  0.00680873377057
0.52  -0.68  0.00854418306028
0.52  -0.66  0.0107219736632
0.52  -0.64  0.0134548520816
0.52  -0.62  0.0168843022958
0.52  -0.6  0.0211878705383
0.52  -0.58  0.026588357048
0.52  -0.56  0.0333653506725
0.52  -0.54  0.0418697034753
0.52  -0.52  0.0525416947156
0.52  -0.5  0.0659338245664
0.52  -0.48  0.0827394176278
0.52  -0.46  0.103828517069
0.52  -0.44  0.130292927673
0.52  -0.42  0.163502739718
0.52  -0.4  0.205177259984
0.52  -0.38  0.25747402207
0.52  -0.36  0.323100484167
0.52  -0.34  0.405454197008
0.52  -0.32  0.508798698632
0.52  -0.3  0.638484242216
0.52  -0.28  0.801224784288
0.52  -0.26  1.0054455733
0.52  -0.24  1.26171933356
0.52  -0.22  1.58331362628
0.52  -0.2  1.44170641344
0.52  -0.18  1.44787551135
0.52  -0.16  1.48208546949
0.52  -0.14  1.53909630732
0.52  -0.12  1.61095937512
0.52  -0.1  1.68884699977
0.52  -0.08  1.76442308353
0.52  -0.06  1.83059036846
0.52  -0.04  1.88179078097
0.52  -0.02  1.91407696975
0.52  6.17561557e-16  1.92509888588
0.52  0.02  1.91407696975
0.52  0.04  1.88179078097
0.52  0.06  1.83059036846
0.52  0.08  1.76442308353
0.52  0.1  1.68884699977
0.52  0.12  1.61095937512
0.52  0.14  1.53909630732
0.52  0.16  1.48208546949
0.52  0.18  1.44787551135
0.52  0.2  1.98687772509
0.52  0.22  1.58331362628
0.52  0.24  1.26171933357
0.52  0.26  1.0054455733
0.52  0.28  0.801224784288
0.52  0.3  0.638484242216
0.52  0.32  0.508798698633
0.52  0.34  0.405454197008
0.52  0.36  0.323100484167
0.52  0.38  0.25747402207
0.52  0.4  0.205177259984
0.52  0.42  0.163502739718
0.52  0.44  0.130292927673
0.52  0.46  0.103828517069
0.52  0.48  0.0827394176279
0.52  0.5  0.0659338245664
0.52  0.52  0.0525416947156
0.52  0.54  0.0418697034754
0.52  0.56  0.0333653506725
0.52  0.58  0.026588357048
0.52  0.6  0.0211878705383
0.52  0.62  0.0168843022958
0.52  0.64  0.0134548520816
0.52  0.66  0.0107219736632
0.52  0.68  0.00854418306029
0.52  0.7  0.00680873377057
0.52  0.72  0.00542577976518
0.52  0.74  0.00432372406562
0.52  0.76  0.00344551209314
0.52  0.78  0.00274567789337
0.52  0.8  0.00218799031619
0.52  0.82  0.00174357729117
0.52  0.84  0.00138943109016
0.52  0.86  0.00110721719311
0.52  0.88  0.000882325090757
0.52  0.9  0.000703111883216
0.52  0.92  0.000560299514882
0.52  0.94  0.000446494439749
0.52  0.96  0.000355804849783
0.52  0.98  0.000283535649852
0.54  -1  0.000174996794853
0.54  -0.98  0.000219600986111
0.54  -0.96  0.00027557415061
0.54  -0.94  0.000345814077747
0.54  -0.92  0.000433957162177
0.54  -0.9  0.000544566663773
0.54  -0.88  0.000683368952377
0.54  -0.86  0.000857549967963
0.54  -0.84  0.00107612724429
0.54  -0.82  0.00135041675607
0.54  -0.8  0.00169461875883
0.54  -0.78  0.00212655295107
0.54  -0.76  0.00266858101867
0.54  -0.74  0.00334876432286
0.54  -0.72  0.00420231666627
0.54  -0.7  0.00527342734843
0.54  -0.68  0.00661754889211
0.54  -0.66  0.00830426787856
0.54  -0.64  0.0104209075177
0.54  -0.62  0.0130770484625
0.54  -0.6  0.0164102019137
0.54  -0.58  0.0205929287194
0.54  -0.56  0.0258417730308
0.54  -0.54  0.0324284730198
0.54  -0.52  0.040694029049
0.54  -0.5  0.0510663576182
0.54  -0.48  0.0640824450499
0.54  -0.46  0.0804161478341
0.54  -0.44  0.100913078885
0.54  -0.42  0.126634385809
0.54  -0.4  0.158911687626
0.54  -0.38  0.199416014085
0.54  -0.36  0.250244316625
0.54  -0.34  0.314028029747
0.54  -0.32  0.394069303137
0.54  -0.3  0.494511957421
0.54  -0.28  0.620556014096
0.54  -0.26  0.778726906098
0.54  -0.24  0.977213306302
0.54  -0.22  1.2262910637
0.54  -0.2  1.11661496619
0.54  -0.18  1.12139298965
0.54  -0.16  1.14788891898
0.54  -0.14  1.19204434075
0.54  -0.12  1.24770295215
0.54  -0.1  1.30802763862
0.54  -0.08  1.36656201527
0.54  -0.06  1.4178091901
0.54  -0.04  1.45746438365
0.54  -0.02  1.48247033581
0.54  6.17561557e-16  1.4910069119
0.54  0.02  1.48247033581
0.54  0.04  1.45746438365
0.54  0.06  1.4178091901
0.54  0.08  1.36656201527
0.54  0.1  1.30802763862
0.54  0.12  1.24770295215
0.54  0.14  1.19204434075
0.54  0.16  1.14788891898
0.54  0.18  1.12139298965
0.54  0.2  1.53885519489
0.54  0.22  1.2262910637
0.54  0.24  0.977213306302
0.54  0.26  0.778726906098
0.54  0.28  0.620556014096
0.54  0.3  0.494511957421
0.54  0.32  0.394069303137
0.54  0.34  0.314028029747
0.54  0.36  0.250244316625
0.54  0.38  0.199416014085
0.54  0.4  0.158911687626
0.54  0.42  0.126634385809
0.54  0.44  0.100913078885
0.54  0.46  0.0804161478341
0.54  0.48  0.0640824450499
0.54  0.5  0.0510663576182
0.54  0.52  0.040694029049
0.54  0.54  0.0324284730198
0.54  0.56  0.0258417730308
0.54  0.58  0.0205929287194
0.54  0.6  0.0164102019137
0.54  0.62  0.0130770484625
0.54  0.64  0.0104209075178
0.54  0.66  0.00830426787856
0.54  0.68  0.00661754889212
0.54  0.7  0.00527342734843
0.54  0.72  0.00420231666627
0.54  0.74  0.00334876432286
0.54  0.76  0.00266858101867
0.54  0.78  0.00212655295107
0.54  0.8  0.00169461875883
0.54  0.82  0.00135041675607
0.54  0.84  0.00107612724429
0.54  0.86  0.000857549967964
0.54  0.88  0.000683368952377
0.54  0.9  0.000544566663773
0.54  0.92  0.000433957162177
0.54  0.94  0.000345814077747
0.54  0.96  0.00027557415061
0.54  0.98  0.000219600986111
0.56  -1  0.000135536637936
0.56  -0.98  0.000170082997063
0.56  -0.96  0.000213434731231
0.56  -0.94  0.000267836205161
0.56  -0.92  0.000336103840183
0.56  -0.9  0.00042177192332
0.56  -0.88  0.000529275581036
0.56  -0.86  0.000664180390377
0.56  -0.84  0.000833470514732
0.56  -0.82  0.00104591028129
0.56  -0.8  0.00131249791945
0.56  -0.78  0.00164703495069
0.56  -0.76  0.00206684070777
0.56  -0.74  0.00259364897479
0.56  -0.72  0.00325473316793
0.56  -0.7  0.00408431830885
0.56  -0.68  0.00512535288986
0.56  -0.66  0.00643173236246
0.56  -0.64  0.0080710893613
0.56  -0.62  0.0101282951166
0.56  -0.6  0.0127098533268
0.56  -0.58  0.0159494139663
0.56  -0.56  0.0200146924854
0.56  -0.54  0.0251161526141
0.56  -0.52  0.0315179022908
0.56  -0.5  0.0395513668067
0.56  -0.48  0.0496324470405
0.56  -0.46  0.0622830510832
0.56  -0.44  0.0781581139665
0.56  -0.42  0.0980795043365
0.56  -0.4  0.123078573454
0.56  -0.38  0.154449549333
0.56  -0.36  0.193816540277
0.56  -0.34  0.243217616673
0.56  -0.32  0.305210324029
0.56  -0.3  0.383004089786
0.56  -0.28  0.480626378742
0.56  -0.26  0.603131199127
0.56  -0.24  0.756860753901
0.56  -0.22  0.949773783259
0.56  -0.2  0.86482863023
0.56  -0.18  0.868529253636
0.56  -0.16  0.889050596235
0.56  -0.14  0.923249379236
0.56  -0.12  0.966357489117
0.56  -0.1  1.01307951734
0.56  -0.08  1.05841493403
0.56  -0.06  1.09810634545
0.56  -0.04  1.12881966003
0.56  -0.02  1.14818700151
0.56  6.17561557e-16  1.15479865874
0.56  0.02  1.14818700151
0.56  0.04  1.12881966003
0.56  0.06  1.09810634545
0.56  0.08  1.05841493403
0.56  0.1  1.01307951734
0.56  0.12  0.966357489117
0.56  0.14  0.923249379236
0.56  0.16  0.889050596235
0.56  0.18  0.868529253636
0.56  0.2  1.19185759695
0.56  0.22  0.94977378326
0.56  0.24  0.756860753902
0.56  0.26  0.603131199127
0.56  0.28  0.480626378743
0.56  0.3  0.383004089786
0.56  0.32  0.305210324029
0.56  0.34  0.243217616673
0.56  0.36  0.193816540277
0.56  0.38  0.154449549333
0.56  0.4  0.123078573454
0.56  0.42  0.0980795043365
0.56  0.44  0.0781581139665
0.56  0.46  0.0622830510832
0.56  0.48  0.0496324470405
0.56  0.5  0.0395513668067
0.56  0.52  0.0315179022908
0.56  0.54  0.0251161526141
0.56  0.56  0.0200146924854
0.56  0.58  0.0159494139664
0.56  0.6  0.0127098533268
0.56  0.62  0.0101282951166
0.56  0.64  0.00807108936131
0.56  0.66  0.00643173236246
0.56  0.68  0.00512535288986
0.56  0.7  0.00408431830885
0.56  0.72  0.00325473316793
0.56  0.74  0.00259364897479
0.56  0.76  0.00206684070777
0.56  0.78  0.00164703495069
0.56  0.8  0.00131249791946
0.56  0.82  0.00104591028129
0.56  0.84  0.000833470514732
0.56  0.86  0.000664180390377
0.56  0.88  0.000529275581036
0.56  0.9  0.00042177192332
0.56  0.92  0.000336103840183
0.56  0.94  0.000267836205161
0.56  0.96  0.000213434731231
0.56  0.98  0.000170082997063
0.58  -1  0.000104974381036
0.58  -0.98  0.00013173085605
0.58  -0.96  0.000165307175564
0.58  -0.94  0.000207441620835
0.58  -0.92  0.000260315536259
0.58  -0.9  0.000326666259863
0.58  -0.88  0.000409928838157
0.58  -0.86  0.000514413862096
0.58  -0.84  0.000645530630893
0.58  -0.82  0.000810067197107
0.58  -0.8  0.00101654179124
0.58  -0.78  0.00127564381946
0.58  -0.76  0.00160078726537
0.58  -0.74  0.00200880514597
0.58  -0.72  0.00252082097465
0.58  -0.7  0.00316334234754
0.58  -0.68  0.00396963326964
0.58  -0.66  0.00498143626713
0.58  -0.64  0.0062511334418
0.58  -0.62  0.00784445834729
0.58  -0.6  0.00984389908411
0.58  -0.58  0.012352968795
0.58  -0.56  0.0155015646491
0.58  -0.54  0.019452692754
0.58  -0.52  0.0244109071534
0.58  -0.5  0.030632899804
0.58  -0.48  0.0384407897874
0.58  -0.46  0.0482387997524
0.58  -0.44  0.0605341829452
0.58  -0.42  0.075963484242
0.58  -0.4  0.0953254947442
0.58  -0.38  0.119622606031
0.58  -0.36  0.150112705022
0.58  -0.34  0.188374296103
0.58  -0.32  0.23638822195
0.58  -0.3  0.296640213834
0.58  -0.28  0.372249580531
0.58  -0.26  0.467130698209
0.58  -0.24  0.586195661788
0.58  -0.22  0.735608589238
0.58  -0.2  0.669817781696
0.58  -0.18  0.672683948789
0.58  -0.16  0.688577918642
0.58  -0.14  0.715065192728
0.58  -0.12  0.748452822976
0.58  -0.1  0.784639466444
0.58  -0.08  0.819752166438
0.58  -0.06  0.850493532085
0.58  -0.04  0.87428127861
0.58  -0.02  0.889281463908
0.58  6.17561557e-16  0.894402253651
0.58  0.02  0.889281463908
0.58  0.04  0.87428127861
0.58  0.06  0.850493532085
0.58  0.08  0.819752166438
0.58  0.1  0.784639466444
0.58  0.12  0.748452822976
0.58  0.14  0.715065192728
0.58  0.16  0.688577918642
0.58  0.18  0.672683948789
0.58  0.2  0.923104744429
0.58  0.22  0.735608589238
0.58  0.24  0.586195661788
0.58  0.26  0.467130698209
0.58  0.28  0.372249580531
0.58  0.3  0.296640213834
0.58  0.32  0.23638822195
0.58  0.34  0.188374296103
0.58  0.36  0.150112705022
0.58  0.38  0.119622606031
0.58  0.4  0.0953254947442
0.58  0.42  0.075963484242
0.58  0.44  0.0605341829452
0.58  0.46  0.0482387997524
0.58  0.48  0.0384407897875
0.58  0.5  0.0306328998041
0.58  0.52  0.0244109071534
0.58  0.54  0.019452692754
0.58  0.56  0.0155015646491
0.58  0.58  0.012352968795
0.58  0.6  0.00984389908411
0.58  0.62  0.0078444583473
0.58  0.64  0.00625113344181
0.58  0.66  0.00498143626714
0.58  0.68  0.00396963326964
0.58  0.7  0.00316334234754
0.58  0.72  0.00252082097465
0.58  0.74  0.00200880514597
0.58  0.76  0.00160078726537
0.58  0.78  0.00127564381946
0.58  0.8  0.00101654179124
0.58  0.82  0.000810067197107
0.58  0.84  0.000645530630893
0.58  0.86  0.000514413862097
0.58  0.88  0.000409928838157
0.58  0.9  0.000326666259863
0.58  0.92  0.00026031553626
0.58  0.94  0.000207441620835
0.58  0.96  0.000165307175564
0.58  0.98  0.00013173085605
0.6  -1  0.0000813036300868
0.6  -0.98  0.000102026767727
0.6  -0.96  0.000128031938079
0.6  -0.94  0.000160665456071
0.6  -0.92  0.000201616793135
0.6  -0.9  0.000253006042918
0.6  -0.88  0.000317493680748
0.6  -0.86  0.000398418299232
0.6  -0.84  0.000499969450696
0.6  -0.82  0.000627404544698
0.6  -0.8  0.000787321029635
0.6  -0.78  0.000987997949559
0.6  -0.76  0.00123982455897
0.6  -0.74  0.0015558381854
0.6  -0.72  0.00195239918554
0.6  -0.7  0.00245003793805
0.6  -0.68  0.00307451772279
0.6  -0.66  0.00385816851279
0.6  -0.64  0.0048415607309
0.6  -0.62  0.00607560562304
0.6  -0.6  0.00762419098684
0.6  -0.58  0.00956748870983
0.6  -0.56  0.0120061053521
0.6  -0.54  0.0150662906535
0.6  -0.52  0.0189064736147
0.6  -0.5  0.023725464533
0.6  -0.48  0.0297727476196
0.6  -0.46  0.0373613970588
0.6  -0.44  0.0468842851865
0.6  -0.42  0.0588344219032
0.6  -0.4  0.073830478313
0.6  -0.38  0.0926488159753
0.6  -0.36  0.116263679957
0.6  -0.34  0.145897636519
0.6  -0.32  0.183084866656
0.6  -0.3  0.229750592252
0.6  -0.28  0.288310746838
0.6  -0.26  0.361797050999
0.6  -0.24  0.454013967732
0.6  -0.22  0.569735663479
0.6  -0.2  0.518780073871
0.6  -0.18  0.520999946822
0.6  -0.16  0.533309973638
0.6  -0.14  0.553824612668
0.6  -0.12  0.579683641436
0.6  -0.1  0.60771053186
0.6  -0.08  0.63490564312
0.6  -0.06  0.658715115452
0.6  -0.04  0.67713894539
0.6  -0.02  0.688756727793
0.6  6.17561557e-16  0.692722826863
0.6  0.02  0.688756727793
0.6  0.04  0.67713894539
0.6  0.06  0.658715115452
0.6  0.08  0.63490564312
0.6  0.1  0.60771053186
0.6  0.12  0.579683641436
0.6  0.14  0.553824612668
0.6  0.16  0.533309973638
0.6  0.18  0.520999946822
0.6  0.2  0.714953171731
0.6  0.22  0.569735663479
0.6  0.24  0.454013967732
0.6  0.26  0.361797050999
0.6  0.28  0.288310746838
0.6  0.3  0.229750592252
0.6  0.32  0.183084866656
0.6  0.34  0.145897636519
0.6  0.36  0.116263679957
0.6  0.38  0.0926488159754
0.6  0.4  0.073830478313
0.6  0.42  0.0588344219032
0.6  0.44  0.0468842851865
0.6  0.46  0.0373613970588
0.6  0.48  0.0297727476197
0.6  0.5  0.023725464533
0.6  0.52  0.0189064736147
0.6  0.54  0.0150662906535
0.6  0.56  0.0120061053521
0.6  0.58  0.00956748870983
0.6  0.6  0.00762419098684
0.6  0.62  0.00607560562304
0.6  0.64  0.0048415607309
0.6  0.66  0.00385816851279
0.6  0.68  0.00307451772279
0.6  0.7  0.00245003793805
0.6  0.72  0.00195239918554
0.6  0.74  0.0015558381854
0.6  0.76  0.00123982455897
0.6  0.78  0.000987997949559
0.6  0.8  0.000787321029635
0.6  0.82  0.000627404544698
0.6  0.84  0.000499969450696
0.6  0.86  0.000398418299232
0.6  0.88  0.000317493680748
0.6  0.9  0.000253006042918
0.6  0.92  0.000201616793135
0.6  0.94  0.000160665456071
0.6  0.96  0.000128031938079
0.6  0.98  0.000102026767727
0.62  -1  0.0000629704143052
0.62  -0.98  0.0000790206762866
0.62  -0.96  0.0000991619215101
0.62  -0.94  0.000124436883353
0.62  -0.92  0.000156154073084
0.62  -0.9  0.000195955522862
0.62  -0.88  0.000245901795463
0.62  -0.86  0.000308578661772
0.62  -0.84  0.000387230968859
0.62  -0.82  0.000485930629105
0.62  -0.8  0.00060978742738
0.62  -0.78  0.00076521355996
0.62  -0.76  0.000960255600648
0.62  -0.74  0.00120501108034
0.62  -0.72  0.00151215124677
0.62  -0.7  0.0018975770683
0.62  -0.68  0.00238124244374
0.62  -0.66  0.00298818723654
0.62  -0.64  0.00374983361484
0.62  -0.62  0.00470561281003
0.62  -0.6  0.00590500651288
0.62  -0.58  0.00741010859263
0.62  -0.56  0.00929883976162
0.62  -0.54  0.0116689816123
0.62  -0.52  0.0146432388726
0.62  -0.5  0.0183755919586
0.62  -0.48  0.0230592687019
0.62  -0.46  0.028936747957
0.62  -0.44  0.0363123129859
0.62  -0.42  0.0455678045211
0.62  -0.4  0.0571823890613
0.62  -0.38  0.0717573658227
0.62  -0.36  0.09004729663
0.62  -0.34  0.112999070373
0.62  -0.32  0.141800924436
0.62  -0.3  0.177943960996
0.62  -0.28  0.22329934294
0.62  -0.26  0.280215165934
0.62  -0.24  0.351638021795
0.62  -0.22  0.441265546636
0.62  -0.2  0.401799970678
0.62  -0.18  0.403519282834
0.62  -0.16  0.413053512583
0.62  -0.14  0.42894229046
0.62  -0.12  0.448970347674
0.62  -0.1  0.470677433812
0.62  -0.08  0.491740299286
0.62  -0.06  0.510180956064
0.62  -0.04  0.52445038294
0.62  -0.02  0.533448462981
0.62  6.17561557e-16  0.536520243434
0.62  0.02  0.533448462981
0.62  0.04  0.52445038294
0.62  0.06  0.510180956064
0.62  0.08  0.491740299286
0.62  0.1  0.470677433812
0.62  0.12  0.448970347674
0.62  0.14  0.42894229046
0.62  0.16  0.413053512583
0.62  0.18  0.403519282834
0.62  0.2  0.553737851369
0.62  0.22  0.441265546636
0.62  0.24  0.351638021795
0.62  0.26  0.280215165934
0.62  0.28  0.22329934294
0.62  0.3  0.177943960996
0.62  0.32  0.141800924436
0.62  0.34  0.112999070373
0.62  0.36  0.0900472966301
0.62  0.38  0.0717573658228
0.62  0.4  0.0571823890613
0.62  0.42  0.0455678045211
0.62  0.44  0.0363123129859
0.62  0.46  0.028936747957
0.62  0.48  0.0230592687019
0.62  0.5  0.0183755919586
0.62  0.52  0.0146432388726
0.62  0.54  0.0116689816123
0.62  0.56  0.00929883976162
0.62  0.58  0.00741010859263
0.62  0.6  0.00590500651288
0.62  0.62  0.00470561281003
0.62  0.64  0.00374983361485
0.62  0.66  0.00298818723654
0.62  0.68  0.00238124244374
0.62  0.7  0.0018975770683
0.62  0.72  0.00151215124677
0.62  0.74  0.00120501108034
0.62  0.76  0.000960255600649
0.62  0.78  0.00076521355996
0.62  0.8  0.000609787427381
0.62  0.82  0.000485930629105
0.62  0.84  0.000387230968859
0.62  0.86  0.000308578661772
0.62  0.88  0.000245901795463
0.62  0.9  0.000195955522862
0.62  0.92  0.000156154073084
0.62  0.94  0.000124436883353
0.62  0.96  0.0000991619215101
0.62  0.98  0.0000790206762866
0.64  -1  0.0000487711689323
0.64  -0.98  0.0000612022454487
0.64  -0.96  0.0000768018263653
0.64  -0.94  0.0000963775183376
0.64  -0.92  0.000120942775459
0.64  -0.9  0.00015176936684
0.64  -0.88  0.000190453217429
0.64  -0.86  0.000238997030721
0.64  -0.84  0.000299913970813
0.64  -0.82  0.000376357771549
0.64  -0.8  0.000472286008623
0.64  -0.78  0.000592664987421
0.64  -0.76  0.000743726853858
0.64  -0.74  0.000933292239107
0.64  -0.72  0.00117117514187
0.64  -0.7  0.00146969100936
0.64  -0.68  0.00184429432097
0.64  -0.66  0.00231437868279
0.64  -0.64  0.00290428085499
0.64  -0.62  0.00364454069137
0.64  -0.6  0.0045734822196
0.64  -0.58  0.00573919771634
0.64  -0.56  0.00720203749478
0.64  -0.54  0.00903773430361
0.64  -0.52  0.0113413240908
0.64  -0.5  0.0142320661144
0.64  -0.48  0.017859617119
0.64  -0.46  0.0224117792226
0.64  -0.44  0.0281242226289
0.64  -0.42  0.035292686521
0.64  -0.4  0.0442882897886
0.64  -0.38  0.0555767442423
0.64  -0.36  0.0697424650019
0.64  -0.34  0.0875188262798
0.64  -0.32  0.109826128933
0.64  -0.3  0.137819245402
0.64  -0.28  0.17294740867
0.64  -0.26  0.217029240572
0.64  -0.24  0.272346903751
0.64  -0.22  0.341764251616
0.64  -0.2  0.311197797619
0.64  -0.18  0.312529420803
0.64  -0.16  0.319913770022
0.64  -0.14  0.332219775605
0.64  -0.12  0.34773169136
0.64  -0.1  0.364544030563
0.64  -0.08  0.380857414897
0.64  -0.06  0.395139874316
0.64  -0.04  0.406191677555
0.64  -0.02  0.413160773862
0.64  6.17561557e-16  0.415539896264
0.64  0.02  0.413160773862
0.64  0.04  0.406191677555
0.64  0.06  0.395139874316
0.64  0.08  0.380857414897
0.64  0.1  0.364544030563
0.64  0.12  0.34773169136
0.64  0.14  0.332219775605
0.64  0.16  0.319913770022
0.64  0.18  0.312529420803
0.64  0.2  0.42887509303
0.64  0.22  0.341764251616
0.64  0.24  0.272346903751
0.64  0.26  0.217029240572
0.64  0.28  0.172947408671
0.64  0.3  0.137819245402
0.64  0.32  0.109826128933
0.64  0.34  0.0875188262798
0.64  0.36  0.0697424650019
0.64  0.38  0.0555767442424
0.64  0.4  0.0442882897887
0.64  0.42  0.035292686521
0.64  0.44  0.0281242226289
0.64  0.46  0.0224117792226
0.64  0.48  0.017859617119
0.64  0.5  0.0142320661144
0.64  0.52  0.0113413240908
0.64  0.54  0.00903773430361
0.64  0.56  0.00720203749478
0.64  0.58  0.00573919771635
0.64  0.6  0.0045734822196
0.64  0.62  0.00364454069137
0.64  0.64  0.00290428085499
0.64  0.66  0.00231437868279
0.64  0.68  0.00184429432097
0.64  0.7  0.00146969100936
0.64  0.72  0.00117117514187
0.64  0.74  0.000933292239107
0.64  0.76  0.000743726853859
0.64  0.78  0.000592664987421
0.64  0.8  0.000472286008623
0.64  0.82  0.000376357771549
0.64  0.84  0.000299913970813
0.64  0.86  0.000238997030721
0.64  0.88  0.000190453217429
0.64  0.9  0.00015176936684
0.64  0.92  0.000120942775459
0.64  0.94  0.0000963775183377
0.64  0.96  0.0000768018263653
0.64  0.98  0.0000612022454488
0.66  -1  0.0000377737219179
0.66  -0.98  0.0000474017057812
0.66  -0.96  0.00005948372564
0.66  -0.94  0.000074645280327
0.66  -0.92  0.0000936712994209
0.66  -0.9  0.000117546779874
0.66  -0.88  0.000147507780335
0.66  -0.86  0.000185105413204
0.66  -0.84  0.000232286147345
0.66  -0.82  0.00029149257882
0.66  -0.8  0.000365789886648
0.66  -0.78  0.000459024520335
0.66  -0.76  0.000576023334596
0.66  -0.74  0.000722843480687
0.66  -0.72  0.000907085991468
0.66  -0.7  0.00113828929485
0.66  -0.68  0.0014284230282
0.66  -0.66  0.00179250771902
0.66  -0.64  0.00224939241338
0.66  -0.62  0.00282273051083
0.66  -0.6  0.00354220432567
0.66  -0.58  0.00444506177143
0.66  -0.56  0.00557804472449
0.66  -0.54  0.00699980889994
0.66  -0.52  0.00878396051944
0.66  -0.5  0.0110228669825
0.66  -0.48  0.0138324388236
0.66  -0.46  0.0173581305221
0.66  -0.44  0.0217824708327
0.66  -0.42  0.027334512491
0.66  -0.4  0.0343016905135
0.66  -0.38  0.0430447030094
0.66  -0.36  0.0540161849003
0.66  -0.34  0.0677841413042
0.66  -0.32  0.0850613537557
0.66  -0.3  0.106742281654
0.66  -0.28  0.133949369362
0.66  -0.26  0.16809115633
0.66  -0.24  0.210935198658
0.66  -0.22  0.264699577325
0.66  -0.2  0.241025575685
0.66  -0.18  0.24205693017
0.66  -0.16  0.247776177014
0.66  -0.14  0.257307292281
0.66  -0.12  0.26932141466
0.66  -0.1  0.282342727041
0.66  -0.08  0.294977594256
0.66  -0.06  0.30603949132
0.66  -0.04  0.314599215258
0.66  -0.02  0.319996844876
0.66  6.17561557e-16  0.321839497205
0.66  0.02  0.319996844876
0.66  0.04  0.314599215258
0.66  0.06  0.30603949132
0.66  0.08  0.294977594256
0.66  0.1  0.282342727041
0.66  0.12  0.26932141466
0.66  0.14  0.257307292281
0.66  0.16  0.247776177014
0.66  0.18  0.24205693017
0.66  0.2  0.332167730573
0.66  0.22  0.264699577325
0.66  0.24  0.210935198658
0.66  0.26  0.168091156331
0.66  0.28  0.133949369362
0.66  0.3  0.106742281654
0.66  0.32  0.0850613537558
0.66  0.34  0.0677841413042
0.66  0.36  0.0540161849004
0.66  0.38  0.0430447030095
0.66  0.4  0.0343016905135
0.66  0.42  0.027334512491
0.66  0.44  0.0217824708327
0.66  0.46  0.0173581305221
0.66  0.48  0.0138324388237
0.66  0.5  0.0110228669825
0.66  0.52  0.00878396051945
0.66  0.54  0.00699980889994
0.66  0.56  0.0055780447245
0.66  0.58  0.00444506177144
0.66  0.6  0.00354220432567
0.66  0.62  0.00282273051084
0.66  0.64  0.00224939241338
0.66  0.66  0.00179250771902
0.66  0.68  0.0014284230282
0.66  0.7  0.00113828929485
0.66  0.72  0.000907085991468
0.66  0.74  0.000722843480687
0.66  0.76  0.000576023334596
0.66  0.78  0.000459024520335
0.66  0.8  0.000365789886648
0.66  0.82  0.00029149257882
0.66  0.84  0.000232286147345
0.66  0.86  0.000185105413204
0.66  0.88  0.000147507780335
0.66  0.9  0.000117546779874
0.66  0.92  0.0000936712994209
0.66  0.94  0.000074645280327
0.66  0.96  0.00005948372564
0.66  0.98  0.0000474017057812
0.68  -1  0.0000292560973782
0.68  -0.98  0.0000367130600273
0.68  -0.96  0.0000460706962773
0.68  -0.94  0.0000578134607655
0.68  -0.92  0.0000725492887186
0.68  -0.9  0.000091041069396
0.68  -0.88  0.000114246141667
0.68  -0.86  0.000143365856446
0.68  -0.84  0.000179907771892
0.68  -0.82  0.000225763701272
0.68  -0.8  0.000283307654115
0.68  -0.78  0.000355518741179
0.68  -0.76  0.000446135406135
0.68  -0.74  0.000559848968712
0.68  -0.72  0.000702546499243
0.68  -0.7  0.00088161559846
0.68  -0.68  0.00110632686133
0.68  -0.66  0.00138831382549
0.68  -0.64  0.00174217525164
0.68  -0.62  0.00218623091674
0.68  -0.6  0.00274347004805
0.68  -0.58  0.0034427414995
0.68  -0.56  0.00432024728711
0.68  -0.54  0.00542141680532
0.68  -0.52  0.00680325875437
0.68  -0.5  0.00853731254041
0.68  -0.48  0.0107133519456
0.68  -0.46  0.013444032811
0.68  -0.44  0.0168707253472
0.68  -0.42  0.0211708330188
0.68  -0.4  0.0265669769074
0.68  -0.38  0.0333385210384
0.68  -0.36  0.0418360353496
0.68  -0.34  0.052499445064
0.68  -0.32  0.0658808060802
0.68  -0.3  0.0826728854844
0.68  -0.28  0.103745026829
0.68  -0.26  0.13018815696
0.68  -0.24  0.163371264442
0.68  -0.22  0.205012273533
0.68  -0.2  0.186676540061
0.68  -0.18  0.18747533366
0.68  -0.16  0.191904943296
0.68  -0.14  0.19928688032
0.68  -0.12  0.208591929343
0.68  -0.1  0.218677056349
0.68  -0.08  0.228462877995
0.68  -0.06  0.237030419695
0.68  -0.04  0.243660005141
0.68  -0.02  0.247840519257
0.68  6.17561557e-16  0.249267670548
0.68  0.02  0.247840519257
0.68  0.04  0.243660005141
0.68  0.06  0.237030419695
0.68  0.08  0.228462877995
0.68  0.1  0.218677056349
0.68  0.12  0.208591929343
0.68  0.14  0.19928688032
0.68  0.16  0.191904943296
0.68  0.18  0.18747533366
0.68  0.2  0.257266982922
0.68  0.22  0.205012273533
0.68  0.24  0.163371264442
0.68  0.26  0.13018815696
0.68  0.28  0.103745026829
0.68  0.3  0.0826728854844
0.68  0.32  0.0658808060802
0.68  0.34  0.052499445064
0.68  0.36  0.0418360353496
0.68  0.38  0.0333385210384
0.68  0.4  0.0265669769074
0.68  0.42  0.0211708330188
0.68  0.44  0.0168707253472
0.68  0.46  0.013444032811
0.68  0.48  0.0107133519456
0.68  0.5  0.00853731254042
0.68  0.52  0.00680325875437
0.68  0.54  0.00542141680533
0.68  0.56  0.00432024728711
0.68  0.58  0.0034427414995
0.68  0.6  0.00274347004805
0.68  0.62  0.00218623091674
0.68  0.64  0.00174217525164
0.68  0.66  0.00138831382549
0.68  0.68  0.00110632686133
0.68  0.7  0.00088161559846
0.68  0.72  0.000702546499243
0.68  0.74  0.000559848968712
0.68  0.76  0.000446135406135
0.68  0.78  0.000355518741179
0.68  0.8  0.000283307654115
0.68  0.82  0.000225763701272
0.68  0.84  0.000179907771892
0.68  0.86  0.000143365856446
0.68  0.88  0.000114246141667
0.68  0.9  0.000091041069396
0.68  0.92  0.0000725492887186
0.68  0.94  0.0000578134607655
0.68  0.96  0.0000460706962773
0.68  0.98  0.0000367130600273
0.7  -1  0.0000226591183062
0.7  -0.98  0.0000284346049231
0.7  -0.96  0.0000356821808425
0.7  -0.94  0.0000447770606667
0.7  -0.92  0.0000561900958577
0.7  -0.9  0.0000705121512107
0.7  -0.88  0.0000884846945437
0.7  -0.86  0.000111038183264
0.7  -0.84  0.000139340235125
0.7  -0.82  0.000174856077016
0.7  -0.8  0.000219424401302
0.7  -0.78  0.000275352556847
0.7  -0.76  0.000345536002889
0.7  -0.74  0.000433608209997
0.7  -0.72  0.000544128768651
0.7  -0.7  0.000682819444023
0.7  -0.68  0.000856860397755
0.7  -0.66  0.00107526191245
0.7  -0.64  0.00134933086347
0.7  -0.62  0.00169325608767
0.7  -0.6  0.00212484295443
0.7  -0.58  0.00266643516824
0.7  -0.56  0.00334607152571
0.7  -0.54  0.00419893751347
0.7  -0.52  0.00526918689769
0.7  -0.5  0.00661222761086
0.7  -0.48  0.00829759027848
0.7  -0.46  0.0104125278925
0.7  -0.44  0.0130665329901
0.7  -0.42  0.0163970061971
0.7  -0.4  0.0205763696026
0.7  -0.38  0.0258209932308
0.7  -0.36  0.0324023967446
0.7  -0.34  0.0406613063026
0.7  -0.32  0.0510252943097
0.7  -0.3  0.0640309152888
0.7  -0.28  0.0803514838706
0.7  -0.26  0.100831932998
0.7  -0.24  0.126532556991
0.7  -0.22  0.158783904092
0.7  -0.2  0.144582708745
0.7  -0.18  0.145201381783
0.7  -0.16  0.14863215546
0.7  -0.14  0.154349534036
0.7  -0.12  0.161556380662
0.7  -0.1  0.169367404907
0.7  -0.08  0.176946614381
0.7  -0.06  0.183582254755
0.7  -0.04  0.188716930067
0.7  -0.02  0.191954776959
0.7  6.17561557e-16  0.193060118847
0.7  0.02  0.191954776959
0.7  0.04  0.188716930067
0.7  0.06  0.183582254755
0.7  0.08  0.176946614381
0.7  0.1  0.169367404907
0.7  0.12  0.161556380662
0.7  0.14  0.154349534036
0.7  0.16  0.14863215546
0.7  0.18  0.145201381783
0.7  0.2  0.199255660348
0.7  0.22  0.158783904092
0.7  0.24  0.126532556991
0.7  0.26  0.100831932998
0.7  0.28  0.0803514838706
0.7  0.3  0.0640309152888
0.7  0.32  0.0510252943098
0.7  0.34  0.0406613063026
0.7  0.36  0.0324023967446
0.7  0.38  0.0258209932308
0.7  0.4  0.0205763696026
0.7  0.42  0.0163970061971
0.7  0.44  0.0130665329901
0.7  0.46  0.0104125278925
0.7  0.48  0.00829759027848
0.7  0.5  0.00661222761086
0.7  0.52  0.00526918689769
0.7  0.54  0.00419893751347
0.7  0.56  0.00334607152571
0.7  0.58  0.00266643516824
0.7  0.6  0.00212484295443
0.7  0.62  0.00169325608767
0.7  0.64  0.00134933086347
0.7  0.66  0.00107526191245
0.7  0.68  0.000856860397755
0.7  0.7  0.000682819444023
0.7  0.72  0.000544128768651
0.7  0.74  0.000433608209997
0.7  0.76  0.000345536002889
0.7  0.78  0.000275352556847
0.7  0.8  0.000219424401302
0.7  0.82  0.000174856077016
0.7  0.84  0.000139340235125
0.7  0.86  0.000111038183264
0.7  0.88  0.0000884846945438
0.7  0.9  0.0000705121512107
0.7  0.92  0.0000561900958578
0.7  0.94  0.0000447770606668
0.7  0.96  0.0000356821808425
0.7  0.98  0.0000284346049231
0.72  -1  0.0000175496969325
0.72  -0.98  0.0000220228647934
0.72  -0.96  0.0000276361794494
0.72  -0.94  0.0000346802480842
0.72  -0.92  0.0000435197495147
0.72  -0.9  0.0000546123139957
0.72  -0.88  0.0000685322152177
0.72  -0.86  0.0000860001010581
0.72  -0.84  0.000107920302277
0.72  -0.82  0.000135427650669
0.72  -0.8  0.000169946230493
0.72  -0.78  0.00021326310481
0.72  -0.76  0.000267620833609
0.72  -0.74  0.000335833573488
0.72  -0.72  0.000421432769493
0.72  -0.7  0.000528849981728
0.72  -0.68  0.000663646311865
0.72  -0.66  0.000832800307213
0.72  -0.64  0.00104506924742
0.72  -0.62  0.00131144251802
0.72  -0.6  0.00164571054246
0.72  -0.58  0.00206517872674
0.72  -0.56  0.00259156337846
0.72  -0.54  0.0032521159828
0.72  -0.52  0.00408103404049
0.72  -0.5  0.00512123150826
0.72  -0.48  0.00642656049937
0.72  -0.46  0.00806459926395
0.72  -0.44  0.0101201507859
0.72  -0.42  0.0126996331221
0.72  -0.4  0.015936588777
0.72  -0.38  0.0199985983379
0.72  -0.36  0.0250959562976
0.72  -0.34  0.0314925582208
0.72  -0.32  0.039519562894
0.72  -0.3  0.0495925367634
0.72  -0.28  0.0622329682447
0.72  -0.26  0.0780952657256
0.72  -0.24  0.0980006369739
0.72  -0.22  0.122979603924
0.72  -0.2  0.111980646637
0.72  -0.18  0.112459814633
0.72  -0.16  0.115116980612
0.72  -0.14  0.119545143257
0.72  -0.12  0.125126912698
0.72  -0.1  0.1311766233
0.72  -0.08  0.137046791214
0.72  -0.06  0.142186156125
0.72  -0.04  0.146163009697
0.72  -0.02  0.148670752094
0.72  6.17561557e-16  0.149526849621
0.72  0.02  0.148670752094
0.72  0.04  0.146163009697
0.72  0.06  0.142186156125
0.72  0.08  0.137046791214
0.72  0.1  0.1311766233
0.72  0.12  0.125126912698
0.72  0.14  0.119545143257
0.72  0.16  0.115116980612
0.72  0.18  0.112459814633
0.72  0.2  0.154325353879
0.72  0.22  0.122979603924
0.72  0.24  0.0980006369739
0.72  0.26  0.0780952657256
0.72  0.28  0.0622329682447
0.72  0.3  0.0495925367634
0.72  0.32  0.0395195628941
0.72  0.34  0.0314925582208
0.72  0.36  0.0250959562976
0.72  0.38  0.0199985983379
0.72  0.4  0.015936588777
0.72  0.42  0.0126996331221
0.72  0.44  0.0101201507859
0.72  0.46  0.00806459926396
0.72  0.48  0.00642656049937
0.72  0.5  0.00512123150826
0.72  0.52  0.00408103404049
0.72  0.54  0.0032521159828
0.72  0.56  0.00259156337846
0.72  0.58  0.00206517872674
0.72  0.6  0.00164571054246
0.72  0.62  0.00131144251802
0.72  0.64  0.00104506924742
0.72  0.66  0.000832800307213
0.72  0.68  0.000663646311865
0.72  0.7  0.000528849981728
0.72  0.72  0.000421432769493
0.72  0.74  0.000335833573488
0.72  0.76  0.000267620833609
0.72  0.78  0.00021326310481
0.72  0.8  0.000169946230493
0.72  0.82  0.000135427650669
0.72  0.84  0.000107920302277
0.72  0.86  0.0000860001010582
0.72  0.88  0.0000685322152177
0.72  0.9  0.0000546123139957
0.72  0.92  0.0000435197495147
0.72  0.94  0.0000346802480842
0.72  0.96  0.0000276361794494
0.72  0.98  0.0000220228647934
0.74  -1  0.0000135924027696
0.74  -0.98  0.0000170569126956
0.74  -0.96  0.0000214044768712
0.74  -0.94  0.000026860173251
0.74  -0.92  0.0000337064489553
0.74  -0.9  0.0000422977428536
0.74  -0.88  0.0000530788352366
0.74  -0.86  0.0000666078745579
0.74  -0.84  0.0000835852733645
0.74  -0.82  0.000104889969389
0.74  -0.8  0.000131624929075
0.74  -0.78  0.000165174249312
0.74  -0.76  0.000207274813573
0.74  -0.74  0.000260106212202
0.74  -0.72  0.000326403582084
0.74  -0.7  0.000409599207553
0.74  -0.68  0.000514000213344
0.74  -0.66  0.000645011548964
0.74  -0.64  0.000809415808585
0.74  -0.62  0.00101572437306
0.74  -0.6  0.00127461805303
0.74  -0.58  0.00159950004567
0.74  -0.56  0.00200718983231
0.74  -0.54  0.00251879394053
0.74  -0.52  0.00316079865129
0.74  -0.5  0.00396644122143
0.74  -0.48  0.00497743061128
0.74  -0.46  0.00624610680131
0.74  -0.44  0.00783815048772
0.74  -0.42  0.00983598344094
0.74  -0.4  0.0123430355671
0.74  -0.38  0.0154890995828
0.74  -0.36  0.0194370505198
0.74  -0.34  0.0243912779365
0.74  -0.32  0.0306082673792
0.74  -0.3  0.0384098789083
0.74  -0.28  0.0482000101303
0.74  -0.26  0.0604855064007
0.74  -0.24  0.0759024007394
0.74  -0.22  0.0952488419266
0.74  -0.2  0.0867300476663
0.74  -0.18  0.0871011677162
0.74  -0.16  0.0891591673702
0.74  -0.14  0.0925888203398
0.74  -0.12  0.0969119524542
0.74  -0.1  0.10159750933
0.74  -0.08  0.106144008733
0.74  -0.06  0.110124494442
0.74  -0.04  0.113204604356
0.74  -0.02  0.115146874062
0.74  6.17561557e-16  0.115809929524
0.74  0.02  0.115146874062
0.74  0.04  0.113204604356
0.74  0.06  0.110124494442
0.74  0.08  0.106144008733
0.74  0.1  0.10159750933
0.74  0.12  0.0969119524542
0.74  0.14  0.0925888203398
0.74  0.16  0.0891591673702
0.74  0.18  0.0871011677162
0.74  0.2  0.119526415502
0.74  0.22  0.0952488419266
0.74  0.24  0.0759024007395
0.74  0.26  0.0604855064008
0.74  0.28  0.0482000101303
0.74  0.3  0.0384098789083
0.74  0.32  0.0306082673792
0.74  0.34  0.0243912779365
0.74  0.36  0.0194370505198
0.74  0.38  0.0154890995828
0.74  0.4  0.0123430355671
0.74  0.42  0.00983598344095
0.74  0.44  0.00783815048772
0.74  0.46  0.00624610680132
0.74  0.48  0.00497743061129
0.74  0.5  0.00396644122143
0.74  0.52  0.00316079865129
0.74  0.54  0.00251879394053
0.74  0.56  0.00200718983231
0.74  0.58  0.00159950004567
0.74  0.6  0.00127461805303
0.74  0.62  0.00101572437306
0.74  0.64  0.000809415808586
0.74  0.66  0.000645011548964
0.74  0.68  0.000514000213344
0.74  0.7  0.000409599207553
0.74  0.72  0.000326403582084
0.74  0.74  0.000260106212202
0.74  0.76  0.000207274813573
0.74  0.78  0.000165174249312
0.74  0.8  0.000131624929075
0.74  0.82  0.000104889969389
0.74  0.84  0.0000835852733645
0.74  0.86  0.0000666078745579
0.74  0.88  0.0000530788352366
0.74  0.9  0.0000422977428536
0.74  0.92  0.0000337064489553
0.74  0.94  0.000026860173251
0.74  0.96  0.0000214044768713
0.74  0.98  0.0000170569126956
0.76  -1  0.0000105274417992
0.76  -0.98  0.0000132107368154
0.76  -0.96  0.0000165779655242
0.76  -0.94  0.0000208034528854
0.76  -0.92  0.0000261059568091
0.76  -0.9  0.0000327599934815
0.76  -0.88  0.0000411100493559
0.76  -0.86  0.0000515884155778
0.76  -0.84  0.0000647375681499
0.76  -0.82  0.0000812382524841
0.76  -0.8  0.000101944726305
0.76  -0.78  0.000127928985466
0.76  -0.76  0.000160536262302
0.76  -0.74  0.000201454669715
0.76  -0.72  0.000252802596546
0.76  -0.7  0.000317238378792
0.76  -0.68  0.000398097924443
0.76  -0.66  0.000499567416935
0.76  -0.64  0.000626900038256
0.76  -0.62  0.000786687931685
0.76  -0.6  0.000987203483956
0.76  -0.58  0.00123882759539
0.76  -0.56  0.00155458711
0.76  -0.54  0.00195082922884
0.76  -0.52  0.00244806782175
0.76  -0.5  0.00307204545189
0.76  -0.48  0.00385506609525
0.76  -0.46  0.00483766755129
0.76  -0.44  0.00607072012739
0.76  -0.42  0.00761806024791
0.76  -0.4  0.00955979533284
0.76  -0.38  0.0119964510429
0.76  -0.36  0.0150541755983
0.76  -0.34  0.0188912706045
0.76  -0.32  0.0237063864919
0.76  -0.3  0.0297488068575
0.76  -0.28  0.0373313541373
0.76  -0.26  0.0468465847521
0.76  -0.24  0.0587871121649
0.76  -0.22  0.073771109996
0.76  -0.2  0.0671732249646
0.76  -0.18  0.0674606608795
0.76  -0.16  0.0690546006669
0.76  -0.14  0.0717108986475
0.76  -0.12  0.0750592044987
0.76  -0.1  0.0786882116836
0.76  -0.08  0.0822095175675
0.76  -0.06  0.0852924406054
0.76  -0.04  0.0876780142529
0.76  -0.02  0.089182320124
0.76  6.17561557e-16  0.0896958627184
0.76  0.02  0.089182320124
0.76  0.04  0.0876780142529
0.76  0.06  0.0852924406054
0.76  0.08  0.0822095175675
0.76  0.1  0.0786882116836
0.76  0.12  0.0750592044987
0.76  0.14  0.0717108986475
0.76  0.16  0.0690546006669
0.76  0.18  0.0674606608795
0.76  0.2  0.0925743155197
0.76  0.22  0.073771109996
0.76  0.24  0.0587871121649
0.76  0.26  0.0468465847521
0.76  0.28  0.0373313541373
0.76  0.3  0.0297488068575
0.76  0.32  0.0237063864919
0.76  0.34  0.0188912706045
0.76  0.36  0.0150541755983
0.76  0.38  0.0119964510429
0.76  0.4  0.00955979533285
0.76  0.42  0.00761806024792
0.76  0.44  0.0060707201274
0.76  0.46  0.0048376675513
0.76  0.48  0.00385506609525
0.76  0.5  0.00307204545189
0.76  0.52  0.00244806782175
0.76  0.54  0.00195082922884
0.76  0.56  0.00155458711
0.76  0.58  0.00123882759539
0.76  0.6  0.000987203483956
0.76  0.62  0.000786687931685
0.76  0.64  0.000626900038257
0.76  0.66  0.000499567416935
0.76  0.68  0.000398097924443
0.76  0.7  0.000317238378792
0.76  0.72  0.000252802596546
0.76  0.74  0.000201454669715
0.76  0.76  0.000160536262302
0.76  0.78  0.000127928985466
0.76  0.8  0.000101944726305
0.76  0.82  0.0000812382524841
0.76  0.84  0.0000647375681499
0.76  0.86  0.0000515884155778
0.76  0.88  0.000041110049356
0.76  0.9  0.0000327599934815
0.76  0.92  0.0000261059568091
0.76  0.94  0.0000208034528855
0.76  0.96  0.0000165779655242
0.76  0.98  0.0000132107368154
0.78  -1  0.00000815360114871
0.78  -0.98  0.0000102318379838
0.78  -0.96  0.0000128397877964
0.78  -0.94  0.0000161124668822
0.78  -0.92  0.0000202193052678
0.78  -0.9  0.0000253729182813
0.78  -0.88  0.0000318401138705
0.78  -0.86  0.0000399557055302
0.78  -0.84  0.0000501398459473
0.78  -0.82  0.0000629197787465
0.78  -0.8  0.000078957134445
0.78  -0.78  0.0000990821837578
0.78  -0.76  0.000124336821583
0.78  -0.74  0.000156028506994
0.78  -0.72  0.000195797951764
0.78  -0.7  0.000245704061734
0.78  -0.68  0.000308330528532
0.78  -0.66  0.000386919589989
0.78  -0.64  0.000485539884195
0.78  -0.62  0.000609297087156
0.78  -0.6  0.000764598238995
0.78  -0.58  0.00095948344313
0.78  -0.56  0.00120404211086
0.78  -0.54  0.00151093530077
0.78  -0.52  0.00189605119499
0.78  -0.5  0.00237932764704
0.78  -0.48  0.00298578438543
0.78  -0.46  0.0037468183112
0.78  -0.44  0.00470182894841
0.78  -0.42  0.00590025819882
0.78  -0.4  0.00740415000092
0.78  -0.38  0.00929136240973
0.78  -0.36  0.0116595983898
0.78  -0.34  0.0146314640004
0.78  -0.32  0.0183608158391
0.78  -0.3  0.02304072636
0.78  -0.28  0.0289134794362
0.78  -0.26  0.0362831136503
0.78  -0.24  0.0455311626907
0.78  -0.22  0.0571364077501
0.78  -0.2  0.0520262847024
0.78  -0.18  0.05224890648
0.78  -0.16  0.0534834276038
0.78  -0.14  0.0555407549849
0.78  -0.12  0.0581340488691
0.78  -0.1  0.0609447485354
0.78  -0.08  0.0636720325468
0.78  -0.06  0.0660597849849
0.78  -0.04  0.0679074338633
0.78  -0.02  0.069072532689
0.78  6.17561557e-16  0.0694702761834
0.78  0.02  0.069072532689
0.78  0.04  0.0679074338633
0.78  0.06  0.0660597849849
0.78  0.08  0.0636720325468
0.78  0.1  0.0609447485354
0.78  0.12  0.0581340488691
0.78  0.14  0.0555407549849
0.78  0.16  0.0534834276038
0.78  0.18  0.05224890648
0.78  0.2  0.07169966453
0.78  0.22  0.0571364077501
0.78  0.24  0.0455311626907
0.78  0.26  0.0362831136503
0.78  0.28  0.0289134794362
0.78  0.3  0.02304072636
0.78  0.32  0.0183608158391
0.78  0.34  0.0146314640004
0.78  0.36  0.0116595983898
0.78  0.38  0.00929136240973
0.78  0.4  0.00740415000093
0.78  0.42  0.00590025819882
0.78  0.44  0.00470182894841
0.78  0.46  0.0037468183112
0.78  0.48  0.00298578438543
0.78  0.5  0.00237932764704
0.78  0.52  0.00189605119499
0.78  0.54  0.00151093530077
0.78  0.56  0.00120404211086
0.78  0.58  0.000959483443131
0.78  0.6  0.000764598238995
0.78  0.62  0.000609297087156
0.78  0.64  0.000485539884195
0.78  0.66  0.000386919589989
0.78  0.68  0.000308330528532
0.78  0.7  0.000245704061734
0.78  0.72  0.000195797951764
0.78  0.74  0.000156028506994
0.78  0.76  0.000124336821583
0.78  0.78  0.0000990821837579
0.78  0.8  0.000078957134445
0.78  0.82  0.0000629197787466
0.78  0.84  0.0000501398459473
0.78  0.86  0.0000399557055302
0.78  0.88  0.0000318401138705
0.78  0.9  0.0000253729182813
0.78  0.92  0.0000202193052678
0.78  0.94  0.0000161124668822
0.78  0.96  0.0000128397877964
0.78  0.98  0.0000102318379838
0.8  -1  0.00000631503958514
0.8  -0.98  0.00000792465325662
0.8  -0.96  0.00000994453453394
0.8  -0.94  0.0000124792547881
0.8  -0.92  0.0000156600391436
0.8  -0.9  0.0000196515601407
0.8  -0.88  0.0000246604630053
0.8  -0.86  0.0000309460638892
0.8  -0.84  0.0000388337749388
0.8  -0.82  0.0000487319512232
0.8  -0.8  0.0000611530317041
0.8  -0.78  0.0000767400687378
0.8  -0.76  0.0000963000195703
0.8  -0.74  0.000120845523359
0.8  -0.72  0.000151647326565
0.8  -0.7  0.000190300070825
0.8  -0.68  0.000238804849228
0.8  -0.66  0.000299672804995
0.8  -0.64  0.000376055135998
0.8  -0.62  0.000471906235579
0.8  -0.6  0.000592188415636
0.8  -0.58  0.000743128810711
0.8  -0.56  0.000932541763277
0.8  -0.54  0.00117023338043
0.8  -0.52  0.00146850920635
0.8  -0.5  0.0018428112932
0.8  -0.48  0.00231251765236
0.8  -0.46  0.0029019454744
0.8  -0.44  0.00364161005551
0.8  -0.42  0.00456980460639
0.8  -0.4  0.00573458273189
0.8  -0.38  0.00719624621651
0.8  -0.36  0.00903046691097
0.8  -0.34  0.0113322043433
0.8  -0.32  0.0142206218731
0.8  -0.3  0.0178452559035
0.8  -0.28  0.0223937575377
0.8  -0.26  0.0281016074732
0.8  -0.24  0.0352643070841
0.8  -0.22  0.0442526768374
0.8  -0.2  0.0402948392215
0.8  -0.18  0.0404672618495
0.8  -0.16  0.0414234098905
0.8  -0.14  0.0430168289963
0.8  -0.12  0.0450253591213
0.8  -0.1  0.0472022720376
0.8  -0.08  0.0493145787568
0.8  -0.06  0.0511639151286
0.8  -0.04  0.0525949362926
0.8  -0.02  0.053497316121
0.8  6.17561557e-16  0.0538053721402
0.8  0.02  0.053497316121
0.8  0.04  0.0525949362926
0.8  0.06  0.0511639151286
0.8  0.08  0.0493145787568
0.8  0.1  0.0472022720376
0.8  0.12  0.0450253591213
0.8  0.14  0.0430168289963
0.8  0.16  0.0414234098905
0.8  0.18  0.0404672618495
0.8  0.2  0.0555320540569
0.8  0.22  0.0442526768374
0.8  0.24  0.0352643070841
0.8  0.26  0.0281016074732
0.8  0.28  0.0223937575377
0.8  0.3  0.0178452559035
0.8  0.32  0.0142206218731
0.8  0.34  0.0113322043433
0.8  0.36  0.00903046691097
0.8  0.38  0.00719624621651
0.8  0.4  0.0057345827319
0.8  0.42  0.0045698046064
0.8  0.44  0.00364161005551
0.8  0.46  0.0029019454744
0.8  0.48  0.00231251765236
0.8  0.5  0.0018428112932
0.8  0.52  0.00146850920635
0.8  0.54  0.00117023338043
0.8  0.56  0.000932541763277
0.8  0.58  0.000743128810711
0.8  0.6  0.000592188415636
0.8  0.62  0.000471906235579
0.8  0.64  0.000376055135999
0.8  0.66  0.000299672804995
0.8  0.68  0.000238804849229
0.8  0.7  0.000190300070825
0.8  0.72  0.000151647326565
0.8  0.74  0.000120845523359
0.8  0.76  0.0000963000195704
0.8  0.78  0.0000767400687379
0.8  0.8  0.0000611530317041
0.8  0.82  0.0000487319512233
0.8  0.84  0.0000388337749389
0.8  0.86  0.0000309460638892
0.8  0.88  0.0000246604630053
0.8  0.9  0.0000196515601407
0.8  0.92  0.0000156600391436
0.8  0.94  0.0000124792547881
0.8  0.96  0.00000994453453394
0.8  0.98  0.00000792465325662
0.82  -1  0.00000489105663063
0.82  -0.98  0.00000613771732285
0.82  -0.96  0.00000770213407453
0.82  -0.94  0.00000966529838075
0.82  -0.92  0.0000121288453155
0.82  -0.9  0.0000152203152858
0.82  -0.88  0.0000190997569327
0.82  -0.86  0.0000239680130166
0.82  -0.84  0.0000300771182581
0.82  -0.82  0.0000377433474391
0.82  -0.8  0.0000473635892803
0.82  -0.78  0.0000594358937857
0.82  -0.76  0.0000745852568141
0.82  -0.74  0.0000935959767692
0.82  -0.72  0.000117452258551
0.82  -0.7  0.000147389166872
0.82  -0.68  0.000184956566859
0.82  -0.66  0.000232099362186
0.82  -0.64  0.000291258184784
0.82  -0.62  0.00036549574891
0.82  -0.6  0.000458655411075
0.82  -0.58  0.000575560144641
0.82  -0.56  0.000722262230207
0.82  -0.54  0.000906356588518
0.82  -0.52  0.00113737397747
0.82  -0.5  0.00142727440946
0.82  -0.48  0.00179106633371
0.82  -0.46  0.00224758363949
0.82  -0.44  0.00282046070623
0.82  -0.42  0.00353935598019
0.82  -0.4  0.00444148742325
0.82  -0.38  0.00557355932585
0.82  -0.36  0.00699418023705
0.82  -0.34  0.00877689719053
0.82  -0.32  0.0110140033116
0.82  -0.3  0.0138213159293
0.82  -0.28  0.0173441725603
0.82  -0.26  0.0217649551852
0.82  -0.24  0.0273125323544
0.82  -0.22  0.034274107953
0.82  -0.2  0.0312087260733
0.82  -0.18  0.0313422689951
0.82  -0.16  0.032082814506
0.82  -0.14  0.0333169323572
0.82  -0.12  0.0348725575363
0.82  -0.1  0.0365585967463
0.82  -0.08  0.0381945978585
0.82  -0.06  0.0396269260018
0.82  -0.04  0.0407352651434
0.82  -0.02  0.0414341666757
0.82  6.17561557e-16  0.0416727589149
0.82  0.02  0.0414341666757
0.82  0.04  0.0407352651434
0.82  0.06  0.0396269260018
0.82  0.08  0.0381945978585
0.82  0.1  0.0365585967463
0.82  0.12  0.0348725575363
0.82  0.14  0.0333169323572
0.82  0.16  0.032082814506
0.82  0.18  0.0313422689951
0.82  0.2  0.043010090047
0.82  0.22  0.034274107953
0.82  0.24  0.0273125323544
0.82  0.26  0.0217649551852
0.82  0.28  0.0173441725603
0.82  0.3  0.0138213159293
0.82  0.32  0.0110140033116
0.82  0.34  0.00877689719053
0.82  0.36  0.00699418023705
0.82  0.38  0.00557355932585
0.82  0.4  0.00444148742325
0.82  0.42  0.00353935598019
0.82  0.44  0.00282046070623
0.82  0.46  0.00224758363949
0.82  0.48  0.00179106633371
0.82  0.5  0.00142727440946
0.82  0.52  0.00113737397747
0.82  0.54  0.000906356588519
0.82  0.56  0.000722262230208
0.82  0.58  0.000575560144642
0.82  0.6  0.000458655411075
0.82  0.62  0.00036549574891
0.82  0.64  0.000291258184784
0.82  0.66  0.000232099362186
0.82  0.68  0.000184956566859
0.82  0.7  0.000147389166872
0.82  0.72  0.000117452258551
0.82  0.74  0.0000935959767693
0.82  0.76  0.0000745852568141
0.82  0.78  0.0000594358937857
0.82  0.8  0.0000473635892803
0.82  0.82  0.0000377433474391
0.82  0.84  0.0000300771182581
0.82  0.86  0.0000239680130166
0.82  0.88  0.0000190997569327
0.82  0.9  0.0000152203152858
0.82  0.92  0.0000121288453155
0.82  0.94  0.00000966529838075
0.82  0.96  0.00000770213407453
0.82  0.98  0.00000613771732285
0.84  -1  0.00000378816864748
0.84  -0.98  0.00000475371889663
0.84  -0.96  0.00000596537415598
0.84  -0.94  0.0000074858630884
0.84  -0.92  0.0000093939029997
0.84  -0.9  0.0000117882751161
0.84  -0.88  0.000014792938592
0.84  -0.86  0.000018563448005
0.84  -0.84  0.0000232950065796
0.84  -0.82  0.0000292325720631
0.84  -0.8  0.0000366835384444
0.84  -0.78  0.0000460336500632
0.84  -0.76  0.0000577669719991
0.84  -0.74  0.0000724909506275
0.84  -0.72  0.0000909678617562
0.84  -0.7  0.000114154274442
0.84  -0.68  0.000143250573574
0.84  -0.66  0.000179763105057
0.84  -0.64  0.00022558216092
0.84  -0.62  0.000283079841713
