0.26  0.04  45.7427025279
0.26  0.06  44.204719089
0.26  0.08  42.1982666361
0.26  0.1  39.8759338214
0.26  0.12  37.4406299885
0.26  0.14  35.1445972859
0.26  0.16  33.2748211062
0.26  0.18  32.1113418175
0.26  0.2  44.095245061
0.26  0.22  34.4265253206
0.26  0.24  26.8778559685
0.26  0.26  20.9843757027
0.26  0.28  16.3831528879
0.26  0.3  12.7908355412
0.26  0.32  9.98620198212
0.26  0.34  7.79653758399
0.26  0.36  6.08699868152
0.26  0.38  4.75230864338
0.26  0.4  3.7102747386
0.26  0.42  2.89672655312
0.26  0.44  2.2615642546
0.26  0.46  1.7656733502
0.26  0.48  1.37851594235
0.26  0.5  1.07625014735
0.26  0.52  0.840261867182
0.26  0.54  0.656018498285
0.26  0.56  0.512173986349
0.26  0.58  0.399870114911
0.26  0.6  0.312190999661
0.26  0.62  0.243737195242
0.26  0.64  0.190293187212
0.26  0.66  0.148567792714
0.26  0.68  0.115991483222
0.26  0.7  0.0905581481311
0.26  0.72  0.0707015546756
0.26  0.74  0.0551988963634
0.26  0.76  0.0430954902437
0.26  0.78  0.0336459857298
0.26  0.8  0.0262684645036
0.26  0.82  0.0205086048873
0.26  0.84  0.0160117038575
0.26  0.86  0.0125008337636
0.26  0.88  0.0097597886007
0.26  0.9  0.00761976963548
0.26  0.92  0.00594899046212
0.26  0.94  0.00464456134652
0.26  0.96  0.00362615308243
0.26  0.98  0.00283105016733
0.28  -1  0.00186297554534
0.28  -0.98  0.00238619385633
0.28  -0.96  0.00305635848748
0.28  -0.94  0.00391473944131
0.28  -0.92  0.00501419743664
0.28  -0.9  0.00642243917138
0.28  -0.88  0.00822618682875
0.28  -0.86  0.010536518593
0.28  -0.84  0.0134957090535
0.28  -0.82  0.0172859907424
0.28  -0.8  0.0221407763581
0.28  -0.78  0.0283590327593
0.28  -0.76  0.0363236919082
0.28  -0.74  0.0465252325438
0.28  -0.72  0.0595918847876
0.28  -0.7  0.0763283177402
0.28  -0.68  0.0977651925227
0.28  -0.66  0.125222632333
0.28  -0.64  0.160391518125
0.28  -0.62  0.205437616244
0.28  -0.6  0.263134950411
0.28  -0.58  0.337036631332
0.28  -0.56  0.431693663962
0.28  -0.54  0.55293520698
0.28  -0.52  0.708227543373
0.28  -0.5  0.907133868237
0.28  -0.48  1.16190320837
0.28  -0.46  1.48822474047
0.28  -0.44  1.90619396021
0.28  -0.42  2.4415502008
0.28  -0.4  3.1272617097
0.28  -0.38  4.0055558955
0.28  -0.36  5.1305197714
0.28  -0.34  6.57143073557
0.28  -0.32  8.41702280402
0.28  -0.3  10.7809510188
0.28  -0.28  13.8087905398
0.28  -0.26  17.687001438
0.28  -0.24  22.6544112582
0.28  -0.22  29.0169224701
0.28  -0.2  26.8492096728
0.28  -0.18  27.0655347078
0.28  -0.16  28.0461909896
0.28  -0.14  29.6221603893
0.28  -0.12  31.557406607
0.28  -0.1  33.6100396234
0.28  -0.08  35.5674532922
0.28  -0.06  37.2586223755
0.28  -0.04  38.554935198
0.28  -0.02  39.3674414425
0.28  6.17561557e-16  39.6440013712
0.28  0.02  39.3674414425
0.28  0.04  38.554935198
0.28  0.06  37.2586223755
0.28  0.08  35.5674532922
0.28  0.1  33.6100396234
0.28  0.12  31.557406607
0.28  0.14  29.6221603893
0.28  0.16  28.0461909896
0.28  0.18  27.0655347078
0.28  0.2  37.1663505197
0.28  0.22  29.0169224701
0.28  0.24  22.6544112582
0.28  0.26  17.687001438
0.28  0.28  13.8087905398
0.28  0.3  10.7809510188
0.28  0.32  8.41702280402
0.28  0.34  6.57143073557
0.28  0.36  5.1305197714
0.28  0.38  4.0055558955
0.28  0.4  3.1272617097
0.28  0.42  2.4415502008
0.28  0.44  1.9061939602
0.28  0.46  1.48822474047
0.28  0.48  1.16190320837
0.28  0.5  0.907133868237
0.28  0.52  0.708227543373
0.28  0.54  0.55293520698
0.28  0.56  0.431693663962
0.28  0.58  0.337036631332
0.28  0.6  0.263134950411
0.28  0.62  0.205437616244
0.28  0.64  0.160391518125
0.28  0.66  0.125222632333
0.28  0.68  0.0977651925227
0.28  0.7  0.0763283177402
0.28  0.72  0.0595918847876
0.28  0.74  0.0465252325438
0.28  0.76  0.0363236919082
0.28  0.78  0.0283590327593
0.28  0.8  0.0221407763581
0.28  0.82  0.0172859907424
0.28  0.84  0.0134957090535
0.28  0.86  0.010536518593
0.28  0.88  0.00822618682875
0.28  0.9  0.00642243917138
0.28  0.92  0.00501419743664
0.28  0.94  0.00391473944131
0.28  0.96  0.00305635848748
0.28  0.98  0.00238619385633
0.3  -1  0.00147761727435
0.3  -0.98  0.00189260737795
0.3  -0.96  0.00242414781504
0.3  -0.94  0.00310497184868
0.3  -0.92  0.00397700590752
0.3  -0.9  0.00509395149433
0.3  -0.88  0.00652459222591
0.3  -0.86  0.00835702965798
0.3  -0.84  0.0107041087452
0.3  -0.82  0.0137103670465
0.3  -0.8  0.0175609356205
0.3  -0.78  0.0224929397456
0.3  -0.76  0.0288101015421
0.3  -0.74  0.0369014437532
0.3  -0.72  0.0472652464996
0.3  -0.7  0.0605397323101
0.3  -0.68  0.0775423690682
0.3  -0.66  0.0993202112278
0.3  -0.64  0.127214379401
0.3  -0.62  0.162942649099
0.3  -0.6  0.208705234583
0.3  -0.58  0.267320282217
0.3  -0.56  0.342397417236
0.3  -0.54  0.438560031275
0.3  -0.52  0.561729999557
0.3  -0.5  0.719492361136
0.3  -0.48  0.92156241992
0.3  -0.46  1.18038403141
0.3  -0.44  1.51189591882
0.3  -0.42  1.9365132097
0.3  -0.4  2.48038463802
0.3  -0.38  3.17700283257
0.3  -0.36  4.06926685623
0.3  -0.34  5.21212401116
0.3  -0.32  6.67595359743
0.3  -0.3  8.55090100304
0.3  -0.28  10.9524290271
0.3  -0.26  14.0284282966
0.3  -0.24  17.9683246509
0.3  -0.22  23.0147443414
0.3  -0.2  21.2954250067
0.3  -0.18  21.4670030016
0.3  -0.16  22.2448095948
0.3  -0.14  23.4947882189
0.3  -0.12  25.0297269081
0.3  -0.1  26.6577708244
0.3  -0.08  28.2102916062
0.3  -0.06  29.5516407493
0.3  -0.04  30.5798100263
0.3  -0.02  31.224248578
0.3  6.17561557e-16  31.4436018213
0.3  0.02  31.224248578
0.3  0.04  30.5798100263
0.3  0.06  29.5516407493
0.3  0.08  28.2102916062
0.3  0.1  26.6577708244
0.3  0.12  25.0297269081
0.3  0.14  23.4947882189
0.3  0.16  22.2448095948
0.3  0.18  21.4670030016
0.3  0.2  29.4784554149
0.3  0.22  23.0147443414
0.3  0.24  17.9683246509
0.3  0.26  14.0284282966
0.3  0.28  10.9524290271
0.3  0.3  8.55090100304
0.3  0.32  6.67595359742
0.3  0.34  5.21212401116
0.3  0.36  4.06926685623
0.3  0.38  3.17700283257
0.3  0.4  2.48038463802
0.3  0.42  1.9365132097
0.3  0.44  1.51189591882
0.3  0.46  1.18038403141
0.3  0.48  0.92156241992
0.3  0.5  0.719492361136
0.3  0.52  0.561729999557
0.3  0.54  0.438560031275
0.3  0.56  0.342397417236
0.3  0.58  0.267320282217
0.3  0.6  0.208705234583
0.3  0.62  0.162942649099
0.3  0.64  0.127214379401
0.3  0.66  0.0993202112278
0.3  0.68  0.0775423690682
0.3  0.7  0.0605397323101
0.3  0.72  0.0472652464996
0.3  0.74  0.0369014437532
0.3  0.76  0.0288101015421
0.3  0.78  0.0224929397456
0.3  0.8  0.0175609356205
0.3  0.82  0.0137103670465
0.3  0.84  0.0107041087452
0.3  0.86  0.00835702965798
0.3  0.88  0.00652459222591
0.3  0.9  0.00509395149433
0.3  0.92  0.00397700590752
0.3  0.94  0.00310497184868
0.3  0.96  0.00242414781504
0.3  0.98  0.00189260737795
0.32  -1  0.00112580317226
0.32  -0.98  0.00144198597764
0.32  -0.96  0.00184696900041
0.32  -0.94  0.00236569185925
0.32  -0.92  0.0030300984866
0.32  -0.9  0.00388110429622
0.32  -0.88  0.00497111583164
0.32  -0.86  0.00636725805994
0.32  -0.84  0.00815550805391
0.32  -0.82  0.0104459896224
0.32  -0.8  0.0133797549423
0.32  -0.78  0.0171374708178
0.32  -0.76  0.0219505444828
0.32  -0.74  0.0281153740954
0.32  -0.72  0.0360116014956
0.32  -0.7  0.0461254912659
0.32  -0.68  0.0590798758222
0.32  -0.66  0.0756725106092
0.32  -0.64  0.0969252013854
0.32  -0.62  0.124146728951
0.32  -0.6  0.159013446336
0.32  -0.58  0.203672511789
0.32  -0.56  0.260874114826
0.32  -0.54  0.334140838095
0.32  -0.52  0.427984584663
0.32  -0.5  0.548184429516
0.32  -0.48  0.702142505904
0.32  -0.46  0.899339842675
0.32  -0.44  1.15192022392
0.32  -0.42  1.4754380261
0.32  -0.4  1.88981608592
0.32  -0.38  2.4205725862
0.32  -0.36  3.1003925137
0.32  -0.34  3.9711404623
0.32  -0.32  5.08643873369
0.32  -0.3  6.51496949988
0.32  -0.28  8.34470438092
0.32  -0.26  10.6883219033
0.32  -0.24  13.6901464562
0.32  -0.22  17.5350360598
0.32  -0.2  16.2250790129
0.32  -0.18  16.3558050502
0.32  -0.16  16.9484193525
0.32  -0.14  17.9007836248
0.32  -0.12  19.0702602379
0.32  -0.1  20.3106741376
0.32  -0.08  21.4935466253
0.32  -0.06  22.5155265024
0.32  -0.04  23.2988932467
0.32  -0.02  23.7898938451
0.32  6.17561557e-16  23.9570200566
0.32  0.02  23.7898938451
0.32  0.04  23.2988932467
0.32  0.06  22.5155265024
0.32  0.08  21.4935466253
0.32  0.1  20.3106741376
0.32  0.12  19.0702602379
0.32  0.14  17.9007836248
0.32  0.16  16.9484193525
0.32  0.18  16.3558050502
0.32  0.2  22.4597662707
0.32  0.22  17.5350360598
0.32  0.24  13.6901464562
0.32  0.26  10.6883219033
0.32  0.28  8.34470438092
0.32  0.3  6.51496949988
0.32  0.32  5.08643873369
0.32  0.34  3.9711404623
0.32  0.36  3.1003925137
0.32  0.38  2.4205725862
0.32  0.4  1.88981608592
0.32  0.42  1.4754380261
0.32  0.44  1.15192022392
0.32  0.46  0.899339842675
0.32  0.48  0.702142505904
0.32  0.5  0.548184429516
0.32  0.52  0.427984584663
0.32  0.54  0.334140838095
0.32  0.56  0.260874114826
0.32  0.58  0.203672511789
0.32  0.6  0.159013446336
0.32  0.62  0.124146728951
0.32  0.64  0.0969252013854
0.32  0.66  0.0756725106092
0.32  0.68  0.0590798758222
0.32  0.7  0.0461254912658
0.32  0.72  0.0360116014955
0.32  0.74  0.0281153740954
0.32  0.76  0.0219505444828
0.32  0.78  0.0171374708178
0.32  0.8  0.0133797549423
0.32  0.82  0.0104459896224
0.32  0.84  0.00815550805391
0.32  0.86  0.00636725805994
0.32  0.88  0.00497111583164
0.32  0.9  0.00388110429622
0.32  0.92  0.0030300984866
0.32  0.94  0.00236569185925
0.32  0.96  0.00184696900041
0.32  0.98  0.00144198597764
0.34  -1  0.000857754443366
0.34  -0.98  0.00109865552885
0.34  -0.96  0.00140721389484
0.34  -0.94  0.00180243114774
0.34  -0.92  0.00230864551172
0.34  -0.9  0.00295703062247
0.34  -0.88  0.00378751525857
0.34  -0.86  0.00485124223092
0.34  -0.84  0.00621371785363
0.34  -0.82  0.0079588459464
0.34  -0.8  0.01019409479
0.34  -0.78  0.013057115226
0.34  -0.76  0.016724217455
0.34  -0.74  0.0214212285517
0.34  -0.72  0.0274373993222
0.34  -0.7  0.0351432169145
0.34  -0.68  0.0450132201158
0.34  -0.66  0.0576552223471
0.34  -0.64  0.0738477419597
0.34  -0.62  0.0945879448651
0.34  -0.6  0.121153051893
0.34  -0.58  0.155178992459
0.34  -0.56  0.198761148187
0.34  -0.54  0.254583390462
0.34  -0.52  0.326083358293
0.34  -0.5  0.417664154612
0.34  -0.48  0.53496549766
0.34  -0.46  0.685211025478
0.34  -0.44  0.877653141165
0.34  -0.42  1.12414279332
0.34  -0.4  1.43985927983
0.34  -0.38  1.84424501766
0.34  -0.36  2.36220284356
0.34  -0.34  3.0256295778
0.34  -0.32  3.87538029048
0.34  -0.3  4.96378423388
0.34  -0.28  6.35786737653
0.34  -0.26  8.14347998886
0.34  -0.24  10.4305834648
0.34  -0.22  13.3600219519
0.34  -0.2  12.3619598525
0.34  -0.18  12.4615606016
0.34  -0.16  12.9130760739
0.34  -0.14  13.6386866481
0.34  -0.12  14.5297160803
0.34  -0.1  15.4747929466
0.34  -0.08  16.3760287551
0.34  -0.06  17.1546797682
0.34  -0.04  17.7515303743
0.34  -0.02  18.1256259137
0.34  6.17561557e-16  18.2529601175
0.34  0.02  18.1256259137
0.34  0.04  17.7515303743
0.34  0.06  17.1546797682
0.34  0.08  16.3760287551
0.34  0.1  15.4747929466
0.34  0.12  14.5297160803
0.34  0.14  13.6386866481
0.34  0.16  12.9130760739
0.34  0.18  12.4615606016
0.34  0.2  17.1121957997
0.34  0.22  13.3600219519
0.34  0.24  10.4305834648
0.34  0.26  8.14347998886
0.34  0.28  6.35786737653
0.34  0.3  4.96378423388
0.34  0.32  3.87538029048
0.34  0.34  3.0256295778
0.34  0.36  2.36220284356
0.34  0.38  1.84424501766
0.34  0.4  1.43985927983
0.34  0.42  1.12414279332
0.34  0.44  0.877653141165
0.34  0.46  0.685211025478
0.34  0.48  0.53496549766
0.34  0.5  0.417664154612
0.34  0.52  0.326083358293
0.34  0.54  0.254583390462
0.34  0.56  0.198761148187
0.34  0.58  0.155178992459
0.34  0.6  0.121153051893
0.34  0.62  0.0945879448651
0.34  0.64  0.0738477419597
0.34  0.66  0.0576552223471
0.34  0.68  0.0450132201158
0.34  0.7  0.0351432169145
0.34  0.72  0.0274373993222
0.34  0.74  0.0214212285517
0.34  0.76  0.016724217455
0.34  0.78  0.013057115226
0.34  0.8  0.01019409479
0.34  0.82  0.0079588459464
0.34  0.84  0.00621371785363
0.34  0.86  0.00485124223092
0.34  0.88  0.00378751525856
0.34  0.9  0.00295703062247
0.34  0.92  0.00230864551172
0.34  0.94  0.00180243114774
0.34  0.96  0.00140721389484
0.34  0.98  0.00109865552885
0.36  -1  0.000653526924815
0.36  -0.98  0.000837070533124
0.36  -0.96  0.00107216252433
0.36  -0.94  0.00137328030683
0.36  -0.92  0.00175896728187
0.36  -0.9  0.00225297478111
0.36  -0.88  0.0028857247185
0.36  -0.86  0.0036961830291
0.36  -0.84  0.00473425926494
0.36  -0.82  0.00606388011937
0.36  -0.8  0.00776692615344
0.36  -0.78  0.00994827415541
0.36  -0.76  0.0127422556512
0.36  -0.74  0.0163209292933
0.36  -0.72  0.0209046765571
0.36  -0.7  0.0267757732482
0.36  -0.68  0.034295772579
0.36  -0.66  0.0439277702977
0.36  -0.64  0.0562649229984
0.36  -0.62  0.0720669758232
0.36  -0.6  0.092307049002
0.36  -0.58  0.118231564432
0.36  -0.56  0.15143700269
0.36  -0.54  0.193968217319
0.36  -0.52  0.248444360768
0.36  -0.5  0.318220176742
0.36  -0.48  0.407592591647
0.36  -0.46  0.52206532743
0.36  -0.44  0.668687831157
0.36  -0.42  0.85648939327
0.36  -0.4  1.09703518833
0.36  -0.38  1.40513848027
0.36  -0.36  1.79977285117
0.36  -0.34  2.30524063023
0.36  -0.32  2.95266947704
0.36  -0.3  3.78192928163
0.36  -0.28  4.84408742747
0.36  -0.26  6.20455361738
0.36  -0.24  7.94710792638
0.36  -0.22  10.1790601368
0.36  -0.2  9.41863218497
0.36  -0.18  9.49451843867
0.36  -0.16  9.83853008485
0.36  -0.14  10.3913760081
0.36  -0.12  11.0702552949
0.36  -0.1  11.790313562
0.36  -0.08  12.4769691324
0.36  -0.06  13.0702268018
0.36  -0.04  13.5249699329
0.36  -0.02  13.8099949879
0.36  6.17561557e-16  13.907011484
0.36  0.02  13.8099949879
0.36  0.04  13.5249699329
0.36  0.06  13.0702268018
0.36  0.08  12.4769691324
0.36  0.1  11.790313562
0.36  0.12  11.0702552949
0.36  0.14  10.3913760081
0.36  0.16  9.83853008485
0.36  0.18  9.49451843867
0.36  0.2  13.0378580773
0.36  0.22  10.1790601368
0.36  0.24  7.94710792638
0.36  0.26  6.20455361738
0.36  0.28  4.84408742747
0.36  0.3  3.78192928163
0.36  0.32  2.95266947704
0.36  0.34  2.30524063023
0.36  0.36  1.79977285117
0.36  0.38  1.40513848027
0.36  0.4  1.09703518833
0.36  0.42  0.85648939327
0.36  0.44  0.668687831157
0.36  0.46  0.52206532743
0.36  0.48  0.407592591647
0.36  0.5  0.318220176742
0.36  0.52  0.248444360768
0.36  0.54  0.193968217319
0.36  0.56  0.15143700269
0.36  0.58  0.118231564432
0.36  0.6  0.092307049002
0.36  0.62  0.0720669758232
0.36  0.64  0.0562649229984
0.36  0.66  0.0439277702977
0.36  0.68  0.034295772579
0.36  0.7  0.0267757732482
0.36  0.72  0.0209046765571
0.36  0.74  0.0163209292933
0.36  0.76  0.0127422556512
0.36  0.78  0.00994827415541
0.36  0.8  0.00776692615344
0.36  0.82  0.00606388011937
0.36  0.84  0.00473425926494
0.36  0.86  0.0036961830291
0.36  0.88  0.0028857247185
0.36  0.9  0.00225297478111
0.36  0.92  0.00175896728187
0.36  0.94  0.00137328030683
0.36  0.96  0.00107216252433
0.36  0.98  0.000837070533124
0.38  -1  0.000497925070236
0.38  -0.98  0.000637767761621
0.38  -0.96  0.000816885395167
0.38  -0.94  0.00104630837272
0.38  -0.92  0.00134016499415
0.38  -0.9  0.00171655150466
0.38  -0.88  0.00219864649577
0.38  -0.86  0.00281613828671
0.38  -0.84  0.00360705318711
0.38  -0.82  0.00462009722888
0.38  -0.8  0.00591765557565
0.38  -0.78  0.00757963431876
0.38  -0.76  0.00970838124517
0.38  -0.74  0.0124349886074
0.38  -0.72  0.0159273660315
0.38  -0.7  0.0204005807091
0.38  -0.68  0.0261301016405
0.38  -0.66  0.0334687635356
0.38  -0.64  0.0428684950413
0.38  -0.62  0.0549081493599
0.38  -0.6  0.070329151122
0.38  -0.58  0.0900811547138
0.38  -0.56  0.115380525786
0.38  -0.54  0.147785247348
0.38  -0.52  0.189290863296
0.38  -0.5  0.242453367778
0.38  -0.48  0.310546608131
0.38  -0.46  0.397763894581
0.38  -0.44  0.509476232198
0.38  -0.42  0.652563077522
0.38  -0.4  0.835835988476
0.38  -0.38  1.07058125673
0.38  -0.36  1.37125493886
0.38  -0.34  1.75637308753
0.38  -0.32  2.24965200501
0.38  -0.3  2.88146873783
0.38  -0.28  3.69073175254
0.38  -0.26  4.72727699259
0.38  -0.24  6.05493686972
0.38  -0.22  7.75547118431
0.38  -0.2  7.17609774618
0.38  -0.18  7.23391582033
0.38  -0.16  7.49601982336
0.38  -0.14  7.9172355908
0.38  -0.12  8.43447673834
0.38  -0.1  8.98309233418
0.38  -0.08  9.50625826674
0.38  -0.06  9.95826392333
0.38  -0.04  10.3047347371
0.38  -0.02  10.521896594
0.38  6.17561557e-16  10.5958138938
0.38  0.02  10.521896594
0.38  0.04  10.3047347371
0.38  0.06  9.95826392333
0.38  0.08  9.50625826674
0.38  0.1  8.98309233418
0.38  0.12  8.43447673834
0.38  0.14  7.9172355908
0.38  0.16  7.49601982336
0.38  0.18  7.23391582033
0.38  0.2  9.93360204818
0.38  0.22  7.75547118431
0.38  0.24  6.05493686972
0.38  0.26  4.72727699259
0.38  0.28  3.69073175254
0.38  0.3  2.88146873783
0.38  0.32  2.24965200501
0.38  0.34  1.75637308753
0.38  0.36  1.37125493886
0.38  0.38  1.07058125673
0.38  0.4  0.835835988476
0.38  0.42  0.652563077522
0.38  0.44  0.509476232198
0.38  0.46  0.397763894581
0.38  0.48  0.310546608131
0.38  0.5  0.242453367778
0.38  0.52  0.189290863296
0.38  0.54  0.147785247348
0.38  0.56  0.115380525786
0.38  0.58  0.0900811547138
0.38  0.6  0.070329151122
0.38  0.62  0.0549081493599
0.38  0.64  0.0428684950413
0.38  0.66  0.0334687635356
0.38  0.68  0.0261301016405
0.38  0.7  0.0204005807091
0.38  0.72  0.0159273660315
0.38  0.74  0.0124349886074
0.38  0.76  0.00970838124517
0.38  0.78  0.00757963431875
0.38  0.8  0.00591765557565
0.38  0.82  0.00462009722888
0.38  0.84  0.0036070531871
0.38  0.86  0.00281613828671
0.38  0.88  0.00219864649577
0.38  0.9  0.00171655150466
0.38  0.92  0.00134016499415
0.38  0.94  0.00104630837272
0.38  0.96  0.000816885395167
0.38  0.98  0.000637767761621
0.4  -1  0.000379371325274
0.4  -0.98  0.000485918093718
0.4  -0.96  0.000622388615249
0.4  -0.94  0.000797187002088
0.4  -0.92  0.00102107766872
0.4  -0.9  0.00130784822486
0.4  -0.88  0.00167515854246
0.4  -0.86  0.00214562828395
0.4  -0.84  0.00274822986374
0.4  -0.82  0.00352007262415
0.4  -0.8  0.00450868809877
0.4  -0.78  0.00577495709392
0.4  -0.76  0.00739685884365
0.4  -0.74  0.00947427311806
0.4  -0.72  0.012135131008
0.4  -0.7  0.0155432931632
0.4  -0.68  0.0199086406398
0.4  -0.66  0.0254999997726
0.4  -0.64  0.0326616970072
0.4  -0.62  0.0418347631726
0.4  -0.6  0.053584092992
0.4  -0.58  0.0686332323653
0.4  -0.56  0.0879089356913
0.4  -0.54  0.112598237152
0.4  -0.52  0.144221550517
0.4  -0.5  0.184726299094
0.4  -0.48  0.236606841729
0.4  -0.46  0.303058080129
0.4  -0.44  0.388172206941
0.4  -0.42  0.497190710697
0.4  -0.4  0.636827156564
0.4  -0.38  0.815680620357
0.4  -0.36  1.04476523585
0.4  -0.34  1.33818846594
0.4  -0.32  1.71401986677
0.4  -0.3  2.19540384518
0.4  -0.28  2.81198493486
0.4  -0.26  3.60173336275
0.4  -0.24  4.61328332721
0.4  -0.22  5.90892798373
0.4  -0.2  5.46750078476
0.4  -0.18  5.51155263257
0.4  -0.16  5.71125083805
0.4  -0.14  6.0321770044
0.4  -0.12  6.42626533487
0.4  -0.1  6.84425799702
0.4  -0.08  7.24286044755
0.4  -0.06  7.58724556736
0.4  -0.04  7.85122322111
0.4  -0.02  8.01667980562
0.4  6.17561557e-16  8.07299772505
0.4  0.02  8.01667980562
0.4  0.04  7.85122322111
0.4  0.06  7.58724556736
0.4  0.08  7.24286044755
0.4  0.1  6.84425799702
0.4  0.12  6.42626533487
0.4  0.14  6.0321770044
0.4  0.16  5.71125083805
0.4  0.18  5.51155263257
0.4  0.2  7.56845557501
0.4  0.22  5.90892798373
0.4  0.24  4.61328332721
0.4  0.26  3.60173336275
0.4  0.28  2.81198493486
0.4  0.3  2.19540384518
0.4  0.32  1.71401986677
0.4  0.34  1.33818846594
0.4  0.36  1.04476523585
0.4  0.38  0.815680620357
0.4  0.4  0.636827156564
0.4  0.42  0.497190710697
0.4  0.44  0.388172206941
0.4  0.46  0.303058080129
0.4  0.48  0.236606841729
0.4  0.5  0.184726299094
0.4  0.52  0.144221550517
0.4  0.54  0.112598237152
0.4  0.56  0.0879089356912
0.4  0.58  0.0686332323653
0.4  0.6  0.053584092992
0.4  0.62  0.0418347631726
0.4  0.64  0.0326616970072
0.4  0.66  0.0254999997726
0.4  0.68  0.0199086406398
0.4  0.7  0.0155432931632
0.4  0.72  0.012135131008
0.4  0.74  0.00947427311806
0.4  0.76  0.00739685884365
0.4  0.78  0.00577495709392
0.4  0.8  0.00450868809877
0.4  0.82  0.00352007262415
0.4  0.84  0.00274822986374
0.4  0.86  0.00214562828395
0.4  0.88  0.00167515854246
0.4  0.9  0.00130784822486
0.4  0.92  0.00102107766872
0.4  0.94  0.000797187002088
0.4  0.96  0.000622388615249
0.4  0.98  0.000485918093718
0.42  -1  0.000289044699782
0.42  -0.98  0.000370223156471
0.42  -0.96  0.000474200653706
0.42  -0.94  0.000607380321963
0.42  -0.92  0.000777963616509
0.42  -0.9  0.000996455378495
0.42  -0.88  0.00127631074289
0.42  -0.86  0.0016347637311
0.42  -0.84  0.0020938885545
0.42  -0.82  0.00268195898603
0.42  -0.8  0.00343518951249
0.42  -0.78  0.00439996549096
0.42  -0.76  0.00563569964664
0.42  -0.74  0.00721849082053
0.42  -0.72  0.00924581027967
0.42  -0.7  0.0118425041817
0.42  -0.68  0.0151684818368
0.42  -0.66  0.0194285632247
0.42  -0.64  0.0248850921956
0.42  -0.62  0.0318740920995
0.42  -0.6  0.0408259587378
0.42  -0.58  0.0522919649495
0.42  -0.56  0.0669782090322
0.42  -0.54  0.0857890976079
0.42  -0.52  0.109883040689
0.42  -0.5  0.140743788754
0.42  -0.48  0.180271804898
0.42  -0.46  0.230901298942
0.42  -0.44  0.295750130662
0.42  -0.42  0.378811813476
0.42  -0.4  0.485201442542
0.42  -0.38  0.621470691963
0.42  -0.36  0.796011279245
0.42  -0.34  1.01957174309
0.42  -0.32  1.3059193587
0.42  -0.3  1.67268795255
0.42  -0.28  2.1424638267
0.42  -0.26  2.74417666591
0.42  -0.24  3.51488108217
0.42  -0.22  4.50203850767
0.42  -0.2  4.16571316176
0.42  -0.18  4.1992764605
0.42  -0.16  4.35142741132
0.42  -0.14  4.5959424846
0.42  -0.12  4.89620013609
0.42  -0.1  5.21467060419
0.42  -0.08  5.51836758382
0.42  -0.06  5.78075613808
0.42  -0.04  5.98188188638
0.42  -0.02  6.10794399389
0.42  6.17561557e-16  6.15085286715
0.42  0.02  6.10794399389
0.42  0.04  5.98188188638
0.42  0.06  5.78075613808
0.42  0.08  5.51836758382
0.42  0.1  5.21467060419
0.42  0.12  4.89620013609
0.42  0.14  4.5959424846
0.42  0.16  4.35142741132
0.42  0.18  4.1992764605
0.42  0.2  5.76643995935
0.42  0.22  4.50203850767
0.42  0.24  3.51488108217
0.42  0.26  2.74417666591
0.42  0.28  2.1424638267
0.42  0.3  1.67268795255
0.42  0.32  1.3059193587
0.42  0.34  1.01957174309
0.42  0.36  0.796011279245
0.42  0.38  0.621470691963
0.42  0.4  0.485201442542
0.42  0.42  0.378811813476
0.42  0.44  0.295750130662
0.42  0.46  0.230901298942
0.42  0.48  0.180271804898
0.42  0.5  0.140743788754
0.42  0.52  0.109883040689
0.42  0.54  0.0857890976079
0.42  0.56  0.0669782090322
0.42  0.58  0.0522919649495
0.42  0.6  0.0408259587378
0.42  0.62  0.0318740920995
0.42  0.64  0.0248850921956
0.42  0.66  0.0194285632247
0.42  0.68  0.0151684818368
0.42  0.7  0.0118425041817
0.42  0.72  0.00924581027967
0.42  0.74  0.00721849082053
0.42  0.76  0.00563569964664
0.42  0.78  0.00439996549096
0.42  0.8  0.00343518951249
0.42  0.82  0.00268195898603
0.42  0.84  0.0020938885545
0.42  0.86  0.0016347637311
0.42  0.88  0.00127631074289
0.42  0.9  0.000996455378495
0.42  0.92  0.000777963616509
0.42  0.94  0.000607380321963
0.42  0.96  0.000474200653706
0.42  0.98  0.000370223156471
0.44  -1  0.000220224442139
0.44  -0.98  0.000282074669289
0.44  -0.96  0.000361295586818
0.44  -0.94  0.000462765768311
0.44  -0.92  0.000592733939005
0.44  -0.9  0.00075920378409
0.44  -0.88  0.000972426830736
0.44  -0.86  0.00124553375648
0.44  -0.84  0.00159534300115
0.44  -0.82  0.00204339647806
0.44  -0.8  0.00261728616577
0.44  -0.78  0.00335235327411
0.44  -0.76  0.0042938646226
0.44  -0.74  0.00549980025662
0.44  -0.72  0.00704442396799
0.44  -0.7  0.00902285659938
0.44  -0.68  0.0115569337653
0.44  -0.66  0.0148027087193
0.44  -0.64  0.0189600624073
0.44  -0.62  0.0242850125139
0.44  -0.6  0.0311054795145
0.44  -0.58  0.0398414806362
0.44  -0.56  0.0510309953122
0.44  -0.54  0.0653630949696
0.44  -0.52  0.0837203773485
0.44  -0.5  0.107233318536
0.44  -0.48  0.137349889817
0.44  -0.46  0.175924726477
0.44  -0.44  0.225333339745
0.44  -0.42  0.288618405255
0.44  -0.4  0.369677136753
0.44  -0.38  0.473501283873
0.44  -0.36  0.606484533501
0.44  -0.34  0.776816245074
0.44  -0.32  0.994985766788
0.44  -0.3  1.27442838945
0.44  -0.28  1.63235271705
0.44  -0.26  2.09080040505
0.44  -0.24  2.6780035271
0.44  -0.22  3.43012315946
0.44  -0.2  3.17387538278
0.44  -0.18  3.19944740935
0.44  -0.16  3.31537189538
0.44  -0.14  3.50166901707
0.44  -0.12  3.73043665698
0.44  -0.1  3.97308072286
0.44  -0.08  4.20446880217
0.44  -0.06  4.4043838085
0.44  -0.04  4.55762241052
0.44  -0.02  4.65366969084
0.44  6.17561557e-16  4.68636215219
0.44  0.02  4.65366969084
0.44  0.04  4.55762241052
0.44  0.06  4.4043838085
0.44  0.08  4.20446880217
0.44  0.1  3.97308072286
0.44  0.12  3.73043665698
0.44  0.14  3.50166901707
0.44  0.16  3.31537189538
0.44  0.18  3.19944740935
0.44  0.2  4.39347624826
0.44  0.22  3.43012315946
0.44  0.24  2.6780035271
0.44  0.26  2.09080040505
0.44  0.28  1.63235271705
0.44  0.3  1.27442838945
0.44  0.32  0.994985766788
0.44  0.34  0.776816245074
0.44  0.36  0.606484533501
0.44  0.38  0.473501283873
0.44  0.4  0.369677136752
0.44  0.42  0.288618405255
0.44  0.44  0.225333339745
0.44  0.46  0.175924726477
0.44  0.48  0.137349889817
0.44  0.5  0.107233318536
0.44  0.52  0.0837203773485
0.44  0.54  0.0653630949696
0.44  0.56  0.0510309953122
0.44  0.58  0.0398414806362
0.44  0.6  0.0311054795145
0.44  0.62  0.0242850125139
0.44  0.64  0.0189600624073
0.44  0.66  0.0148027087193
0.44  0.68  0.0115569337653
0.44  0.7  0.00902285659938
0.44  0.72  0.00704442396799
0.44  0.74  0.00549980025662
0.44  0.76  0.0042938646226
0.44  0.78  0.00335235327411
0.44  0.8  0.00261728616577
0.44  0.82  0.00204339647806
0.44  0.84  0.00159534300115
0.44  0.86  0.00124553375648
0.44  0.88  0.000972426830736
0.44  0.9  0.00075920378409
0.44  0.92  0.000592733939005
0.44  0.94  0.000462765768311
0.44  0.96  0.000361295586818
0.44  0.98  0.000282074669289
0.46  -1  0.000167789981799
0.46  -0.98  0.000214913944911
0.46  -0.96  0.00027527271427
0.46  -0.94  0.000352583296785
0.46  -0.92  0.000451606624002
0.46  -0.9  0.00057844073926
0.46  -0.88  0.000740896326698
0.46  -0.86  0.000948977707926
0.46  -0.84  0.00121549892703
0.46  -0.82  0.00155687286358
0.46  -0.8  0.00199412196872
0.46  -0.78  0.00255417286738
0.46  -0.76  0.00327151455068
0.46  -0.74  0.00419032227301
0.46  -0.72  0.0053671779476
0.46  -0.7  0.00687455456751
0.46  -0.68  0.00880527922923
0.46  -0.66  0.0112782496005
0.46  -0.64  0.0144457558631
0.46  -0.62  0.0185028590293
0.46  -0.6  0.0236994031674
0.46  -0.58  0.0303554012709
0.46  -0.56  0.0388807422621
0.46  -0.54  0.0498004327256
0.46  -0.52  0.0637869278044
0.46  -0.5  0.0817015422567
0.46  -0.48  0.104647491843
0.46  -0.46  0.134037831436
0.46  -0.44  0.171682473604
0.46  -0.42  0.219899646443
0.46  -0.4  0.281658654438
0.46  -0.38  0.360762733832
0.46  -0.36  0.462083263097
0.46  -0.34  0.591859751606
0.46  -0.32  0.758084080395
0.46  -0.3  0.970992657279
0.46  -0.28  1.24369679416
0.46  -0.26  1.59299012635
0.46  -0.24  2.04038279632
0.46  -0.22  2.61342608887
0.46  -0.2  2.41818976829
0.46  -0.18  2.43767320905
0.46  -0.16  2.52599659047
0.46  -0.14  2.66793719595
0.46  -0.12  2.84223627812
0.46  -0.1  3.02710787094
0.46  -0.08  3.20340347755
0.46  -0.06  3.35571960989
0.46  -0.04  3.47247278222
0.46  -0.02  3.54565163221
0.46  6.17561557e-16  3.5705601639
0.46  0.02  3.54565163221
0.46  0.04  3.47247278222
0.46  0.06  3.35571960989
0.46  0.08  3.20340347755
0.46  0.1  3.02710787094
0.46  0.12  2.84223627812
0.46  0.14  2.66793719595
0.46  0.16  2.52599659047
0.46  0.18  2.43767320905
0.46  0.2  3.34740909124
0.46  0.22  2.61342608887
0.46  0.24  2.04038279632
0.46  0.26  1.59299012635
0.46  0.28  1.24369679416
0.46  0.3  0.970992657279
0.46  0.32  0.758084080395
0.46  0.34  0.591859751606
0.46  0.36  0.462083263097
0.46  0.38  0.360762733832
0.46  0.4  0.281658654438
0.46  0.42  0.219899646443
0.46  0.44  0.171682473604
0.46  0.46  0.134037831436
0.46  0.48  0.104647491843
0.46  0.5  0.0817015422566
0.46  0.52  0.0637869278044
0.46  0.54  0.0498004327256
0.46  0.56  0.0388807422621
0.46  0.58  0.0303554012709
0.46  0.6  0.0236994031674
0.46  0.62  0.0185028590293
0.46  0.64  0.0144457558631
0.46  0.66  0.0112782496005
0.46  0.68  0.00880527922923
0.46  0.7  0.00687455456751
0.46  0.72  0.0053671779476
0.46  0.74  0.00419032227301
0.46  0.76  0.00327151455068
0.46  0.78  0.00255417286738
0.46  0.8  0.00199412196872
0.46  0.82  0.00155687286358
0.46  0.84  0.00121549892703
0.46  0.86  0.000948977707926
0.46  0.88  0.000740896326698
0.46  0.9  0.00057844073926
0.46  0.92  0.000451606624002
0.46  0.94  0.000352583296785
0.46  0.96  0.00027527271427
0.46  0.98  0.000214913944911
0.48  -1  0.000127839933291
0.48  -0.98  0.000163743890345
0.48  -0.96  0.000209731505134
0.48  -0.94  0.00026863478175
0.48  -0.92  0.000344081095112
0.48  -0.9  0.000440716571555
0.48  -0.88  0.00056449220606
0.48  -0.86  0.000723030335751
0.48  -0.84  0.0009260940378
0.48  -0.82  0.00118618835814
0.48  -0.8  0.00151933039578
0.48  -0.78  0.00194603566601
0.48  -0.76  0.00249258148452
0.48  -0.74  0.00319262517407
0.48  -0.72  0.004089276746
0.48  -0.7  0.00523775369597
0.48  -0.68  0.00670878140163
0.48  -0.66  0.00859294852476
0.48  -0.64  0.011006285632
0.48  -0.62  0.0140974105762
0.48  -0.6  0.018056680664
0.48  -0.58  0.0231279152181
0.48  -0.56  0.0296234104313
0.48  -0.54  0.037943171155
0.48  -0.52  0.0485995439532
0.48  -0.5  0.0622487683703
0.48  -0.48  0.0797313894004
0.48  -0.46  0.102124019834
0.48  -0.44  0.130805640107
0.48  -0.42  0.167542518514
0.48  -0.4  0.214596981346
0.48  -0.38  0.274866731211
0.48  -0.36  0.352063293028
0.48  -0.34  0.450940576736
0.48  -0.32  0.577587632036
0.48  -0.3  0.739803623564
0.48  -0.28  0.947578118161
0.48  -0.26  1.21370626125
0.48  -0.24  1.55457672605
0.48  -0.22  1.99118095896
0.48  -0.2  1.84242953809
0.48  -0.18  1.85727405825
0.48  -0.16  1.92456803533
0.48  -0.14  2.03271321385
0.48  -0.12  2.16551245966
0.48  -0.1  2.30636694835
0.48  -0.08  2.44068735501
0.48  -0.06  2.55673769358
0.48  -0.04  2.64569245478
0.48  -0.02  2.70144774602
0.48  6.17561557e-16  2.72042566708
0.48  0.02  2.70144774602
0.48  0.04  2.64569245478
0.48  0.06  2.55673769358
0.48  0.08  2.44068735501
0.48  0.1  2.30636694835
0.48  0.12  2.16551245966
0.48  0.14  2.03271321385
0.48  0.16  1.92456803533
0.48  0.18  1.85727405825
0.48  0.2  2.55040587247
0.48  0.22  1.99118095896
0.48  0.24  1.55457672605
0.48  0.26  1.21370626125
0.48  0.28  0.947578118161
0.48  0.3  0.739803623563
0.48  0.32  0.577587632036
0.48  0.34  0.450940576736
0.48  0.36  0.352063293028
0.48  0.38  0.274866731211
0.48  0.4  0.214596981346
0.48  0.42  0.167542518514
0.48  0.44  0.130805640107
0.48  0.46  0.102124019834
0.48  0.48  0.0797313894003
0.48  0.5  0.0622487683702
0.48  0.52  0.0485995439532
0.48  0.54  0.037943171155
0.48  0.56  0.0296234104312
0.48  0.58  0.0231279152181
0.48  0.6  0.018056680664
0.48  0.62  0.0140974105762
0.48  0.64  0.011006285632
0.48  0.66  0.00859294852476
0.48  0.68  0.00670878140163
0.48  0.7  0.00523775369597
0.48  0.72  0.004089276746
0.48  0.74  0.00319262517407
0.48  0.76  0.00249258148452
0.48  0.78  0.00194603566601
0.48  0.8  0.00151933039578
0.48  0.82  0.00118618835814
0.48  0.84  0.000926094037799
0.48  0.86  0.000723030335751
0.48  0.88  0.00056449220606
0.48  0.9  0.000440716571555
0.48  0.92  0.000344081095112
0.48  0.94  0.00026863478175
0.48  0.96  0.000209731505134
0.48  0.98  0.000163743890345
0.5  -1  0.0000974018136757
0.5  -0.98  0.000124757198219
0.5  -0.96  0.000159795366433
0.5  -0.94  0.000204674034828
0.5  -0.92  0.000262156916487
0.5  -0.9  0.000335783915725
0.5  -0.88  0.000430089122081
0.5  -0.86  0.000550880028108
0.5  -0.84  0.000705595165719
0.5  -0.82  0.000903762185017
0.5  -0.8  0.00115758458497
0.5  -0.78  0.00148269322791
0.5  -0.76  0.00189910891751
0.5  -0.74  0.00243247531766
0.5  -0.72  0.0031156381377
0.5  -0.7  0.00399066783313
0.5  -0.68  0.0051114503837
0.5  -0.66  0.00654700569366
0.5  -0.64  0.00838573796774
0.5  -0.62  0.0107408798089
0.5  -0.6  0.0137574652955
0.5  -0.58  0.017621261454
0.5  -0.56  0.0225702081422
0.5  -0.54  0.0289090708354
0.5  -0.52  0.037028208659
0.5  -0.5  0.0474276134402
0.5  -0.48  0.0607477001478
0.5  -0.46  0.077808744855
0.5  -0.44  0.0996613988873
0.5  -0.42  0.127651389913
0.5  -0.4  0.163502394395
0.5  -0.38  0.209422184835
0.5  -0.36  0.268238588575
0.5  -0.34  0.343573630737
0.5  -0.32  0.440066585367
0.5  -0.3  0.563659670683
0.5  -0.28  0.721963982085
0.5  -0.26  0.924728197774
0.5  -0.24  1.18443892075
0.5  -0.22  1.51708962737
0.5  -0.2  1.40375525832
0.5  -0.18  1.41506536424
0.5  -0.16  1.46633694463
0.5  -0.14  1.54873323706
0.5  -0.12  1.649913573
0.5  -0.1  1.75723123431
0.5  -0.08  1.85957054946
0.5  -0.06  1.9479898185
0.5  -0.04  2.01576484663
0.5  -0.02  2.05824505097
0.5  6.17561557e-16  2.07270441342
0.5  0.02  2.05824505097
0.5  0.04  2.01576484663
0.5  0.06  1.9479898185
0.5  0.08  1.85957054946
0.5  0.1  1.75723123431
0.5  0.12  1.649913573
0.5  0.14  1.54873323706
0.5  0.16  1.46633694463
0.5  0.18  1.41506536424
0.5  0.2  1.94316557583
0.5  0.22  1.51708962737
0.5  0.24  1.18443892075
0.5  0.26  0.924728197774
0.5  0.28  0.721963982085
0.5  0.3  0.563659670683
0.5  0.32  0.440066585367
0.5  0.34  0.343573630737
0.5  0.36  0.268238588575
0.5  0.38  0.209422184835
0.5  0.4  0.163502394395
0.5  0.42  0.127651389913
0.5  0.44  0.0996613988873
0.5  0.46  0.077808744855
0.5  0.48  0.0607477001478
0.5  0.5  0.0474276134402
0.5  0.52  0.037028208659
0.5  0.54  0.0289090708354
0.5  0.56  0.0225702081422
0.5  0.58  0.017621261454
0.5  0.6  0.0137574652955
0.5  0.62  0.0107408798089
0.5  0.64  0.00838573796774
0.5  0.66  0.00654700569366
0.5  0.68  0.0051114503837
0.5  0.7  0.00399066783313
0.5  0.72  0.0031156381377
0.5  0.74  0.00243247531766
0.5  0.76  0.00189910891751
0.5  0.78  0.00148269322791
0.5  0.8  0.00115758458497
0.5  0.82  0.000903762185017
0.5  0.84  0.000705595165719
0.5  0.86  0.000550880028108
0.5  0.88  0.000430089122081
0.5  0.9  0.000335783915724
0.5  0.92  0.000262156916487
0.5  0.94  0.000204674034828
0.5  0.96  0.000159795366433
0.5  0.98  0.000124757198219
0.52  -1  0.0000742108749831
0.52  -0.98  0.0000950530641157
0.52  -0.96  0.000121748800292
0.52  -0.94  0.000155942057316
0.52  -0.92  0.000199738520477
0.52  -0.9  0.000255835258614
0.52  -0.88  0.00032768681471
0.52  -0.86  0.000419717943167
0.52  -0.84  0.000537596094527
0.52  -0.82  0.000688580427775
0.52  -0.8  0.000881968843043
0.52  -0.78  0.00112967056385
0.52  -0.76  0.00144693952954
0.52  -0.74  0.00185331376169
0.52  -0.72  0.00237381855228
0.52  -0.7  0.00304050756847
0.52  -0.68  0.00389443677785
0.52  -0.66  0.00498819275239
0.52  -0.64  0.00638913104881
0.52  -0.62  0.00818352409083
0.52  -0.6  0.0104818739878
0.52  -0.58  0.0134257174631
0.52  -0.56  0.0171963419528
0.52  -0.54  0.0220259496275
0.52  -0.52  0.0282119568409
0.52  -0.5  0.0361353095896
0.52  -0.48  0.0462839428863
0.52  -0.46  0.0592828287188
0.52  -0.44  0.0759324630042
0.52  -0.42  0.0972581616379
0.52  -0.4  0.124573201381
0.52  -0.38  0.159559693922
0.52  -0.36  0.204372173486
0.52  -0.34  0.261770277123
0.52  -0.32  0.335288688357
0.52  -0.3  0.429454809675
0.52  -0.28  0.550067568508
0.52  -0.26  0.70455452613
0.52  -0.24  0.902429280889
0.52  -0.22  1.15587733355
0.52  -0.2  1.06952737378
0.52  -0.18  1.07814459378
0.52  -0.16  1.11720863888
0.52  -0.14  1.1799867405
0.52  -0.12  1.2570764884
0.52  -0.1  1.33884229179
0.52  -0.08  1.4168150711
0.52  -0.06  1.48418210538
0.52  -0.04  1.53582020071
0.52  -0.02  1.5681860573
0.52  6.17561557e-16  1.57920270985
0.52  0.02  1.5681860573
0.52  0.04  1.53582020071
0.52  0.06  1.48418210538
0.52  0.08  1.4168150711
0.52  0.1  1.33884229179
0.52  0.12  1.2570764884
0.52  0.14  1.1799867405
0.52  0.16  1.11720863888
0.52  0.18  1.07814459378
0.52  0.2  1.48050649344
0.52  0.22  1.15587733355
0.52  0.24  0.902429280889
0.52  0.26  0.704554526129
0.52  0.28  0.550067568508
0.52  0.3  0.429454809675
0.52  0.32  0.335288688357
0.52  0.34  0.261770277123
0.52  0.36  0.204372173486
0.52  0.38  0.159559693922
0.52  0.4  0.124573201381
0.52  0.42  0.0972581616379
0.52  0.44  0.0759324630042
0.52  0.46  0.0592828287188
0.52  0.48  0.0462839428863
0.52  0.5  0.0361353095896
0.52  0.52  0.0282119568409
0.52  0.54  0.0220259496275
0.52  0.56  0.0171963419528
0.52  0.58  0.0134257174631
0.52  0.6  0.0104818739878
0.52  0.62  0.00818352409083
0.52  0.64  0.00638913104881
0.52  0.66  0.00498819275239
0.52  0.68  0.00389443677785
0.52  0.7  0.00304050756847
0.52  0.72  0.00237381855228
0.52  0.74  0.00185331376169
0.52  0.76  0.00144693952954
0.52  0.78  0.00112967056385
0.52  0.8  0.000881968843043
0.52  0.82  0.000688580427774
0.52  0.84  0.000537596094527
0.52  0.86  0.000419717943167
0.52  0.88  0.00032768681471
0.52  0.9  0.000255835258614
0.52  0.92  0.000199738520477
0.52  0.94  0.000155942057316
0.52  0.96  0.000121748800292
0.52  0.98  0.0000950530641157
0.54  -1  0.0000565415956637
0.54  -0.98  0.0000724213522486
0.54  -0.96  0.0000927609523563
0.54  -0.94  0.00011881294694
0.54  -0.92  0.000152181666984
0.54  -0.9  0.000194922021232
0.54  -0.88  0.000249666041344
0.54  -0.86  0.000319784967375
0.54  -0.84  0.000409596855098
0.54  -0.82  0.000524632490023
0.54  -0.8  0.00067197598361
0.54  -0.78  0.000860701026215
0.54  -0.76  0.00110242966207
0.54  -0.74  0.00141204799667
0.54  -0.72  0.0018086229113
0.54  -0.7  0.00231657623749
0.54  -0.68  0.00296718869951
0.54  -0.66  0.00380052624042
0.54  -0.64  0.00486790735841
0.54  -0.62  0.00623506339675
0.54  -0.6  0.00798618640397
0.54  -0.58  0.010229113839
0.54  -0.56  0.0131019694055
0.54  -0.54  0.0167816689701
0.54  -0.52  0.021494815375
0.54  -0.5  0.0275316530692
0.54  -0.48  0.0352639419087
0.54  -0.46  0.0451678508302
0.54  -0.44  0.0578532812329
0.54  -0.42  0.0741014258568
0.54  -0.4  0.0949128761065
0.54  -0.38  0.121569240357
0.54  -0.36  0.155712067818
0.54  -0.34  0.199443938227
0.54  -0.32  0.255457942681
0.54  -0.3  0.327203529267
0.54  -0.28  0.419098926585
0.54  -0.26  0.536803226596
0.54  -0.24  0.687564882192
0.54  -0.22  0.880668080596
0.54  -0.2  0.814877662246
0.54  -0.18  0.821443160484
0.54  -0.16  0.851206230165
0.54  -0.14  0.899037144961
0.54  -0.12  0.9577721667
0.54  -0.1  1.02006989592
0.54  -0.08  1.07947770322
0.54  -0.06  1.13080494621
0.54  -0.04  1.17014824068
0.54  -0.02  1.19480793075
0.54  6.17561557e-16  1.20320156731
0.54  0.02  1.19480793075
0.54  0.04  1.17014824068
0.54  0.06  1.13080494621
0.54  0.08  1.07947770322
0.54  0.1  1.02006989592
0.54  0.12  0.9577721667
0.54  0.14  0.899037144961
0.54  0.16  0.851206230165
0.54  0.18  0.821443160484
0.54  0.2  1.12800448113
0.54  0.22  0.880668080596
0.54  0.24  0.687564882192
0.54  0.26  0.536803226596
0.54  0.28  0.419098926585
0.54  0.3  0.327203529267
0.54  0.32  0.255457942681
0.54  0.34  0.199443938226
0.54  0.36  0.155712067818
0.54  0.38  0.121569240357
0.54  0.4  0.0949128761065
0.54  0.42  0.0741014258568
0.54  0.44  0.0578532812328
0.54  0.46  0.0451678508302
0.54  0.48  0.0352639419087
0.54  0.5  0.0275316530692
0.54  0.52  0.021494815375
0.54  0.54  0.0167816689701
0.54  0.56  0.0131019694055
0.54  0.58  0.010229113839
0.54  0.6  0.00798618640397
0.54  0.62  0.00623506339675
0.54  0.64  0.00486790735841
0.54  0.66  0.00380052624042
0.54  0.68  0.00296718869951
0.54  0.7  0.00231657623749
0.54  0.72  0.0018086229113
0.54  0.74  0.00141204799667
0.54  0.76  0.00110242966207
0.54  0.78  0.000860701026215
0.54  0.8  0.00067197598361
0.54  0.82  0.000524632490023
0.54  0.84  0.000409596855098
0.54  0.86  0.000319784967375
0.54  0.88  0.000249666041344
0.54  0.9  0.000194922021232
0.54  0.92  0.000152181666984
0.54  0.94  0.00011881294694
0.54  0.96  0.0000927609523563
0.54  0.98  0.0000724213522486
0.56  -1  0.0000430792931754
0.56  -0.98  0.0000551781503343
0.56  -0.96  0.0000706749821061
0.56  -0.94  0.0000905241126322
0.56  -0.92  0.000115947888824
0.56  -0.9  0.00014851195479
0.56  -0.88  0.000190221667159
0.56  -0.86  0.00024364558872
0.56  -0.84  0.000312073665367
0.56  -0.82  0.000399719827177
0.56  -0.8  0.000511981490174
0.56  -0.78  0.000655771939391
0.56  -0.76  0.000839946062007
0.56  -0.74  0.00107584564801
0.56  -0.72  0.00137799783903
0.56  -0.7  0.0017650097371
0.56  -0.68  0.00226071426518
0.56  -0.66  0.00289563784343
0.56  -0.64  0.00370888026385
0.56  -0.62  0.00475052252917
0.56  -0.6  0.00608471093557
0.56  -0.58  0.00779360732259
0.56  -0.56  0.00998244875425
0.56  -0.54  0.012786028216
0.56  -0.52  0.0163769954212
0.56  -0.5  0.0209764889061
0.56  -0.48  0.0268677541582
0.56  -0.46  0.034413586408
0.56  -0.44  0.0440786722435
0.56  -0.42  0.0564582058877
0.56  -0.4  0.072314542381
0.56  -0.38  0.092624144844
0.56  -0.36  0.118637716918
0.56  -0.34  0.151957223457
0.56  -0.32  0.194634542544
0.56  -0.3  0.249297824016
0.56  -0.28  0.319313335888
0.56  -0.26  0.408992765495
0.56  -0.24  0.523858741328
0.56  -0.22  0.670984926917
0.56  -0.2  0.620858914608
0.56  -0.18  0.625861196912
0.56  -0.16  0.648537812057
0.56  -0.14  0.684980398744
0.56  -0.12  0.729730873
0.56  -0.1  0.777195789926
0.56  -0.08  0.822458862495
0.56  -0.06  0.861565317183
0.56  -0.04  0.891541148196
0.56  -0.02  0.910329475718
0.56  6.17561557e-16  0.916724624747
0.56  0.02  0.910329475718
0.56  0.04  0.891541148196
0.56  0.06  0.861565317183
0.56  0.08  0.822458862495
0.56  0.1  0.777195789926
0.56  0.12  0.729730873
0.56  0.14  0.684980398744
0.56  0.16  0.648537812057
0.56  0.18  0.625861196912
0.56  0.2  0.859431630383
0.56  0.22  0.670984926917
0.56  0.24  0.523858741328
0.56  0.26  0.408992765495
0.56  0.28  0.319313335888
0.56  0.3  0.249297824015
0.56  0.32  0.194634542544
0.56  0.34  0.151957223457
0.56  0.36  0.118637716918
0.56  0.38  0.092624144844
0.56  0.4  0.072314542381
0.56  0.42  0.0564582058876
0.56  0.44  0.0440786722435
0.56  0.46  0.034413586408
0.56  0.48  0.0268677541582
0.56  0.5  0.0209764889061
0.56  0.52  0.0163769954212
0.56  0.54  0.012786028216
0.56  0.56  0.00998244875425
0.56  0.58  0.00779360732259
0.56  0.6  0.00608471093557
0.56  0.62  0.00475052252917
0.56  0.64  0.00370888026385
0.56  0.66  0.00289563784343
0.56  0.68  0.00226071426518
0.56  0.7  0.0017650097371
0.56  0.72  0.00137799783903
0.56  0.74  0.00107584564801
0.56  0.76  0.000839946062007
0.56  0.78  0.000655771939391
0.56  0.8  0.000511981490174
0.56  0.82  0.000399719827177
0.56  0.84  0.000312073665367
0.56  0.86  0.00024364558872
0.56  0.88  0.000190221667159
0.56  0.9  0.00014851195479
0.56  0.92  0.000115947888824
0.56  0.94  0.0000905241126322
0.56  0.96  0.0000706749821061
0.56  0.98  0.0000551781503343
0.58  -1  0.000032822305043
0.58  -0.98  0.0000420404781157
0.58  -0.96  0.0000538475831567
0.58  -0.94  0.0000689707239732
0.58  -0.92  0.0000883412121124
0.58  -0.9  0.000113151918784
0.58  -0.88  0.00014493073412
0.58  -0.86  0.000185634657532
0.58  -0.84  0.000237770313428
0.58  -0.82  0.000304548313871
0.58  -0.8  0.000390080974134
0.58  -0.78  0.000499635556825
0.58  -0.76  0.000639958639865
0.58  -0.74  0.000819691583481
0.58  -0.72  0.00104990268148
0.58  -0.7  0.00134476876766
0.58  -0.68  0.00172244825199
0.58  -0.66  0.00220619934975
0.58  -0.64  0.00282581236633
0.58  -0.62  0.00361944424044
0.58  -0.6  0.00463596832039
0.58  -0.58  0.00593798407708
0.58  -0.56  0.00760567209758
0.58  -0.54  0.00974173175696
0.58  -0.52  0.0124777056395
0.58  -0.5  0.0159820801795
0.58  -0.48  0.0204706613734
0.58  -0.46  0.0262198645207
0.58  -0.44  0.0335837363992
0.58  -0.42  0.0430157581342
0.58  -0.4  0.0550967714212
0.58  -0.38  0.0705707478541
0.58  -0.36  0.0903906040994
0.58  -0.34  0.115776884303
0.58  -0.32  0.1482929235
0.58  -0.3  0.189941120739
0.58  -0.28  0.243286250592
0.58  -0.26  0.311613406813
0.58  -0.24  0.399130304606
0.58  -0.22  0.511226399673
0.58  -0.2  0.473035167985
0.58  -0.18  0.476846429118
0.58  -0.16  0.49412384304
0.58  -0.14  0.521889611895
0.58  -0.12  0.555985197236
0.58  -0.1  0.592148928517
0.58  -0.08  0.626635064791
0.58  -0.06  0.656430446523
0.58  -0.04  0.679269165474
0.58  -0.02  0.693584075765
0.58  6.17561557e-16  0.698456568248
0.58  0.02  0.693584075765
0.58  0.04  0.679269165474
0.58  0.06  0.656430446523
0.58  0.08  0.626635064791
0.58  0.1  0.592148928517
0.58  0.12  0.555985197236
0.58  0.14  0.521889611895
0.58  0.16  0.49412384304
0.58  0.18  0.476846429118
0.58  0.2  0.654804781062
0.58  0.22  0.511226399673
0.58  0.24  0.399130304606
0.58  0.26  0.311613406813
0.58  0.28  0.243286250592
0.58  0.3  0.189941120739
0.58  0.32  0.1482929235
0.58  0.34  0.115776884303
0.58  0.36  0.0903906040994
0.58  0.38  0.0705707478541
0.58  0.4  0.0550967714212
0.58  0.42  0.0430157581342
0.58  0.44  0.0335837363992
0.58  0.46  0.0262198645207
0.58  0.48  0.0204706613734
0.58  0.5  0.0159820801795
0.58  0.52  0.0124777056395
0.58  0.54  0.00974173175696
0.58  0.56  0.00760567209758
0.58  0.58  0.00593798407708
0.58  0.6  0.00463596832038
0.58  0.62  0.00361944424044
0.58  0.64  0.00282581236633
0.58  0.66  0.00220619934975
0.58  0.68  0.00172244825199
0.58  0.7  0.00134476876766
0.58  0.72  0.00104990268148
0.58  0.74  0.000819691583481
0.58  0.76  0.000639958639865
0.58  0.78  0.000499635556825
0.58  0.8  0.000390080974134
0.58  0.82  0.000304548313871
0.58  0.84  0.000237770313428
0.58  0.86  0.000185634657532
0.58  0.88  0.00014493073412
0.58  0.9  0.000113151918784
0.58  0.92  0.0000883412121124
0.58  0.94  0.0000689707239732
0.58  0.96  0.0000538475831567
0.58  0.98  0.0000420404781157
0.6  -1  0.0000250074601723
0.6  -0.98  0.0000320308272294
0.6  -0.96  0.0000410267130661
0.6  -0.94  0.0000525491013064
0.6  -0.92  0.0000673075623598
0.6  -0.9  0.0000862109501055
0.6  -0.88  0.00011042337083
0.6  -0.86  0.000141435871087
0.6  -0.84  0.00018115825916
0.6  -0.82  0.000232036714658
0.6  -0.8  0.000297204428874
0.6  -0.78  0.000380674552613
0.6  -0.76  0.000487587333594
0.6  -0.74  0.000624526662604
0.6  -0.72  0.000799925521913
0.6  -0.7  0.00102458530424
0.6  -0.68  0.00131234098288
0.6  -0.66  0.00168091309549
0.6  -0.64  0.00215299900823
0.6  -0.62  0.00275767066238
0.6  -0.6  0.00353216487935
0.6  -0.58  0.00452417647441
0.6  -0.56  0.0057947953934
0.6  -0.54  0.00742226874689
0.6  -0.52  0.00950681941484
0.6  -0.5  0.0121768179607
0.6  -0.48  0.015596687933
0.6  -0.46  0.0199770313774
0.6  -0.44  0.0255875981087
0.6  -0.42  0.0327738974125
0.6  -0.4  0.0419784751599
0.6  -0.38  0.0537681666166
0.6  -0.36  0.0688690032283
0.6  -0.34  0.0882109230073
0.6  -0.32  0.11298503787
0.6  -0.3  0.144716984555
0.6  -0.28  0.185360876215
0.6  -0.26  0.237419640388
0.6  -0.24  0.304099154002
0.6  -0.22  0.389505667323
0.6  -0.2  0.360407598065
0.6  -0.18  0.36331141487
0.6  -0.16  0.376475153369
0.6  -0.14  0.397630016134
0.6  -0.12  0.423607594227
0.6  -0.1  0.45116090191
0.6  -0.08  0.477436042496
0.6  -0.06  0.500137276337
0.6  -0.04  0.517538197869
0.6  -0.02  0.528444791678
0.6  6.17561557e-16  0.532157165369
0.6  0.02  0.528444791678
0.6  0.04  0.517538197869
0.6  0.06  0.500137276337
0.6  0.08  0.477436042496
0.6  0.1  0.45116090191
0.6  0.12  0.423607594227
0.6  0.14  0.397630016134
0.6  0.16  0.376475153369
0.6  0.18  0.36331141487
0.6  0.2  0.498898674593
0.6  0.22  0.389505667323
0.6  0.24  0.304099154002
0.6  0.26  0.237419640388
0.6  0.28  0.185360876215
0.6  0.3  0.144716984555
0.6  0.32  0.11298503787
0.6  0.34  0.0882109230073
0.6  0.36  0.0688690032283
0.6  0.38  0.0537681666166
0.6  0.4  0.0419784751599
0.6  0.42  0.0327738974125
0.6  0.44  0.0255875981087
0.6  0.46  0.0199770313774
0.6  0.48  0.015596687933
0.6  0.5  0.0121768179607
0.6  0.52  0.00950681941484
0.6  0.54  0.00742226874689
0.6  0.56  0.0057947953934
0.6  0.58  0.00452417647441
0.6  0.6  0.00353216487935
0.6  0.62  0.00275767066238
0.6  0.64  0.00215299900823
0.6  0.66  0.00168091309549
0.6  0.68  0.00131234098288
0.6  0.7  0.00102458530424
0.6  0.72  0.000799925521913
