-0.18  -0.9  0.0160252199871
-0.18  -0.88  0.0191135670008
-0.18  -0.86  0.0227970938175
-0.18  -0.84  0.0271905022491
-0.18  -0.82  0.0324305992018
-0.18  -0.8  0.0386805567234
-0.18  -0.78  0.0461349930393
-0.18  -0.76  0.0550260327936
-0.18  -0.74  0.0656305352083
-0.18  -0.72  0.078278715238
-0.18  -0.7  0.0933644261754
-0.18  -0.68  0.1113574239
-0.18  -0.66  0.132817994664
-0.18  -0.64  0.158414401921
-0.18  -0.62  0.188943695464
-0.18  -0.6  0.225356530864
-0.18  -0.58  0.268786772049
-0.18  -0.56  0.320586798846
-0.18  -0.54  0.382369618902
-0.18  -0.52  0.456059095339
-0.18  -0.5  0.543949854171
-0.18  -0.48  0.64877873696
-0.18  -0.46  0.773810023669
-0.18  -0.44  0.922937079499
-0.18  -0.42  1.10080359088
-0.18  -0.4  1.31294816582
-0.18  -0.38  1.56597680132
-0.18  -0.36  1.86776858837
-0.18  -0.34  2.22772105995
-0.18  -0.32  2.65704282204
-0.18  -0.3  3.16910257979
-0.18  -0.28  3.77984542737
-0.18  -0.26  4.5082893643
-0.18  -0.24  5.37711749933
-0.18  -0.22  6.41338438267
-0.18  -0.2  5.64122522128
-0.18  -0.18  5.64117639524
-0.18  -0.16  5.63632649361
-0.18  -0.14  5.62718867292
-0.18  -0.12  5.61473324317
-0.18  -0.1  5.60029013021
-0.18  -0.08  5.58541219061
-0.18  -0.06  5.57171118136
-0.18  -0.04  5.56068239625
-0.18  -0.02  5.55353726102
-0.18  6.17561557e-16  5.55106434593
-0.18  0.02  5.55353726102
-0.18  0.04  5.56068239625
-0.18  0.06  5.57171118136
-0.18  0.08  5.58541219061
-0.18  0.1  5.60029013021
-0.18  0.12  5.61473324317
-0.18  0.14  5.62718867292
-0.18  0.16  5.63632649361
-0.18  0.18  5.64117639524
-0.18  0.2  7.64935846111
-0.18  0.22  6.41338438267
-0.18  0.24  5.37711749933
-0.18  0.26  4.5082893643
-0.18  0.28  3.77984542737
-0.18  0.3  3.16910257979
-0.18  0.32  2.65704282204
-0.18  0.34  2.22772105995
-0.18  0.36  1.86776858837
-0.18  0.38  1.56597680132
-0.18  0.4  1.31294816582
-0.18  0.42  1.10080359088
-0.18  0.44  0.922937079499
-0.18  0.46  0.773810023669
-0.18  0.48  0.64877873696
-0.18  0.5  0.543949854171
-0.18  0.52  0.456059095339
-0.18  0.54  0.382369618902
-0.18  0.56  0.320586798846
-0.18  0.58  0.268786772049
-0.18  0.6  0.225356530864
-0.18  0.62  0.188943695464
-0.18  0.64  0.158414401921
-0.18  0.66  0.132817994664
-0.18  0.68  0.1113574239
-0.18  0.7  0.0933644261754
-0.18  0.72  0.078278715238
-0.18  0.74  0.0656305352083
-0.18  0.76  0.0550260327936
-0.18  0.78  0.0461349930393
-0.18  0.8  0.0386805567234
-0.18  0.82  0.0324305992018
-0.18  0.84  0.0271905022491
-0.18  0.86  0.0227970938175
-0.18  0.88  0.0191135670008
-0.18  0.9  0.0160252199871
-0.18  0.92  0.0134358843447
-0.18  0.94  0.0112649304202
-0.18  0.96  0.00944475660226
-0.18  0.98  0.00791868426601
-0.16  -1  0.00813565669484
-0.16  -0.98  0.0097035435056
-0.16  -0.96  0.0115735901964
-0.16  -0.94  0.01380402839
-0.16  -0.92  0.0164643119861
-0.16  -0.9  0.019637279895
-0.16  -0.88  0.0234217355698
-0.16  -0.86  0.0279355236588
-0.16  -0.84  0.0333191995855
-0.16  -0.82  0.039740406322
-0.16  -0.8  0.0473990946448
-0.16  -0.78  0.0565337494272
-0.16  -0.76  0.0674288158508
-0.16  -0.74  0.0804235567799
-0.16  -0.72  0.0959226171114
-0.16  -0.7  0.114408624064
-0.16  -0.68  0.136457215767
-0.16  -0.66  0.162754966135
-0.16  -0.64  0.194120764172
-0.16  -0.62  0.231531313468
-0.16  -0.6  0.276151545894
-0.16  -0.58  0.329370896565
-0.16  -0.56  0.392846569635
-0.16  -0.54  0.468555142193
-0.16  -0.52  0.558854113144
-0.16  -0.5  0.666555313674
-0.16  -0.48  0.795012465217
-0.16  -0.46  0.948225611416
-0.16  -0.44  1.13096567599
-0.16  -0.42  1.34892302514
-0.16  -0.4  1.60888466059
-0.16  -0.38  1.91894556089
-0.16  -0.36  2.28876075201
-0.16  -0.34  2.7298459564
-0.16  -0.32  3.25593618255
-0.16  -0.3  3.88341342118
-0.16  -0.28  4.63181676613
-0.16  -0.26  5.52445084471
-0.16  -0.24  6.58911150347
-0.16  -0.22  7.85895134657
-0.16  -0.2  6.91274869925
-0.16  -0.18  6.91268886789
-0.16  -0.16  6.90674580591
-0.16  -0.14  6.8955483345
-0.16  -0.12  6.88028547007
-0.16  -0.1  6.86258690169
-0.16  -0.08  6.84435549741
-0.16  -0.06  6.82756630178
-0.16  -0.04  6.81405164549
-0.16  -0.02  6.80529600778
-0.16  6.17561557e-16  6.80226570143
-0.16  0.02  6.80529600778
-0.16  0.04  6.81405164549
-0.16  0.06  6.82756630178
-0.16  0.08  6.84435549741
-0.16  0.1  6.86258690169
-0.16  0.12  6.88028547007
-0.16  0.14  6.8955483345
-0.16  0.16  6.90674580591
-0.16  0.18  6.91268886789
-0.16  0.2  9.37351207902
-0.16  0.22  7.85895134657
-0.16  0.24  6.58911150347
-0.16  0.26  5.52445084471
-0.16  0.28  4.63181676613
-0.16  0.3  3.88341342118
-0.16  0.32  3.25593618255
-0.16  0.34  2.7298459564
-0.16  0.36  2.28876075202
-0.16  0.38  1.91894556089
-0.16  0.4  1.60888466059
-0.16  0.42  1.34892302514
-0.16  0.44  1.13096567599
-0.16  0.46  0.948225611416
-0.16  0.48  0.795012465218
-0.16  0.5  0.666555313674
-0.16  0.52  0.558854113144
-0.16  0.54  0.468555142193
-0.16  0.56  0.392846569635
-0.16  0.58  0.329370896565
-0.16  0.6  0.276151545894
-0.16  0.62  0.231531313468
-0.16  0.64  0.194120764172
-0.16  0.66  0.162754966135
-0.16  0.68  0.136457215768
-0.16  0.7  0.114408624064
-0.16  0.72  0.0959226171114
-0.16  0.74  0.0804235567799
-0.16  0.76  0.0674288158508
-0.16  0.78  0.0565337494272
-0.16  0.8  0.0473990946448
-0.16  0.82  0.039740406322
-0.16  0.84  0.0333191995855
-0.16  0.86  0.0279355236588
-0.16  0.88  0.0234217355698
-0.16  0.9  0.019637279895
-0.16  0.92  0.0164643119861
-0.16  0.94  0.01380402839
-0.16  0.96  0.0115735901964
-0.16  0.98  0.0097035435056
-0.14  -1  0.00996942118578
-0.14  -0.98  0.0118907072693
-0.14  -0.96  0.0141822596046
-0.14  -0.94  0.0169154351324
-0.14  -0.92  0.0201753425544
-0.14  -0.9  0.024063492544
-0.14  -0.88  0.0287009587001
-0.14  -0.86  0.0342321476736
-0.14  -0.84  0.0408292958639
-0.14  -0.82  0.0486978327109
-0.14  -0.8  0.058082777588
-0.14  -0.78  0.0692763694919
-0.14  -0.76  0.0826271671101
-0.14  -0.74  0.098550902634
-0.14  -0.72  0.117543427297
-0.14  -0.7  0.14019615175
-0.14  -0.68  0.167214462071
-0.14  -0.66  0.199439684876
-0.14  -0.64  0.23787528549
-0.14  -0.62  0.283718114989
-0.14  -0.6  0.338395679094
-0.14  -0.58  0.403610589453
-0.14  -0.56  0.481393581487
-0.14  -0.54  0.574166749716
-0.14  -0.52  0.684818969668
-0.14  -0.5  0.816795854949
-0.14  -0.48  0.97420705064
-0.14  -0.46  1.16195420406
-0.14  -0.44  1.38588359779
-0.14  -0.42  1.6529681978
-0.14  -0.4  1.97152478557
-0.14  -0.38  2.35147293534
-0.14  -0.36  2.80464390106
-0.14  -0.34  3.34514903129
-0.14  -0.32  3.98981918429
-0.14  -0.3  4.75872882625
-0.14  -0.28  5.67582113269
-0.14  -0.26  6.76965355802
-0.14  -0.24  8.07428708979
-0.14  -0.22  9.6303468781
-0.14  -0.2  8.47087161113
-0.14  -0.18  8.47079829388
-0.14  -0.16  8.46351567488
-0.14  -0.14  8.44979431066
-0.14  -0.12  8.43109122008
-0.14  -0.1  8.40940342165
-0.14  -0.08  8.38706268692
-0.14  -0.06  8.36648923244
-0.14  -0.04  8.34992839344
-0.14  -0.02  8.33919924847
-0.14  6.17561557e-16  8.33548591574
-0.14  0.02  8.33919924847
-0.14  0.04  8.34992839344
-0.14  0.06  8.36648923244
-0.14  0.08  8.38706268692
-0.14  0.1  8.40940342165
-0.14  0.12  8.43109122008
-0.14  0.14  8.44979431066
-0.14  0.16  8.46351567488
-0.14  0.18  8.47079829388
-0.14  0.2  11.4862872674
-0.14  0.22  9.63034687811
-0.14  0.24  8.07428708979
-0.14  0.26  6.76965355802
-0.14  0.28  5.67582113269
-0.14  0.3  4.75872882625
-0.14  0.32  3.98981918429
-0.14  0.34  3.34514903129
-0.14  0.36  2.80464390106
-0.14  0.38  2.35147293534
-0.14  0.4  1.97152478557
-0.14  0.42  1.6529681978
-0.14  0.44  1.38588359779
-0.14  0.46  1.16195420406
-0.14  0.48  0.97420705064
-0.14  0.5  0.81679585495
-0.14  0.52  0.684818969668
-0.14  0.54  0.574166749716
-0.14  0.56  0.481393581487
-0.14  0.58  0.403610589453
-0.14  0.6  0.338395679094
-0.14  0.62  0.283718114989
-0.14  0.64  0.23787528549
-0.14  0.66  0.199439684876
-0.14  0.68  0.167214462071
-0.14  0.7  0.14019615175
-0.14  0.72  0.117543427297
-0.14  0.74  0.098550902634
-0.14  0.76  0.0826271671101
-0.14  0.78  0.0692763694919
-0.14  0.8  0.058082777588
-0.14  0.82  0.0486978327109
-0.14  0.84  0.0408292958639
-0.14  0.86  0.0342321476736
-0.14  0.88  0.0287009587002
-0.14  0.9  0.024063492544
-0.14  0.92  0.0201753425544
-0.14  0.94  0.0169154351324
-0.14  0.96  0.0141822596046
-0.14  0.98  0.0118907072693
-0.12  -1  0.0122165133692
-0.12  -0.98  0.0145708543773
-0.12  -0.96  0.0173789190802
-0.12  -0.94  0.0207281481632
-0.12  -0.92  0.0247228336982
-0.12  -0.9  0.0294873667081
-0.12  -0.88  0.0351701105946
-0.12  -0.86  0.0419480210452
-0.12  -0.84  0.0500321562787
-0.12  -0.82  0.0596742492142
-0.12  -0.8  0.0711745462147
-0.12  -0.78  0.0848911564968
-0.12  -0.76  0.101251203339
-0.12  -0.74  0.120764124329
-0.12  -0.72  0.144037534805
-0.12  -0.7  0.171796148467
-0.12  -0.68  0.204904344329
-0.12  -0.66  0.24439308273
-0.12  -0.64  0.291492008536
-0.12  -0.62  0.347667741211
-0.12  -0.6  0.414669544067
-0.12  -0.58  0.494583794797
-0.12  -0.56  0.589898953458
-0.12  -0.54  0.703583050943
-0.12  -0.52  0.83917611088
-0.12  -0.5  1.00090038287
-0.12  -0.48  1.19379181967
-0.12  -0.46  1.42385689236
-0.12  -0.44  1.69825962661
-0.12  -0.42  2.02554468419
-0.12  -0.4  2.41590343629
-0.12  -0.38  2.88149131394
-0.12  -0.36  3.4368063175
-0.12  -0.34  4.09914047176
-0.12  -0.32  4.88911828451
-0.12  -0.3  5.83133897573
-0.12  -0.28  6.95514247581
-0.12  -0.26  8.29552304542
-0.12  -0.24  9.89421896625
-0.12  -0.22  11.8010122347
-0.12  -0.2  10.380193028
-0.12  -0.18  10.3801031852
-0.12  -0.16  10.371179075
-0.12  -0.14  10.3543649365
-0.12  -0.12  10.3314461981
-0.12  -0.1  10.3048700033
-0.12  -0.08  10.2774937013
-0.12  -0.06  10.2522830219
-0.12  -0.04  10.2319893953
-0.12  -0.02  10.2188419176
-0.12  6.17561557e-16  10.2142916053
-0.12  0.02  10.2188419176
-0.12  0.04  10.2319893953
-0.12  0.06  10.2522830219
-0.12  0.08  10.2774937013
-0.12  0.1  10.3048700033
-0.12  0.12  10.3314461981
-0.12  0.14  10.3543649365
-0.12  0.16  10.371179075
-0.12  0.18  10.3801031852
-0.12  0.2  14.0752787297
-0.12  0.22  11.8010122347
-0.12  0.24  9.89421896625
-0.12  0.26  8.29552304543
-0.12  0.28  6.95514247581
-0.12  0.3  5.83133897573
-0.12  0.32  4.88911828451
-0.12  0.34  4.09914047176
-0.12  0.36  3.4368063175
-0.12  0.38  2.88149131394
-0.12  0.4  2.41590343629
-0.12  0.42  2.02554468419
-0.12  0.44  1.69825962661
-0.12  0.46  1.42385689236
-0.12  0.48  1.19379181967
-0.12  0.5  1.00090038287
-0.12  0.52  0.83917611088
-0.12  0.54  0.703583050944
-0.12  0.56  0.589898953458
-0.12  0.58  0.494583794797
-0.12  0.6  0.414669544067
-0.12  0.62  0.347667741211
-0.12  0.64  0.291492008536
-0.12  0.66  0.24439308273
-0.12  0.68  0.204904344329
-0.12  0.7  0.171796148467
-0.12  0.72  0.144037534805
-0.12  0.74  0.120764124329
-0.12  0.76  0.101251203339
-0.12  0.78  0.0848911564968
-0.12  0.8  0.0711745462148
-0.12  0.82  0.0596742492142
-0.12  0.84  0.0500321562787
-0.12  0.86  0.0419480210452
-0.12  0.88  0.0351701105946
-0.12  0.9  0.0294873667081
-0.12  0.92  0.0247228336982
-0.12  0.94  0.0207281481632
-0.12  0.96  0.0173789190802
-0.12  0.98  0.0145708543773
-0.1  -1  0.0149700966704
-0.1  -0.98  0.0178551025163
-0.1  -0.96  0.0212961006791
-0.1  -0.94  0.0254002408399
-0.1  -0.92  0.0302953223431
-0.1  -0.9  0.0361337737565
-0.1  -0.88  0.0430973993643
-0.1  -0.86  0.0514030403931
-0.1  -0.84  0.0613093272595
-0.1  -0.82  0.0731247330949
-0.1  -0.8  0.08721717933
-0.1  -0.78  0.104025492448
-0.1  -0.76  0.124073068655
-0.1  -0.74  0.147984171989
-0.1  -0.72  0.176503373347
-0.1  -0.7  0.210518735783
-0.1  -0.68  0.251089468009
-0.1  -0.66  0.299478907237
-0.1  -0.64  0.357193858392
-0.1  -0.62  0.426031514707
-0.1  -0.6  0.508135420751
-0.1  -0.58  0.606062220536
-0.1  -0.56  0.722861269183
-0.1  -0.54  0.86216958718
-0.1  -0.52  1.02832511403
-0.1  -0.5  1.22650178789
-0.1  -0.48  1.46287065751
-0.1  -0.46  1.74479204331
-0.1  -0.44  2.0810447313
-0.1  -0.42  2.48209933687
-0.1  -0.4  2.96044435058
-0.1  -0.38  3.5309750189
-0.1  -0.36  4.21145716913
-0.1  -0.34  5.02308042183
-0.1  -0.32  5.9911180171
-0.1  -0.3  7.1457138012
-0.1  -0.28  8.52282087965
-0.1  -0.26  10.1653211656
-0.1  -0.24  12.1243606852
-0.1  -0.22  14.46094222
-0.1  -0.2  12.7198725521
-0.1  -0.18  12.7197624588
-0.1  -0.16  12.708826868
-0.1  -0.14  12.6882228485
-0.1  -0.12  12.6601382617
-0.1  -0.1  12.6275718336
-0.1  -0.08  12.5940249553
-0.1  -0.06  12.5631318276
-0.1  -0.04  12.5382640488
-0.1  -0.02  12.5221531498
-0.1  6.17561557e-16  12.5165772042
-0.1  0.02  12.5221531498
-0.1  0.04  12.5382640488
-0.1  0.06  12.5631318276
-0.1  0.08  12.5940249553
-0.1  0.1  12.6275718336
-0.1  0.12  12.6601382617
-0.1  0.14  12.6882228485
-0.1  0.16  12.708826868
-0.1  0.18  12.7197624588
-0.1  0.2  17.2478248809
-0.1  0.22  14.46094222
-0.1  0.24  12.1243606852
-0.1  0.26  10.1653211656
-0.1  0.28  8.52282087966
-0.1  0.3  7.1457138012
-0.1  0.32  5.9911180171
-0.1  0.34  5.02308042183
-0.1  0.36  4.21145716913
-0.1  0.38  3.5309750189
-0.1  0.4  2.96044435058
-0.1  0.42  2.48209933687
-0.1  0.44  2.0810447313
-0.1  0.46  1.74479204331
-0.1  0.48  1.46287065751
-0.1  0.5  1.22650178789
-0.1  0.52  1.02832511403
-0.1  0.54  0.86216958718
-0.1  0.56  0.722861269183
-0.1  0.58  0.606062220536
-0.1  0.6  0.508135420751
-0.1  0.62  0.426031514707
-0.1  0.64  0.357193858392
-0.1  0.66  0.299478907237
-0.1  0.68  0.251089468009
-0.1  0.7  0.210518735783
-0.1  0.72  0.176503373347
-0.1  0.74  0.147984171989
-0.1  0.76  0.124073068655
-0.1  0.78  0.104025492448
-0.1  0.8  0.08721717933
-0.1  0.82  0.0731247330949
-0.1  0.84  0.0613093272595
-0.1  0.86  0.0514030403931
-0.1  0.88  0.0430973993643
-0.1  0.9  0.0361337737565
-0.1  0.92  0.0302953223431
-0.1  0.94  0.0254002408399
-0.1  0.96  0.0212961006792
-0.1  0.98  0.0178551025163
-0.08  -1  0.0183443334075
-0.08  -0.98  0.0218796151285
-0.08  -0.96  0.0260962089784
-0.08  -0.94  0.0311254160114
-0.08  -0.92  0.0371238413475
-0.08  -0.9  0.0442782707189
-0.08  -0.88  0.0528114868154
-0.08  -0.86  0.0629892065423
-0.08  -0.84  0.0751283552137
-0.08  -0.82  0.0896069353298
-0.08  -0.8  0.106875797245
-0.08  -0.78  0.127472678257
-0.08  -0.76  0.152038947271
-0.08  -0.74  0.181339576475
-0.08  -0.72  0.216286961902
-0.08  -0.7  0.257969334651
-0.08  -0.68  0.307684647446
-0.08  -0.66  0.366980991761
-0.08  -0.64  0.437704804031
-0.08  -0.62  0.522058362077
-0.08  -0.6  0.622668362111
-0.08  -0.58  0.74266771177
-0.08  -0.56  0.885793086124
-0.08  -0.54  1.05650128448
-0.08  -0.52  1.26010801121
-0.08  -0.5  1.50295340219
-0.08  -0.48  1.79259945104
-0.08  -0.46  2.13806548307
-0.08  -0.44  2.55010900914
-0.08  -0.42  3.04156070522
-0.08  -0.4  3.62772394842
-0.08  -0.38  4.32685135082
-0.08  -0.36  5.16071312984
-0.08  -0.34  6.15527501388
-0.08  -0.32  7.34150679244
-0.08  -0.3  8.75634668832
-0.08  -0.28  10.4438515817
-0.08  -0.26  12.4565689028
-0.08  -0.24  14.8571729133
-0.08  -0.22  17.720416328
-0.08  -0.2  15.586912238
-0.08  -0.18  15.5867773299
-0.08  -0.16  15.5733768738
-0.08  -0.14  15.54812874
-0.08  -0.12  15.5137139306
-0.08  -0.1  15.4738070797
-0.08  -0.08  15.4326987867
-0.08  -0.06  15.3948423956
-0.08  -0.04  15.3643694577
-0.08  -0.02  15.3446271869
-0.08  6.17561557e-16  15.3377944318
-0.08  0.02  15.3446271869
-0.08  0.04  15.3643694577
-0.08  0.06  15.3948423956
-0.08  0.08  15.4326987867
-0.08  0.1  15.4738070797
-0.08  0.12  15.5137139306
-0.08  0.14  15.54812874
-0.08  0.16  15.5733768738
-0.08  0.18  15.5867773299
-0.08  0.2  21.1354580492
-0.08  0.22  17.720416328
-0.08  0.24  14.8571729133
-0.08  0.26  12.4565689028
-0.08  0.28  10.4438515817
-0.08  0.3  8.75634668832
-0.08  0.32  7.34150679245
-0.08  0.34  6.15527501389
-0.08  0.36  5.16071312984
-0.08  0.38  4.32685135082
-0.08  0.4  3.62772394842
-0.08  0.42  3.04156070522
-0.08  0.44  2.55010900914
-0.08  0.46  2.13806548307
-0.08  0.48  1.79259945104
-0.08  0.5  1.50295340219
-0.08  0.52  1.26010801121
-0.08  0.54  1.05650128448
-0.08  0.56  0.885793086124
-0.08  0.58  0.742667711771
-0.08  0.6  0.622668362111
-0.08  0.62  0.522058362077
-0.08  0.64  0.437704804031
-0.08  0.66  0.366980991761
-0.08  0.68  0.307684647446
-0.08  0.7  0.257969334651
-0.08  0.72  0.216286961903
-0.08  0.74  0.181339576475
-0.08  0.76  0.152038947271
-0.08  0.78  0.127472678257
-0.08  0.8  0.106875797245
-0.08  0.82  0.0896069353298
-0.08  0.84  0.0751283552137
-0.08  0.86  0.0629892065423
-0.08  0.88  0.0528114868154
-0.08  0.9  0.044278270719
-0.08  0.92  0.0371238413475
-0.08  0.94  0.0311254160115
-0.08  0.96  0.0260962089784
-0.08  0.98  0.0218796151285
-0.06  -1  0.0224791179091
-0.06  -0.98  0.0268112466861
-0.06  -0.96  0.0319782542966
-0.06  -0.94  0.0381410368505
-0.06  -0.92  0.0454914980203
-0.06  -0.9  0.054258524755
-0.06  -0.88  0.0647151146193
-0.06  -0.86  0.0771868767
-0.06  -0.84  0.0920621707889
-0.06  -0.82  0.109804200568
-0.06  -0.8  0.130965437367
-0.06  -0.78  0.156204823641
-0.06  -0.76  0.186308291861
-0.06  -0.74  0.222213237768
-0.06  -0.72  0.265037710055
-0.06  -0.7  0.316115225435
-0.06  -0.68  0.377036293178
-0.06  -0.66  0.449697942191
-0.06  -0.64  0.536362792839
-0.06  -0.62  0.639729512972
-0.06  -0.6  0.763016852085
-0.06  -0.58  0.910063870371
-0.06  -0.56  1.08544948371
-0.06  -0.54  1.29463504709
-0.06  -0.52  1.5441344165
-0.06  -0.5  1.84171678465
-0.06  -0.48  2.19664860689
-0.06  -0.46  2.61998215055
-0.06  -0.44  3.12489965289
-0.06  -0.42  3.72712380448
-0.06  -0.4  4.44540734007
-0.06  -0.38  5.30211698238
-0.06  -0.36  6.32392992233
-0.06  -0.34  7.54266452352
-0.06  -0.32  8.99627111829
-0.06  -0.3  10.730013748
-0.06  -0.28  12.7978796457
-0.06  -0.26  15.2642603516
-0.06  -0.24  18.2059568094
-0.06  -0.22  21.7145708808
-0.06  -0.2  19.1001782542
-0.06  -0.18  19.100012938
-0.06  -0.16  19.0835920397
-0.06  -0.14  19.0526530154
-0.06  -0.12  19.010481161
-0.06  -0.1  18.9615793673
-0.06  -0.08  18.9112053285
-0.06  -0.06  18.864816165
-0.06  -0.04  18.8274746739
-0.06  -0.02  18.8032825257
-0.06  6.17561557e-16  18.7949096781
-0.06  0.02  18.8032825257
-0.06  0.04  18.8274746739
-0.06  0.06  18.864816165
-0.06  0.08  18.9112053285
-0.06  0.1  18.9615793673
-0.06  0.12  19.010481161
-0.06  0.14  19.0526530154
-0.06  0.16  19.0835920397
-0.06  0.18  19.100012938
-0.06  0.2  25.8993577471
-0.06  0.22  21.7145708808
-0.06  0.24  18.2059568095
-0.06  0.26  15.2642603516
-0.06  0.28  12.7978796457
-0.06  0.3  10.730013748
-0.06  0.32  8.99627111829
-0.06  0.34  7.54266452352
-0.06  0.36  6.32392992233
-0.06  0.38  5.30211698238
-0.06  0.4  4.44540734008
-0.06  0.42  3.72712380448
-0.06  0.44  3.12489965289
-0.06  0.46  2.61998215055
-0.06  0.48  2.19664860689
-0.06  0.5  1.84171678465
-0.06  0.52  1.5441344165
-0.06  0.54  1.29463504709
-0.06  0.56  1.08544948371
-0.06  0.58  0.910063870371
-0.06  0.6  0.763016852086
-0.06  0.62  0.639729512973
-0.06  0.64  0.536362792839
-0.06  0.66  0.449697942191
-0.06  0.68  0.377036293178
-0.06  0.7  0.316115225435
-0.06  0.72  0.265037710056
-0.06  0.74  0.222213237768
-0.06  0.76  0.186308291861
-0.06  0.78  0.156204823641
-0.06  0.8  0.130965437367
-0.06  0.82  0.109804200568
-0.06  0.84  0.0920621707889
-0.06  0.86  0.0771868767
-0.06  0.88  0.0647151146193
-0.06  0.9  0.054258524755
-0.06  0.92  0.0454914980203
-0.06  0.94  0.0381410368505
-0.06  0.96  0.0319782542967
-0.06  0.98  0.0268112466861
-0.04  -1  0.0275458764703
-0.04  -0.98  0.0328544604025
-0.04  -0.96  0.0391861035719
-0.04  -0.94  0.0467379678233
-0.04  -0.92  0.0557452116218
-0.04  -0.9  0.0664883126822
-0.04  -0.88  0.0793018017998
-0.04  -0.86  0.0945846798483
-0.04  -0.84  0.112812842318
-0.04  -0.82  0.134553898288
-0.04  -0.8  0.160484845276
-0.04  -0.78  0.19141315035
-0.04  -0.76  0.228301893951
-0.04  -0.74  0.272299759375
-0.04  -0.72  0.324776801771
-0.04  -0.7  0.387367110462
-0.04  -0.68  0.462019693062
-0.04  -0.66  0.551059165872
-0.04  -0.64  0.657258140401
-0.04  -0.62  0.783923560078
-0.04  -0.6  0.934999675578
-0.04  -0.58  1.11519086535
-0.04  -0.56  1.33010812585
-0.04  -0.54  1.5864437931
-0.04  -0.52  1.89217993617
-0.04  -0.5  2.25683691185
-0.04  -0.48  2.69176982027
-0.04  -0.46  3.21052209278
-0.04  -0.44  3.82924722262
-0.04  -0.42  4.56721177062
-0.04  -0.4  5.44739530905
-0.04  -0.38  6.49720598549
-0.04  -0.36  7.74933398862
-0.04  -0.34  9.24276949219
-0.04  -0.32  11.024016775
-0.04  -0.3  13.1485423237
-0.04  -0.28  15.6825020104
-0.04  -0.26  18.7048011295
-0.04  -0.24  22.309551439
-0.04  -0.22  26.6090017191
-0.04  -0.2  23.4053290204
-0.04  -0.18  23.4051264421
-0.04  -0.16  23.3850042987
-0.04  -0.14  23.3470916659
-0.04  -0.12  23.2954143406
-0.04  -0.1  23.2354901578
-0.04  -0.08  23.1737618882
-0.04  -0.06  23.1169166787
-0.04  -0.04  23.071158473
-0.04  -0.02  23.0415134519
-0.04  6.17561557e-16  23.0312533773
-0.04  0.02  23.0415134519
-0.04  0.04  23.071158473
-0.04  0.06  23.1169166787
-0.04  0.08  23.1737618882
-0.04  0.1  23.2354901578
-0.04  0.12  23.2954143406
-0.04  0.14  23.3470916659
-0.04  0.16  23.3850042987
-0.04  0.18  23.4051264421
-0.04  0.2  31.7370331009
-0.04  0.22  26.6090017191
-0.04  0.24  22.309551439
-0.04  0.26  18.7048011295
-0.04  0.28  15.6825020104
-0.04  0.3  13.1485423237
-0.04  0.32  11.024016775
-0.04  0.34  9.24276949219
-0.04  0.36  7.74933398862
-0.04  0.38  6.49720598549
-0.04  0.4  5.44739530905
-0.04  0.42  4.56721177063
-0.04  0.44  3.82924722262
-0.04  0.46  3.21052209278
-0.04  0.48  2.69176982027
-0.04  0.5  2.25683691185
-0.04  0.52  1.89217993617
-0.04  0.54  1.5864437931
-0.04  0.56  1.33010812585
-0.04  0.58  1.11519086535
-0.04  0.6  0.934999675578
-0.04  0.62  0.783923560078
-0.04  0.64  0.657258140401
-0.04  0.66  0.551059165872
-0.04  0.68  0.462019693063
-0.04  0.7  0.387367110463
-0.04  0.72  0.324776801771
-0.04  0.74  0.272299759375
-0.04  0.76  0.228301893951
-0.04  0.78  0.19141315035
-0.04  0.8  0.160484845276
-0.04  0.82  0.134553898288
-0.04  0.84  0.112812842318
-0.04  0.86  0.0945846798483
-0.04  0.88  0.0793018017998
-0.04  0.9  0.0664883126822
-0.04  0.92  0.0557452116218
-0.04  0.94  0.0467379678233
-0.04  0.96  0.0391861035719
-0.04  0.98  0.0328544604026
-0.02  -1  0.0337546746089
-0.02  -0.98  0.0402598051848
-0.02  -0.96  0.0480185909744
-0.02  -0.94  0.0572726337989
-0.02  -0.92  0.0683100964795
-0.02  -0.9  0.0814746759755
-0.02  -0.88  0.0971763058088
-0.02  -0.86  0.115903921035
-0.02  -0.84  0.138240683257
-0.02  -0.82  0.164882139763
-0.02  -0.8  0.196657882271
-0.02  -0.78  0.234557379682
-0.02  -0.76  0.279760789285
-0.02  -0.74  0.333675705824
-0.02  -0.72  0.397980992767
-0.02  -0.7  0.474679060655
-0.02  -0.68  0.566158220416
-0.02  -0.66  0.675267053284
-0.02  -0.64  0.805403113137
-0.02  -0.62  0.960618723358
-0.02  -0.6  1.14574716265
-0.02  -0.58  1.36655316912
-0.02  -0.56  1.62991244919
-0.02  -0.54  1.94402578111
-0.02  -0.52  2.31867438002
-0.02  -0.5  2.76552447649
-0.02  -0.48  3.2984905927
-0.02  -0.46  3.93416882861
-0.02  -0.44  4.69235364995
-0.02  -0.42  5.59665427068
-0.02  -0.4  6.67522982328
-0.02  -0.38  7.96166620959
-0.02  -0.36  9.49602193647
-0.02  -0.34  11.3260755028
-0.02  -0.32  13.5088131802
-0.02  -0.3  16.112203516
-0.02  -0.28  19.2173138141
-0.02  -0.26  22.9208345006
-0.02  -0.24  27.3380899789
-0.02  -0.22  32.6066297314
-0.02  -0.2  28.6808541398
-0.02  -0.18  28.6806059007
-0.02  -0.16  28.6559482571
-0.02  -0.14  28.6094901753
-0.02  -0.12  28.5461648604
-0.02  -0.1  28.4727338591
-0.02  -0.08  28.3970921326
-0.02  -0.06  28.3274341004
-0.02  -0.04  28.2713620656
-0.02  -0.02  28.2350351024
-0.02  6.17561557e-16  28.2224624228
-0.02  0.02  28.2350351024
-0.02  0.04  28.2713620656
-0.02  0.06  28.3274341004
-0.02  0.08  28.3970921326
-0.02  0.1  28.4727338591
-0.02  0.12  28.5461648604
-0.02  0.14  28.6094901753
-0.02  0.16  28.6559482571
-0.02  0.18  28.6806059007
-0.02  0.2  38.89051149
-0.02  0.22  32.6066297314
-0.02  0.24  27.3380899789
-0.02  0.26  22.9208345006
-0.02  0.28  19.2173138141
-0.02  0.3  16.112203516
-0.02  0.32  13.5088131802
-0.02  0.34  11.3260755028
-0.02  0.36  9.49602193647
-0.02  0.38  7.96166620959
-0.02  0.4  6.67522982328
-0.02  0.42  5.59665427068
-0.02  0.44  4.69235364996
-0.02  0.46  3.93416882861
-0.02  0.48  3.29849059271
-0.02  0.5  2.76552447649
-0.02  0.52  2.31867438002
-0.02  0.54  1.94402578111
-0.02  0.56  1.62991244919
-0.02  0.58  1.36655316912
-0.02  0.6  1.14574716265
-0.02  0.62  0.960618723358
-0.02  0.64  0.805403113138
-0.02  0.66  0.675267053284
-0.02  0.68  0.566158220416
-0.02  0.7  0.474679060655
-0.02  0.72  0.397980992767
-0.02  0.74  0.333675705824
-0.02  0.76  0.279760789285
-0.02  0.78  0.234557379682
-0.02  0.8  0.196657882271
-0.02  0.82  0.164882139763
-0.02  0.84  0.138240683257
-0.02  0.86  0.115903921035
-0.02  0.88  0.0971763058088
-0.02  0.9  0.0814746759755
-0.02  0.92  0.0683100964795
-0.02  0.94  0.0572726337989
-0.02  0.96  0.0480185909744
-0.02  0.98  0.0402598051848
2.8449465e-16  -1  0.0413629262869
2.8449465e-16  -0.98  0.0493343032774
2.8449465e-16  -0.96  0.0588419074363
2.8449465e-16  -0.94  0.0701817972632
2.8449465e-16  -0.92  0.0837070870354
2.8449465e-16  -0.9  0.0998389424777
2.8449465e-16  -0.88  0.119079695497
2.8449465e-16  -0.86  0.142028486357
2.8449465e-16  -0.84  0.169399920386
2.8449465e-16  -0.82  0.202046320164
2.8449465e-16  -0.8  0.240984266102
2.8449465e-16  -0.78  0.287426251868
2.8449465e-16  -0.76  0.342818440387
2.8449465e-16  -0.74  0.40888569609
2.8449465e-16  -0.72  0.487685295687
2.8449465e-16  -0.7  0.581670989969
2.8449465e-16  -0.68  0.693769411471
2.8449465e-16  -0.66  0.827471207252
2.8449465e-16  -0.64  0.9869397346
2.8449465e-16  -0.62  1.17714070435
2.8449465e-16  -0.6  1.40399680878
2.8449465e-16  -0.58  1.67457214908
2.8449465e-16  -0.56  1.99729220534
2.8449465e-16  -0.54  2.38220619857
2.8449465e-16  -0.52  2.84130001476
2.8449465e-16  -0.5  3.38886943486
2.8449465e-16  -0.48  4.04196529296
2.8449465e-16  -0.46  4.82092442436
2.8449465e-16  -0.44  5.75000293691
2.8449465e-16  -0.42  6.85813152502
2.8449465e-16  -0.4  8.17981634628
2.8449465e-16  -0.38  9.75621351308
2.8449465e-16  -0.36  11.636410658
2.8449465e-16  -0.34  13.8789554801
2.8449465e-16  -0.32  16.5536788689
2.8449465e-16  -0.3  19.7438693774
2.8449465e-16  -0.28  23.5488667551
2.8449465e-16  -0.26  28.0871553013
2.8449465e-16  -0.24  33.5000533623
2.8449465e-16  -0.22  39.956113862
2.8449465e-16  -0.2  35.1454744973
2.8449465e-16  -0.18  35.1451703055
2.8449465e-16  -0.16  35.114954867
2.8449465e-16  -0.14  35.0580252051
2.8449465e-16  -0.12  34.9804264617
2.8449465e-16  -0.1  34.8904442259
2.8449465e-16  -0.08  34.7977529707
2.8449465e-16  -0.06  34.7123941253
2.8449465e-16  -0.04  34.6436835402
2.8449465e-16  -0.02  34.5991685354
2.8449465e-16  6.17561557e-16  34.5837619932
2.8449465e-16  0.02  34.5991685354
2.8449465e-16  0.04  34.6436835402
2.8449465e-16  0.06  34.7123941253
2.8449465e-16  0.08  34.7977529707
2.8449465e-16  0.1  34.8904442259
2.8449465e-16  0.12  34.9804264617
2.8449465e-16  0.14  35.0580252051
2.8449465e-16  0.16  35.114954867
2.8449465e-16  0.18  35.1451703055
2.8449465e-16  0.2  47.6563728925
2.8449465e-16  0.22  39.956113862
2.8449465e-16  0.24  33.5000533623
2.8449465e-16  0.26  28.0871553013
2.8449465e-16  0.28  23.5488667551
2.8449465e-16  0.3  19.7438693774
2.8449465e-16  0.32  16.5536788689
2.8449465e-16  0.34  13.8789554801
2.8449465e-16  0.36  11.636410658
2.8449465e-16  0.38  9.75621351308
2.8449465e-16  0.4  8.17981634628
2.8449465e-16  0.42  6.85813152502
2.8449465e-16  0.44  5.75000293691
2.8449465e-16  0.46  4.82092442436
2.8449465e-16  0.48  4.04196529296
2.8449465e-16  0.5  3.38886943486
2.8449465e-16  0.52  2.84130001476
2.8449465e-16  0.54  2.38220619857
2.8449465e-16  0.56  1.99729220534
2.8449465e-16  0.58  1.67457214908
2.8449465e-16  0.6  1.40399680878
2.8449465e-16  0.62  1.17714070435
2.8449465e-16  0.64  0.9869397346
2.8449465e-16  0.66  0.827471207252
2.8449465e-16  0.68  0.693769411472
2.8449465e-16  0.7  0.581670989969
2.8449465e-16  0.72  0.487685295687
2.8449465e-16  0.74  0.40888569609
2.8449465e-16  0.76  0.342818440387
2.8449465e-16  0.78  0.287426251868
2.8449465e-16  0.8  0.240984266102
2.8449465e-16  0.82  0.202046320164
2.8449465e-16  0.84  0.169399920386
2.8449465e-16  0.86  0.142028486357
2.8449465e-16  0.88  0.119079695497
2.8449465e-16  0.9  0.0998389424778
2.8449465e-16  0.92  0.0837070870354
2.8449465e-16  0.94  0.0701817972632
2.8449465e-16  0.96  0.0588419074363
2.8449465e-16  0.98  0.0493343032774
0.02  -1  0.0493750310565
0.02  -0.98  0.058890484188
0.02  -0.96  0.0702397356254
0.02  -0.94  0.083776191158
0.02  -0.92  0.099921364203
0.02  -0.9  0.119178001365
0.02  -0.88  0.142145737527
0.02  -0.86  0.169539767958
0.02  -0.84  0.202213118869
0.02  -0.82  0.241183209905
0.02  -0.8  0.287663535707
0.02  -0.78  0.343101453074
0.02  -0.76  0.409223250392
0.02  -0.74  0.48808790275
0.02  -0.72  0.582151186627
0.02  -0.7  0.694342150629
0.02  -0.68  0.828154323507
0.02  -0.66  0.987754499597
0.02  -0.64  1.17811248916
0.02  -0.62  1.40515587393
0.02  -0.6  1.67595458686
0.02  -0.58  1.99894106364
0.02  -0.56  2.38417282141
0.02  -0.54  2.84364564106
0.02  -0.52  3.39166710538
0.02  -0.5  4.04530212471
0.02  -0.48  4.82490432337
0.02  -0.46  5.75474983376
0.02  -0.44  6.86379323395
0.02  -0.42  8.18656916796
0.02  -0.4  9.76426772448
0.02  -0.38  11.6460170603
0.02  -0.36  13.8904132082
0.02  -0.34  16.5673447065
0.02  -0.32  19.7601688667
0.02  -0.3  23.5683074481
0.02  -0.28  28.1103425641
0.02  -0.26  33.5277092261
0.02  -0.24  39.9890995062
0.02  -0.22  47.6957154613
0.02  -0.2  41.9532429297
0.02  -0.18  41.9528798151
0.02  -0.16  41.9168115688
0.02  -0.14  41.8488544856
0.02  -0.12  41.7562246668
0.02  -0.1  41.6488126415
0.02  -0.08  41.5381668527
0.02  -0.06  41.4362737803
0.02  -0.04  41.3542537789
0.02  -0.02  41.3011161036
0.02  6.17561557e-16  41.2827252747
0.02  0.02  41.3011161036
0.02  0.04  41.3542537789
0.02  0.06  41.4362737803
0.02  0.08  41.5381668527
0.02  0.1  41.6488126415
0.02  0.12  41.7562246668
0.02  0.14  41.8488544856
0.02  0.16  41.9168115688
0.02  0.18  41.9528798151
0.02  0.2  56.8875343896
0.02  0.22  47.6957154613
0.02  0.24  39.9890995062
0.02  0.26  33.5277092261
0.02  0.28  28.1103425641
0.02  0.3  23.5683074481
0.02  0.32  19.7601688667
0.02  0.34  16.5673447065
0.02  0.36  13.8904132082
0.02  0.38  11.6460170603
0.02  0.4  9.76426772448
0.02  0.42  8.18656916796
0.02  0.44  6.86379323395
0.02  0.46  5.75474983377
0.02  0.48  4.82490432337
0.02  0.5  4.04530212471
0.02  0.52  3.39166710538
0.02  0.54  2.84364564106
0.02  0.56  2.38417282141
0.02  0.58  1.99894106364
0.02  0.6  1.67595458686
0.02  0.62  1.40515587393
0.02  0.64  1.17811248916
0.02  0.66  0.987754499597
0.02  0.68  0.828154323507
0.02  0.7  0.694342150629
0.02  0.72  0.582151186627
0.02  0.74  0.48808790275
0.02  0.76  0.409223250392
0.02  0.78  0.343101453074
0.02  0.8  0.287663535707
0.02  0.82  0.241183209905
0.02  0.84  0.202213118869
0.02  0.86  0.169539767958
0.02  0.88  0.142145737527
0.02  0.9  0.119178001365
0.02  0.92  0.099921364203
0.02  0.94  0.083776191158
0.02  0.96  0.0702397356254
0.02  0.98  0.0588904841881
0.04  -1  0.0565027003814
0.04  -0.98  0.0673917830975
0.04  -0.96  0.0803793871516
0.04  -0.94  0.0958699352043
0.04  -0.92  0.114345789409
0.04  -0.9  0.136382271749
0.04  -0.88  0.162665579062
0.04  -0.86  0.194014150608
0.04  -0.84  0.23140415356
0.04  -0.82  0.275999879994
0.04  -0.8  0.329190001928
0.04  -0.78  0.392630813361
0.04  -0.76  0.468297805819
0.04  -0.74  0.55854718344
0.04  -0.72  0.666189233117
0.04  -0.7  0.794575834378
0.04  -0.68  0.947704833991
0.04  -0.66  1.13034453542
0.04  -0.64  1.34818217966
0.04  -0.62  1.60800104091
0.04  -0.6  1.91789165187
0.04  -0.58  2.28750373584
0.04  -0.56  2.72834669069
0.04  -0.54  3.25414798147
0.04  -0.52  3.88128060171
0.04  -0.5  4.62927291414
0.04  -0.48  5.52141674687
0.04  -0.46  6.5854926806
0.04  -0.44  7.8546351117
0.04  -0.42  9.36836402836
0.04  -0.4  11.1738156286
0.04  -0.38  13.3272101002
0.04  -0.36  15.8956022687
0.04  -0.34  18.9589696256
0.04  -0.32  22.6127027582
0.04  -0.3  26.9705757291
0.04  -0.28  32.1682889009
0.04  -0.26  38.3676945278
0.04  -0.24  45.761836693
0.04  -0.22  54.5809625336
0.04  -0.2  48.009519479
0.04  -0.18  48.0091039461
0.04  -0.16  47.9678289682
0.04  -0.14  47.8900617521
0.04  -0.12  47.7840600993
0.04  -0.1  47.6611423136
0.04  -0.08  47.5345239456
0.04  -0.06  47.4179218167
0.04  -0.04  47.3240615908
0.04  -0.02  47.2632530793
0.04  6.17561557e-16  47.2422073913
0.04  0.02  47.2632530793
0.04  0.04  47.3240615908
0.04  0.06  47.4179218167
0.04  0.08  47.5345239456
0.04  0.1  47.6611423136
0.04  0.12  47.7840600993
0.04  0.14  47.8900617521
0.04  0.16  47.9678289682
0.04  0.18  48.0091039461
0.04  0.2  65.0996919349
0.04  0.22  54.5809625336
0.04  0.24  45.761836693
0.04  0.26  38.3676945278
0.04  0.28  32.1682889009
0.04  0.3  26.9705757291
0.04  0.32  22.6127027583
0.04  0.34  18.9589696256
0.04  0.36  15.8956022687
0.04  0.38  13.3272101002
0.04  0.4  11.1738156286
0.04  0.42  9.36836402836
0.04  0.44  7.8546351117
0.04  0.46  6.5854926806
0.04  0.48  5.52141674687
0.04  0.5  4.62927291414
0.04  0.52  3.88128060171
0.04  0.54  3.25414798147
0.04  0.56  2.72834669069
0.04  0.58  2.28750373584
0.04  0.6  1.91789165187
0.04  0.62  1.60800104091
0.04  0.64  1.34818217966
0.04  0.66  1.13034453542
0.04  0.68  0.947704833991
0.04  0.7  0.794575834378
0.04  0.72  0.666189233118
0.04  0.74  0.55854718344
0.04  0.76  0.468297805819
0.04  0.78  0.392630813361
0.04  0.8  0.329190001928
0.04  0.82  0.275999879994
0.04  0.84  0.23140415356
0.04  0.86  0.194014150608
0.04  0.88  0.162665579062
0.04  0.9  0.136382271749
0.04  0.92  0.114345789409
0.04  0.94  0.0958699352043
0.04  0.96  0.0803793871516
0.04  0.98  0.0673917830975
0.06  -1  0.0626182591341
0.06  -0.98  0.0746859195937
0.06  -0.96  0.0890792344388
0.06  -0.94  0.106246398938
0.06  -0.92  0.126721983618
0.06  -0.9  0.151143580325
0.06  -0.88  0.180271656277
0.06  -0.86  0.215013234349
0.06  -0.84  0.256450136977
0.06  -0.82  0.305872673161
0.06  -0.8  0.364819817566
0.06  -0.78  0.435127132847
0.06  -0.76  0.518983927472
0.06  -0.74  0.619001428874
0.06  -0.72  0.738294094798
0.06  -0.7  0.880576594799
0.06  -0.68  1.05027948181
0.06  -0.66  1.2526871557
0.06  -0.64  1.49410241486
0.06  -0.62  1.78204271987
0.06  -0.6  2.12547428065
0.06  -0.58  2.53509125642
0.06  -0.56  3.02364876249
0.06  -0.54  3.6063600534
0.06  -0.52  4.30137025044
0.06  -0.5  5.13032136488
0.06  -0.48  6.1190262113
0.06  -0.46  7.29827219613
0.06  -0.44  8.70478001067
0.06  -0.42  10.3823470813
0.06  -0.4  12.3832113832
0.06  -0.38  14.7696780854
0.06  -0.36  17.6160596792
0.06  -0.34  21.0109900044
0.06  -0.32  25.0601842298
0.06  -0.3  29.8897307314
0.06  -0.28  35.6500173744
0.06  -0.26  42.5204144599
0.06  -0.24  50.7148601599
0.06  -0.22  60.4885223653
0.06  -0.2  53.2058204537
0.06  -0.18  53.2053599456
0.06  -0.16  53.1596175785
0.06  -0.14  53.073433243
0.06  -0.12  52.955958522
0.06  -0.1  52.8197367538
0.06  -0.08  52.6794138714
0.06  -0.06  52.5501913338
0.06  -0.04  52.4461721647
0.06  -0.02  52.3787820558
0.06  6.17561557e-16  52.3554584919
0.06  0.02  52.3787820558
0.06  0.04  52.4461721647
0.06  0.06  52.5501913338
0.06  0.08  52.6794138714
0.06  0.1  52.8197367538
0.06  0.12  52.955958522
0.06  0.14  53.073433243
0.06  0.16  53.1596175785
0.06  0.18  53.2053599456
0.06  0.2  72.1457443913
0.06  0.22  60.4885223653
0.06  0.24  50.7148601599
0.06  0.26  42.5204144599
0.06  0.28  35.6500173744
0.06  0.3  29.8897307314
0.06  0.32  25.0601842298
0.06  0.34  21.0109900044
0.06  0.36  17.6160596792
0.06  0.38  14.7696780854
0.06  0.4  12.3832113832
0.06  0.42  10.3823470813
0.06  0.44  8.70478001067
0.06  0.46  7.29827219613
0.06  0.48  6.1190262113
0.06  0.5  5.13032136488
0.06  0.52  4.30137025045
0.06  0.54  3.6063600534
0.06  0.56  3.02364876249
0.06  0.58  2.53509125642
0.06  0.6  2.12547428065
0.06  0.62  1.78204271987
0.06  0.64  1.49410241486
0.06  0.66  1.2526871557
0.06  0.68  1.05027948181
0.06  0.7  0.8805765948
0.06  0.72  0.738294094798
0.06  0.74  0.619001428874
0.06  0.76  0.518983927472
0.06  0.78  0.435127132847
0.06  0.8  0.364819817566
0.06  0.82  0.305872673161
0.06  0.84  0.256450136977
0.06  0.86  0.215013234349
0.06  0.88  0.180271656277
0.06  0.9  0.151143580325
0.06  0.92  0.126721983618
0.06  0.94  0.106246398938
0.06  0.96  0.0890792344388
0.06  0.98  0.0746859195937
0.08  -1  0.0676121617243
0.08  -0.98  0.0806422366883
0.08  -0.96  0.0961834405562
0.08  -0.94  0.114719712859
0.08  -0.92  0.136828256948
0.08  -0.9  0.163197513599
0.08  -0.88  0.194648598461
0.08  -0.86  0.232160870882
0.08  -0.84  0.276902430302
0.08  -0.82  0.330266489851
0.08  -0.8  0.393914759794
0.08  -0.78  0.469829191733
0.08  -0.76  0.560373694858
0.08  -0.74  0.668367746011
0.08  -0.72  0.797174185739
0.08  -0.7  0.950803934212
0.08  -0.68  1.13404088778
0.08  -0.66  1.35259088535
0.08  -0.64  1.61325938317
0.08  -0.62  1.9241633709
0.08  -0.6  2.2949841275
0.08  -0.58  2.73726868785
0.08  -0.56  3.26478940734
0.08  -0.54  3.893972821
0.08  -0.52  4.64441115149
0.08  -0.5  5.53947239378
0.08  -0.48  6.60702797418
0.08  -0.46  7.8803206422
0.08  -0.44  9.39899962079
0.08  -0.42  11.2103552486
0.08  -0.4  13.3707915597
0.08  -0.38  15.9475826562
0.08  -0.36  19.0209675651
0.08  -0.34  22.6866488115
0.08  -0.32  27.0587725117
0.08  -0.3  32.2734827837
0.08  -0.28  38.4931611566
0.08  -0.26  45.9114829892
0.08  -0.24  54.7594483522
0.08  -0.22  65.3125751686
0.08  -0.2  57.4490665652
0.08  -0.18  57.4485693309
0.08  -0.16  57.3991789396
0.08  -0.14  57.3061212706
0.08  -0.12  57.1792777597
0.08  -0.1  57.0321920957
0.08  -0.08  56.8806782473
0.08  -0.06  56.7411500134
0.08  -0.04  56.6288351554
0.08  -0.02  56.5560705815
0.08  6.17561557e-16  56.5308869275
0.08  0.02  56.5560705815
0.08  0.04  56.6288351554
0.08  0.06  56.7411500134
0.08  0.08  56.8806782473
0.08  0.1  57.0321920957
0.08  0.12  57.1792777597
0.08  0.14  57.3061212706
0.08  0.16  57.3991789396
0.08  0.18  57.4485693309
0.08  0.2  77.8994786019
0.08  0.22  65.3125751687
0.08  0.24  54.7594483522
0.08  0.26  45.9114829892
0.08  0.28  38.4931611566
0.08  0.3  32.2734827837
0.08  0.32  27.0587725117
0.08  0.34  22.6866488115
0.08  0.36  19.0209675651
0.08  0.38  15.9475826562
0.08  0.4  13.3707915597
0.08  0.42  11.2103552486
0.08  0.44  9.39899962079
0.08  0.46  7.8803206422
0.08  0.48  6.60702797418
0.08  0.5  5.53947239379
0.08  0.52  4.64441115149
0.08  0.54  3.893972821
0.08  0.56  3.26478940734
0.08  0.58  2.73726868785
0.08  0.6  2.2949841275
0.08  0.62  1.9241633709
0.08  0.64  1.61325938317
0.08  0.66  1.35259088535
0.08  0.68  1.13404088778
0.08  0.7  0.950803934213
0.08  0.72  0.797174185739
0.08  0.74  0.668367746011
0.08  0.76  0.560373694858
0.08  0.78  0.469829191733
0.08  0.8  0.393914759794
0.08  0.82  0.330266489851
0.08  0.84  0.276902430302
0.08  0.86  0.232160870882
0.08  0.88  0.194648598461
0.08  0.9  0.163197513599
0.08  0.92  0.136828256948
0.08  0.94  0.114719712859
0.08  0.96  0.0961834405562
0.08  0.98  0.0806422366883
0.1  -1  0.0713949543459
0.1  -0.98  0.0851540412239
0.1  -0.96  0.101564750663
0.1  -0.94  0.121138097841
0.1  -0.92  0.144483579712
0.1  -0.9  0.172328154219
0.1  -0.88  0.205538877122
0.1  -0.86  0.245149901361
0.1  -0.84  0.292394679677
0.1  -0.82  0.348744373254
0.1  -0.8  0.415953662394
0.1  -0.78  0.496115385734
0.1  -0.76  0.591725709409
0.1  -0.74  0.705761855497
0.1  -0.72  0.841774810108
0.1  -0.7  1.003999898
0.1  -0.68  1.1974886669
0.1  -0.66  1.42826618829
0.1  -0.64  1.70351867286
0.1  -0.62  2.03181724288
0.1  -0.6  2.42338482942
0.1  -0.58  2.89041450557
0.1  -0.56  3.44744916804
0.1  -0.54  4.11183439028
0.1  -0.52  4.90425854857
0.1  -0.5  5.84939703994
0.1  -0.48  6.97668065254
0.1  -0.46  8.32121201471
0.1  -0.44  9.92485866018
0.1  -0.42  11.8375567466
0.1  -0.4  14.1188660239
0.1  -0.38  16.8398244728
0.1  -0.36  20.085160366
0.1  -0.34  23.9559306322
0.1  -0.32  28.5726676808
0.1  -0.3  34.0791326762
0.1  -0.28  40.6467921349
0.1  -0.26  48.4801572434
0.1  -0.24  57.8231521579
0.1  -0.22  68.9667095898
0.1  -0.2  60.6632502205
0.1  -0.18  60.6627251668
0.1  -0.16  60.6105714619
0.1  -0.14  60.5123073647
0.1  -0.12  60.3783671616
0.1  -0.1  60.2230522893
0.1  -0.08  60.0630614828
0.1  -0.06  59.9157268667
0.1  -0.04  59.7971281715
0.1  -0.02  59.7202925357
0.1  6.17561557e-16  59.6936998964
0.1  0.02  59.7202925357
0.1  0.04  59.7971281715
0.1  0.06  59.9157268667
0.1  0.08  60.0630614828
0.1  0.1  60.2230522893
0.1  0.12  60.3783671616
0.1  0.14  60.5123073647
0.1  0.16  60.6105714619
0.1  0.18  60.6627251668
0.1  0.2  82.2578301967
0.1  0.22  68.9667095898
0.1  0.24  57.8231521579
0.1  0.26  48.4801572434
0.1  0.28  40.6467921349
0.1  0.3  34.0791326762
0.1  0.32  28.5726676808
0.1  0.34  23.9559306322
0.1  0.36  20.085160366
0.1  0.38  16.8398244728
0.1  0.4  14.1188660239
0.1  0.42  11.8375567466
0.1  0.44  9.92485866018
0.1  0.46  8.32121201471
0.1  0.48  6.97668065255
0.1  0.5  5.84939703995
0.1  0.52  4.90425854857
0.1  0.54  4.11183439028
0.1  0.56  3.44744916804
0.1  0.58  2.89041450557
0.1  0.6  2.42338482942
0.1  0.62  2.03181724288
0.1  0.64  1.70351867286
0.1  0.66  1.42826618829
0.1  0.68  1.1974886669
0.1  0.7  1.003999898
0.1  0.72  0.841774810109
0.1  0.74  0.705761855497
0.1  0.76  0.591725709409
0.1  0.78  0.496115385734
0.1  0.8  0.415953662394
0.1  0.82  0.348744373254
0.1  0.84  0.292394679677
0.1  0.86  0.245149901361
0.1  0.88  0.205538877122
0.1  0.9  0.172328154219
0.1  0.92  0.144483579712
0.1  0.94  0.121138097841
0.1  0.96  0.101564750663
0.1  0.98  0.0851540412239
0.12  -1  0.0738988773275
0.12  -0.98  0.0881405150266
0.12  -0.96  0.105126771476
0.12  -0.94  0.125386583884
0.12  -0.92  0.149550825136
0.12  -0.9  0.178371948626
0.12  -0.88  0.212747418997
0.12  -0.86  0.253747658409
0.12  -0.84  0.302649378554
0.12  -0.82  0.360975336337
0.12  -0.8  0.430541751204
0.12  -0.78  0.51351486063
0.12  -0.76  0.612478374863
0.12  -0.74  0.730513931406
0.12  -0.72  0.871297054526
0.12  -0.7  1.03921160787
0.12  -0.68  1.23948630414
0.12  -0.66  1.47835752269
0.12  -0.64  1.76326350488
0.12  -0.62  2.10307597447
0.12  -0.6  2.50837639533
0.12  -0.58  2.99178546901
0.12  -0.56  3.56835613238
0.12  -0.54  4.25604229294
0.12  -0.52  5.07625789783
0.12  -0.5  6.05454374549
0.12  -0.48  7.22136280384
0.12  -0.46  8.6130488005
0.12  -0.44  10.2729376234
0.12  -0.42  12.2527167625
0.12  -0.4  14.6140348132
0.12  -0.38  17.4304211598
0.12  -0.36  20.7895756162
0.12  -0.34  24.796099322
0.12  -0.32  29.5747519304
0.12  -0.3  35.2743365149
0.12  -0.28  42.0723331677
0.12  -0.26  50.1804255745
0.12  -0.24  59.8510926599
0.12  -0.22  71.3854705609
0.12  -0.2  62.7907970165
0.12  -0.18  62.7902535484
0.12  -0.16  62.7362707385
0.12  -0.14  62.6345603792
0.12  -0.12  62.495922702
0.12  -0.1  62.3351607153
0.12  -0.08  62.1695588028
0.12  -0.06  62.0170569513
0.12  -0.04  61.8942988306
0.12  -0.02  61.8147684594
0.12  6.17561557e-16  61.7872431783
0.12  0.02  61.8147684594
0.12  0.04  61.8942988306
0.12  0.06  62.0170569513
0.12  0.08  62.1695588028
0.12  0.1  62.3351607153
0.12  0.12  62.495922702
0.12  0.14  62.6345603792
0.12  0.16  62.7362707385
0.12  0.18  62.7902535484
0.12  0.2  85.1427297436
0.12  0.22  71.3854705609
0.12  0.24  59.8510926599
0.12  0.26  50.1804255745
0.12  0.28  42.0723331677
0.12  0.3  35.2743365149
0.12  0.32  29.5747519304
0.12  0.34  24.796099322
0.12  0.36  20.7895756162
0.12  0.38  17.4304211598
0.12  0.4  14.6140348132
0.12  0.42  12.2527167625
0.12  0.44  10.2729376234
0.12  0.46  8.61304880051
0.12  0.48  7.22136280384
0.12  0.5  6.05454374549
0.12  0.52  5.07625789783
0.12  0.54  4.25604229294
0.12  0.56  3.56835613238
0.12  0.58  2.99178546901
0.12  0.6  2.50837639533
0.12  0.62  2.10307597447
0.12  0.64  1.76326350488
0.12  0.66  1.47835752269
0.12  0.68  1.23948630414
0.12  0.7  1.03921160787
0.12  0.72  0.871297054526
0.12  0.74  0.730513931406
0.12  0.76  0.612478374863
0.12  0.78  0.51351486063
0.12  0.8  0.430541751204
0.12  0.82  0.360975336337
0.12  0.84  0.302649378554
0.12  0.86  0.253747658409
0.12  0.88  0.212747418997
0.12  0.9  0.178371948626
0.12  0.92  0.149550825136
0.12  0.94  0.125386583884
0.12  0.96  0.105126771476
0.12  0.98  0.0881405150266
0.14  -1  0.075079078885
0.14  -0.98  0.0895481625697
0.14  -0.96  0.106805697921
0.14  -0.94  0.127389069537
0.14  -0.92  0.151939225653
0.14  -0.9  0.181220636714
0.14  -0.88  0.216145100319
0.14  -0.86  0.257800133799
0.14  -0.84  0.307482838558
0.14  -0.82  0.366740290684
0.14  -0.8  0.437417715545
0.14  -0.78  0.521715946495
0.14  -0.76  0.622259956912
0.14  -0.74  0.742180599572
0.14  -0.72  0.885212098678
0.14  -0.7  1.05580833034
0.14  -0.68  1.2592815124
0.14  -0.66  1.50196762225
0.14  -0.64  1.79142369364
0.14  -0.62  2.13666313615
0.14  -0.6  2.54843640484
0.14  -0.58  3.03956576011
0.14  -0.56  3.62534454164
0.14  -0.54  4.32401338972
0.14  -0.52  5.15732824279
0.14  -0.5  6.15123779846
0.14  -0.48  7.33669153327
0.14  -0.46  8.75060344242
0.14  -0.44  10.4370015094
0.14  -0.42  12.4483986988
0.14  -0.4  14.8474281647
0.14  -0.38  17.7087935918
0.14  -0.36  21.1215954034
0.14  -0.34  25.1921052709
0.14  -0.32  30.0470753208
0.14  -0.3  35.8376850853
0.14  -0.28  42.7442491011
0.14  -0.26  50.9818317469
0.14  -0.24  60.8069441603
0.14  -0.22  72.5255317713
0.14  -0.2  63.7935970469
0.14  -0.18  63.7930448994
0.14  -0.16  63.7381999574
0.14  -0.14  63.6348652334
0.14  -0.12  63.494013444
0.14  -0.1  63.3306840091
0.14  -0.08  63.1624373522
0.14  -0.06  63.0074999709
0.14  -0.04  62.8827813423
0.14  -0.02  62.8019808318
0.14  6.17561557e-16  62.7740159584
0.14  0.02  62.8019808318
0.14  0.04  62.8827813423
0.14  0.06  63.0074999709
0.14  0.08  63.1624373522
0.14  0.1  63.3306840091
0.14  0.12  63.494013444
0.14  0.14  63.6348652334
0.14  0.16  63.7381999574
0.14  0.18  63.7930448994
0.14  0.2  86.5025011757
0.14  0.22  72.5255317714
0.14  0.24  60.8069441603
0.14  0.26  50.9818317469
0.14  0.28  42.7442491011
0.14  0.3  35.8376850853
0.14  0.32  30.0470753208
0.14  0.34  25.1921052709
0.14  0.36  21.1215954034
0.14  0.38  17.7087935918
0.14  0.4  14.8474281647
0.14  0.42  12.4483986988
0.14  0.44  10.4370015094
0.14  0.46  8.75060344242
0.14  0.48  7.33669153327
0.14  0.5  6.15123779846
0.14  0.52  5.15732824279
0.14  0.54  4.32401338972
0.14  0.56  3.62534454165
0.14  0.58  3.03956576011
0.14  0.6  2.54843640484
0.14  0.62  2.13666313615
0.14  0.64  1.79142369364
0.14  0.66  1.50196762225
0.14  0.68  1.2592815124
0.14  0.7  1.05580833034
0.14  0.72  0.885212098678
0.14  0.74  0.742180599572
0.14  0.76  0.622259956912
0.14  0.78  0.521715946495
0.14  0.8  0.437417715545
0.14  0.82  0.366740290684
0.14  0.84  0.307482838558
0.14  0.86  0.257800133799
0.14  0.88  0.216145100319
0.14  0.9  0.181220636714
0.14  0.92  0.151939225653
0.14  0.94  0.127389069537
0.14  0.96  0.106805697921
0.14  0.98  0.0895481625697
0.16  -1  0.0749144185336
0.16  -0.98  0.0893517692185
0.16  -0.96  0.106571456053
0.16  -0.94  0.127109685063
0.16  -0.92  0.151605998785
0.16  -0.9  0.180823191059
0.16  -0.88  0.215671059765
0.16  -0.86  0.257234737136
0.16  -0.84  0.306808479829
0.16  -0.82  0.365935970946
0.16  -0.8  0.436458388981
0.16  -0.78  0.520571740515
0.16  -0.76  0.620895241939
0.16  -0.74  0.740552879572
0.16  -0.72  0.88327068787
0.16  -0.7  1.05349277489
0.16  -0.68  1.25651970792
0.16  -0.66  1.49867356856
0.16  -0.64  1.78749481679
0.16  -0.62  2.13197709434
0.16  -0.6  2.54284727881
0.16  -0.58  3.03289950936
0.16  -0.56  3.61739358494
0.16  -0.54  4.3145301412
0.16  -0.52  5.14601740236
0.16  -0.5  6.13774715643
0.16  -0.48  7.32060100281
0.16  -0.46  8.73141197845
0.16  -0.44  10.4141115064
0.16  -0.42  12.4210973822
0.16  -0.4  14.8148653952
0.16  -0.38  17.6699553932
0.16  -0.36  21.0752723881
0.16  -0.34  25.1368549806
