-0.08  0.66  0.0188967375256
-0.08  0.68  0.0144321218169
-0.08  0.7  0.0110223333449
-0.08  0.72  0.00841815457964
-0.08  0.74  0.00642924908084
-0.08  0.76  0.00491025002599
-0.08  0.78  0.00375013551577
-0.08  0.8  0.00286411411072
-0.08  0.82  0.00218742752222
-0.08  0.84  0.00167061750334
-0.08  0.86  0.00127591100237
-0.08  0.88  0.000974459373681
-0.08  0.9  0.000744229863361
-0.08  0.92  0.000568395260467
-0.08  0.94  0.000434104015475
-0.08  0.96  0.000331540935258
-0.08  0.98  0.000253209801876
-0.06  -1  0.000253859744034
-0.06  -0.98  0.000332391938771
-0.06  -0.96  0.000435218279214
-0.06  -0.94  0.000569854224691
-0.06  -0.92  0.000746140162092
-0.06  -0.9  0.000976960628463
-0.06  -0.88  0.00127918602705
-0.06  -0.86  0.00167490566572
-0.06  -0.84  0.00219304223915
-0.06  -0.82  0.00287146575545
-0.06  -0.8  0.00375976141157
-0.06  -0.78  0.00492285371856
-0.06  -0.76  0.0064457517596
-0.06  -0.74  0.00843976240647
-0.06  -0.72  0.0110506256111
-0.06  -0.7  0.0144691663718
-0.06  -0.68  0.0189452419131
-0.06  -0.66  0.0248060034644
-0.06  -0.64  0.032479807368
-0.06  -0.62  0.0425275231529
-0.06  -0.6  0.0556835268456
-0.06  -0.58  0.0729093756723
-0.06  -0.56  0.0954640871736
-0.06  -0.54  0.124996159353
-0.06  -0.52  0.163664057508
-0.06  -0.5  0.214293973979
-0.06  -0.48  0.280586391312
-0.06  -0.46  0.367386546283
-0.06  -0.44  0.481038562701
-0.06  -0.42  0.629849136138
-0.06  -0.4  0.82469466079
-0.06  -0.38  1.07981617266
-0.06  -0.36  1.41386021054
-0.06  -0.34  1.85124167016
-0.06  -0.32  2.42392826094
-0.06  -0.3  3.17377698919
-0.06  -0.28  4.15559343873
-0.06  -0.26  5.44113744817
-0.06  -0.24  7.12436795524
-0.06  -0.22  9.32831034781
-0.06  -0.2  8.78875031027
-0.06  -0.18  8.904556159
-0.06  -0.16  9.3595979294
-0.06  -0.14  10.0663210408
-0.06  -0.12  10.912510375
-0.06  -0.1  11.7921637595
-0.06  -0.08  12.6181972154
-0.06  -0.06  13.3238922253
-0.06  -0.04  13.8606352837
-0.06  -0.02  14.1954271507
-0.06  6.17561557e-16  14.309117918
-0.06  0.02  14.1954271507
-0.06  0.04  13.8606352837
-0.06  0.06  13.3238922253
-0.06  0.08  12.6181972154
-0.06  0.1  11.7921637595
-0.06  0.12  10.912510375
-0.06  0.14  10.0663210408
-0.06  0.16  9.3595979294
-0.06  0.18  8.904556159
-0.06  0.2  12.2140482485
-0.06  0.22  9.32831034782
-0.06  0.24  7.12436795525
-0.06  0.26  5.44113744818
-0.06  0.28  4.15559343874
-0.06  0.3  3.1737769892
-0.06  0.32  2.42392826095
-0.06  0.34  1.85124167016
-0.06  0.36  1.41386021054
-0.06  0.38  1.07981617266
-0.06  0.4  0.824694660792
-0.06  0.42  0.629849136139
-0.06  0.44  0.481038562701
-0.06  0.46  0.367386546284
-0.06  0.48  0.280586391312
-0.06  0.5  0.214293973979
-0.06  0.52  0.163664057508
-0.06  0.54  0.124996159354
-0.06  0.56  0.0954640871738
-0.06  0.58  0.0729093756724
-0.06  0.6  0.0556835268457
-0.06  0.62  0.0425275231529
-0.06  0.64  0.0324798073681
-0.06  0.66  0.0248060034645
-0.06  0.68  0.0189452419131
-0.06  0.7  0.0144691663718
-0.06  0.72  0.0110506256112
-0.06  0.74  0.00843976240648
-0.06  0.76  0.00644575175961
-0.06  0.78  0.00492285371856
-0.06  0.8  0.00375976141157
-0.06  0.82  0.00287146575545
-0.06  0.84  0.00219304223916
-0.06  0.86  0.00167490566572
-0.06  0.88  0.00127918602705
-0.06  0.9  0.000976960628465
-0.06  0.92  0.000746140162093
-0.06  0.94  0.000569854224692
-0.06  0.96  0.000435218279214
-0.06  0.98  0.000332391938771
-0.04  -1  0.000333245126651
-0.04  -0.98  0.000436335403059
-0.04  -0.96  0.000571316933803
-0.04  -0.94  0.000748055364203
-0.04  -0.92  0.0009794683035
-0.04  -0.9  0.0012824694581
-0.04  -0.88  0.001679204835
-0.04  -0.86  0.00219867136802
-0.04  -0.84  0.00287883627048
-0.04  -0.82  0.00376941201525
-0.04  -0.8  0.00493548976245
-0.04  -0.78  0.00646229679766
-0.04  -0.76  0.00846142569656
-0.04  -0.74  0.0110789904983
-0.04  -0.72  0.0145063060131
-0.04  -0.7  0.0189938708024
-0.04  -0.68  0.0248696758314
-0.04  -0.66  0.032563176953
-0.04  -0.64  0.0426366833432
-0.04  -0.62  0.0558264560345
-0.04  -0.6  0.0730965203903
-0.04  -0.58  0.0957091256136
-0.04  -0.56  0.125317001094
-0.04  -0.54  0.164084152504
-0.04  -0.52  0.214844026492
-0.04  -0.5  0.28130660405
-0.04  -0.48  0.368329558769
-0.04  -0.46  0.482273298636
-0.04  -0.44  0.631465840956
-0.04  -0.42  0.826811497594
-0.04  -0.4  1.08258785862
-0.04  -0.38  1.41748932501
-0.04  -0.36  1.85599346096
-0.04  -0.34  2.43015003101
-0.04  -0.32  3.18192348056
-0.04  -0.3  4.16626006912
-0.04  -0.28  5.45510382937
-0.04  -0.26  7.14265487403
-0.04  -0.24  9.35225437412
-0.04  -0.22  12.2453994237
-0.04  -0.2  11.5371116496
-0.04  -0.18  11.6891315568
-0.04  -0.16  12.2864710561
-0.04  -0.14  13.214196063
-0.04  -0.12  14.3250002707
-0.04  -0.1  15.4797331908
-0.04  -0.08  16.564078504
-0.04  -0.06  17.490453908
-0.04  -0.04  18.1950437955
-0.04  -0.02  18.6345296167
-0.04  6.17561557e-16  18.7837730279
-0.04  0.02  18.6345296167
-0.04  0.04  18.1950437955
-0.04  0.06  17.490453908
-0.04  0.08  16.564078504
-0.04  0.1  15.4797331908
-0.04  0.12  14.3250002707
-0.04  0.14  13.214196063
-0.04  0.16  12.2864710561
-0.04  0.18  11.6891315568
-0.04  0.2  16.0335466774
-0.04  0.22  12.2453994237
-0.04  0.24  9.35225437414
-0.04  0.26  7.14265487404
-0.04  0.28  5.45510382938
-0.04  0.3  4.16626006913
-0.04  0.32  3.18192348057
-0.04  0.34  2.43015003101
-0.04  0.36  1.85599346096
-0.04  0.38  1.41748932501
-0.04  0.4  1.08258785862
-0.04  0.42  0.826811497595
-0.04  0.44  0.631465840958
-0.04  0.46  0.482273298637
-0.04  0.48  0.36832955877
-0.04  0.5  0.28130660405
-0.04  0.52  0.214844026492
-0.04  0.54  0.164084152504
-0.04  0.56  0.125317001094
-0.04  0.58  0.0957091256138
-0.04  0.6  0.0730965203904
-0.04  0.62  0.0558264560346
-0.04  0.64  0.0426366833433
-0.04  0.66  0.0325631769531
-0.04  0.68  0.0248696758315
-0.04  0.7  0.0189938708024
-0.04  0.72  0.0145063060131
-0.04  0.74  0.0110789904983
-0.04  0.76  0.00846142569658
-0.04  0.78  0.00646229679767
-0.04  0.8  0.00493548976245
-0.04  0.82  0.00376941201525
-0.04  0.84  0.00287883627048
-0.04  0.86  0.00219867136803
-0.04  0.88  0.00167920483501
-0.04  0.9  0.00128246945811
-0.04  0.92  0.000979468303502
-0.04  0.94  0.000748055364204
-0.04  0.96  0.000571316933804
-0.04  0.98  0.00043633540306
-0.02  -1  0.000437455394353
-0.02  -0.98  0.000572783397416
-0.02  -0.96  0.00074997548228
-0.02  -0.94  0.00098198241527
-0.02  -0.92  0.00128576131711
-0.02  -0.9  0.00168351503945
-0.02  -0.88  0.00220431494581
-0.02  -0.86  0.00288622570424
-0.02  -0.84  0.00377908739022
-0.02  -0.82  0.00494815824069
-0.02  -0.8  0.00647888430374
-0.02  -0.78  0.00848314459227
-0.02  -0.76  0.0111074281928
-0.02  -0.74  0.0145435409849
-0.02  -0.72  0.0190426245129
-0.02  -0.7  0.0249335116334
-0.02  -0.68  0.0326467605321
-0.02  -0.66  0.0427461237274
-0.02  -0.64  0.0559697520959
-0.02  -0.62  0.0732841454738
-0.02  -0.6  0.0959547930214
-0.02  -0.58  0.125638666375
-0.02  -0.56  0.164505325805
-0.02  -0.54  0.215395490887
-0.02  -0.52  0.282028665439
-0.02  -0.5  0.369274991792
-0.02  -0.48  0.483511203908
-0.02  -0.46  0.633086695554
-0.02  -0.44  0.828933767921
-0.02  -0.42  1.08536665898
-0.02  -0.4  1.42112775474
-0.02  -0.38  1.86075744871
-0.02  -0.36  2.43638777119
-0.02  -0.34  3.19009088245
-0.02  -0.32  4.17695407876
-0.02  -0.3  5.46910605965
-0.02  -0.28  7.16098873192
-0.02  -0.26  9.37625986027
-0.02  -0.24  12.2768310716
-0.02  -0.22  16.0747017901
-0.02  -0.2  15.1449228293
-0.02  -0.18  15.3444814218
-0.02  -0.16  16.1286170786
-0.02  -0.14  17.3464542689
-0.02  -0.12  18.8046220075
-0.02  -0.1  20.3204555623
-0.02  -0.08  21.7438903514
-0.02  -0.06  22.9599558998
-0.02  -0.04  23.8848805947
-0.02  -0.02  24.4617995888
-0.02  6.17561557e-16  24.6577134374
-0.02  0.02  24.4617995888
-0.02  0.04  23.8848805947
-0.02  0.06  22.9599558998
-0.02  0.08  21.7438903514
-0.02  0.1  20.3204555623
-0.02  0.12  18.8046220075
-0.02  0.14  17.3464542689
-0.02  0.16  16.1286170786
-0.02  0.18  15.3444814218
-0.02  0.2  21.0474540322
-0.02  0.22  16.0747017901
-0.02  0.24  12.2768310716
-0.02  0.26  9.37625986028
-0.02  0.28  7.16098873193
-0.02  0.3  5.46910605966
-0.02  0.32  4.17695407877
-0.02  0.34  3.19009088246
-0.02  0.36  2.43638777119
-0.02  0.38  1.86075744872
-0.02  0.4  1.42112775474
-0.02  0.42  1.08536665899
-0.02  0.44  0.828933767923
-0.02  0.46  0.633086695555
-0.02  0.48  0.483511203908
-0.02  0.5  0.369274991792
-0.02  0.52  0.28202866544
-0.02  0.54  0.215395490887
-0.02  0.56  0.164505325806
-0.02  0.58  0.125638666376
-0.02  0.6  0.0959547930216
-0.02  0.62  0.0732841454739
-0.02  0.64  0.055969752096
-0.02  0.66  0.0427461237275
-0.02  0.68  0.0326467605322
-0.02  0.7  0.0249335116335
-0.02  0.72  0.0190426245129
-0.02  0.74  0.0145435409849
-0.02  0.76  0.0111074281928
-0.02  0.78  0.00848314459228
-0.02  0.8  0.00647888430375
-0.02  0.82  0.0049481582407
-0.02  0.84  0.00377908739023
-0.02  0.86  0.00288622570424
-0.02  0.88  0.00220431494582
-0.02  0.9  0.00168351503945
-0.02  0.92  0.00128576131711
-0.02  0.94  0.000981982415271
-0.02  0.96  0.000749975482281
-0.02  0.98  0.000572783397417
2.8449465e-16  -1  0.000574253625167
2.8449465e-16  -0.98  0.000751900528941
2.8449465e-16  -0.96  0.000984502980293
2.8449465e-16  -0.94  0.00128906162571
2.8449465e-16  -0.92  0.00168783630739
2.8449465e-16  -0.9  0.00220997300961
2.8449465e-16  -0.88  0.00289363410529
2.8449465e-16  -0.86  0.00378878760007
2.8449465e-16  -0.84  0.00496085923656
2.8449465e-16  -0.82  0.00649551438684
2.8449465e-16  -0.8  0.00850491923631
2.8449465e-16  -0.78  0.0111359388816
2.8449465e-16  -0.76  0.0145808715319
2.8449465e-16  -0.74  0.019091503365
2.8449465e-16  -0.72  0.02499751129
2.8449465e-16  -0.7  0.0327305586546
2.8449465e-16  -0.68  0.0428558450245
2.8449465e-16  -0.66  0.0561134159715
2.8449465e-16  -0.64  0.0734722521557
2.8449465e-16  -0.62  0.0962010910115
2.8449465e-16  -0.6  0.125961157311
2.8449465e-16  -0.58  0.16492758018
2.8449465e-16  -0.56  0.215948370788
2.8449465e-16  -0.54  0.282752580225
2.8449465e-16  -0.52  0.370222851564
2.8449465e-16  -0.5  0.48475228665
2.8449465e-16  -0.48  0.634711710582
2.8449465e-16  -0.46  0.831061485719
2.8449465e-16  -0.44  1.08815259201
2.8449465e-16  -0.42  1.42477552364
2.8449465e-16  -0.4  1.86553366473
2.8449465e-16  -0.38  2.44264152248
2.8449465e-16  -0.36  3.19827924853
2.8449465e-16  -0.34  4.18767553791
2.8449465e-16  -0.32  5.48314423104
2.8449465e-16  -0.3  7.17936964939
2.8449465e-16  -0.28  9.40032696401
2.8449465e-16  -0.26  12.3083433986
2.8449465e-16  -0.24  16.1159625402
2.8449465e-16  -0.22  21.1014789064
2.8449465e-16  -0.2  19.8809454629
2.8449465e-16  -0.18  20.1429087321
2.8449465e-16  -0.16  21.1722542364
2.8449465e-16  -0.14  22.770925622
2.8449465e-16  -0.12  24.6850821755
2.8449465e-16  -0.1  26.6749374275
2.8449465e-16  -0.08  28.5434995676
2.8449465e-16  -0.06  30.1398452948
2.8449465e-16  -0.04  31.3540064775
2.8449465e-16  -0.02  32.1113358603
2.8449465e-16  6.17561557e-16  32.3685146246
2.8449465e-16  0.02  32.1113358603
2.8449465e-16  0.04  31.3540064775
2.8449465e-16  0.06  30.1398452948
2.8449465e-16  0.08  28.5434995676
2.8449465e-16  0.1  26.6749374275
2.8449465e-16  0.12  24.6850821755
2.8449465e-16  0.14  22.770925622
2.8449465e-16  0.16  21.1722542364
2.8449465e-16  0.18  20.1429087321
2.8449465e-16  0.2  27.6292781723
2.8449465e-16  0.22  21.1014789065
2.8449465e-16  0.24  16.1159625403
2.8449465e-16  0.26  12.3083433986
2.8449465e-16  0.28  9.40032696402
2.8449465e-16  0.3  7.1793696494
2.8449465e-16  0.32  5.48314423105
2.8449465e-16  0.34  4.18767553792
2.8449465e-16  0.36  3.19827924854
2.8449465e-16  0.38  2.44264152249
2.8449465e-16  0.4  1.86553366474
2.8449465e-16  0.42  1.42477552364
2.8449465e-16  0.44  1.08815259201
2.8449465e-16  0.46  0.831061485721
2.8449465e-16  0.48  0.634711710583
2.8449465e-16  0.5  0.484752286651
2.8449465e-16  0.52  0.370222851565
2.8449465e-16  0.54  0.282752580225
2.8449465e-16  0.56  0.215948370788
2.8449465e-16  0.58  0.16492758018
2.8449465e-16  0.6  0.125961157311
2.8449465e-16  0.62  0.0962010910116
2.8449465e-16  0.64  0.0734722521559
2.8449465e-16  0.66  0.0561134159716
2.8449465e-16  0.68  0.0428558450246
2.8449465e-16  0.7  0.0327305586547
2.8449465e-16  0.72  0.0249975112901
2.8449465e-16  0.74  0.0190915033651
2.8449465e-16  0.76  0.0145808715319
2.8449465e-16  0.78  0.0111359388816
2.8449465e-16  0.8  0.00850491923633
2.8449465e-16  0.82  0.00649551438685
2.8449465e-16  0.84  0.00496085923657
2.8449465e-16  0.86  0.00378878760008
2.8449465e-16  0.88  0.0028936341053
2.8449465e-16  0.9  0.00220997300961
2.8449465e-16  0.92  0.00168783630739
2.8449465e-16  0.94  0.00128906162571
2.8449465e-16  0.96  0.000984502980295
2.8449465e-16  0.98  0.000751900528942
0.02  -1  0.000723872541911
0.02  -0.98  0.000947804460077
0.02  -0.96  0.00124101031954
0.02  -0.94  0.00162492020039
0.02  -0.92  0.00212759363566
0.02  -0.9  0.00278577045039
0.02  -0.88  0.00364755603336
0.02  -0.86  0.00477593730475
0.02  -0.84  0.00625338635796
0.02  -0.82  0.00818788825034
0.02  -0.8  0.0107208335072
0.02  -0.78  0.0140373521933
0.02  -0.76  0.0183798448569
0.02  -0.74  0.0240656993079
0.02  -0.72  0.0315104881292
0.02  -0.7  0.0412583423998
0.02  -0.68  0.0540217216123
0.02  -0.66  0.0707334865196
0.02  -0.64  0.0926150808581
0.02  -0.62  0.12126580527
0.02  -0.6  0.158779708353
0.02  -0.58  0.207898638274
0.02  -0.56  0.272212641302
0.02  -0.54  0.356422354181
0.02  -0.52  0.466682568277
0.02  -0.5  0.611052076219
0.02  -0.48  0.800082679819
0.02  -0.46  1.04759040916
0.02  -0.44  1.37166532041
0.02  -0.42  1.79599367727
0.02  -0.4  2.35158915282
0.02  -0.38  3.07905958337
0.02  -0.36  4.03157494862
0.02  -0.34  5.27875350451
0.02  -0.32  6.91175010177
0.02  -0.3  9.04991858939
0.02  -0.28  11.8495352507
0.02  -0.26  15.5152208575
0.02  -0.24  20.314896168
0.02  -0.22  26.5993639476
0.02  -0.2  25.0608266054
0.02  -0.18  25.3910430972
0.02  -0.16  26.6885794367
0.02  -0.14  28.7037766751
0.02  -0.12  31.1166571678
0.02  -0.1  33.6249592771
0.02  -0.08  35.9803659594
0.02  -0.06  37.9926316007
0.02  -0.04  39.5231364214
0.02  -0.02  40.4777841961
0.02  6.17561557e-16  40.8019696043
0.02  0.02  40.4777841961
0.02  0.04  39.5231364214
0.02  0.06  37.9926316007
0.02  0.08  35.9803659594
0.02  0.1  33.6249592771
0.02  0.12  31.1166571678
0.02  0.14  28.7037766751
0.02  0.16  26.6885794367
0.02  0.18  25.3910430972
0.02  0.2  34.8279487412
0.02  0.22  26.5993639477
0.02  0.24  20.314896168
0.02  0.26  15.5152208575
0.02  0.28  11.8495352507
0.02  0.3  9.0499185894
0.02  0.32  6.91175010178
0.02  0.34  5.27875350452
0.02  0.36  4.03157494862
0.02  0.38  3.07905958338
0.02  0.4  2.35158915282
0.02  0.42  1.79599367727
0.02  0.44  1.37166532041
0.02  0.46  1.04759040916
0.02  0.48  0.80008267982
0.02  0.5  0.61105207622
0.02  0.52  0.466682568278
0.02  0.54  0.356422354182
0.02  0.56  0.272212641302
0.02  0.58  0.207898638274
0.02  0.6  0.158779708354
0.02  0.62  0.12126580527
0.02  0.64  0.0926150808583
0.02  0.66  0.0707334865197
0.02  0.68  0.0540217216124
0.02  0.7  0.0412583423999
0.02  0.72  0.0315104881292
0.02  0.74  0.024065699308
0.02  0.76  0.0183798448569
0.02  0.78  0.0140373521934
0.02  0.8  0.0107208335072
0.02  0.82  0.00818788825035
0.02  0.84  0.00625338635797
0.02  0.86  0.00477593730476
0.02  0.88  0.00364755603337
0.02  0.9  0.0027857704504
0.02  0.92  0.00212759363566
0.02  0.94  0.00162492020039
0.02  0.96  0.00124101031954
0.02  0.98  0.000947804460078
0.04  -1  0.000858159547524
0.04  -0.98  0.00112363351213
0.04  -0.96  0.00147123256185
0.04  -0.94  0.00192636231269
0.04  -0.92  0.00252228767632
0.04  -0.9  0.00330256415433
0.04  -0.88  0.00432422125986
0.04  -0.86  0.0056619307394
0.04  -0.84  0.00741346424507
0.04  -0.82  0.0097068393526
0.04  -0.8  0.0127096762192
0.04  -0.78  0.0166414487485
0.04  -0.76  0.0217895256868
0.04  -0.74  0.0285301740752
0.04  -0.72  0.0373560601757
0.04  -0.7  0.0489122578845
0.04  -0.68  0.0640433964423
0.04  -0.66  0.0838553934181
0.04  -0.64  0.109796284955
0.04  -0.62  0.143762061075
0.04  -0.6  0.18823524141
0.04  -0.58  0.246466319721
0.04  -0.56  0.322711338758
0.04  -0.54  0.422542959544
0.04  -0.52  0.553257760783
0.04  -0.5  0.724409537427
0.04  -0.48  0.9485075766
0.04  -0.46  1.24193094705
0.04  -0.44  1.6261256265
0.04  -0.42  2.12917196358
0.04  -0.4  2.7878370383
0.04  -0.38  3.65026192579
0.04  -0.36  4.77948027229
0.04  -0.34  6.25802535204
0.04  -0.32  8.19396232971
0.04  -0.3  10.7287866194
0.04  -0.28  14.0477656221
0.04  -0.26  18.3934797079
0.04  -0.24  24.0835521368
0.04  -0.22  31.5338637787
0.04  -0.2  29.7099093765
0.04  -0.18  30.1013849731
0.04  -0.16  31.6396298069
0.04  -0.14  34.0286702113
0.04  -0.12  36.8891688654
0.04  -0.1  39.8627909861
0.04  -0.08  42.6551537512
0.04  -0.06  45.0407187122
0.04  -0.04  46.8551504642
0.04  -0.02  47.9868968076
0.04  6.17561557e-16  48.3712224824
0.04  0.02  47.9868968076
0.04  0.04  46.8551504642
0.04  0.06  45.0407187122
0.04  0.08  42.6551537512
0.04  0.1  39.8627909861
0.04  0.12  36.8891688654
0.04  0.14  34.0286702113
0.04  0.16  31.6396298069
0.04  0.18  30.1013849731
0.04  0.2  41.2889493695
0.04  0.22  31.5338637787
0.04  0.24  24.0835521368
0.04  0.26  18.393479708
0.04  0.28  14.0477656222
0.04  0.3  10.7287866194
0.04  0.32  8.19396232973
0.04  0.34  6.25802535205
0.04  0.36  4.7794802723
0.04  0.38  3.6502619258
0.04  0.4  2.7878370383
0.04  0.42  2.12917196358
0.04  0.44  1.6261256265
0.04  0.46  1.24193094705
0.04  0.48  0.948507576602
0.04  0.5  0.724409537428
0.04  0.52  0.553257760784
0.04  0.54  0.422542959545
0.04  0.56  0.322711338758
0.04  0.58  0.246466319721
0.04  0.6  0.18823524141
0.04  0.62  0.143762061075
0.04  0.64  0.109796284956
0.04  0.66  0.0838553934182
0.04  0.68  0.0640433964424
0.04  0.7  0.0489122578846
0.04  0.72  0.0373560601758
0.04  0.74  0.0285301740752
0.04  0.76  0.0217895256869
0.04  0.78  0.0166414487485
0.04  0.8  0.0127096762192
0.04  0.82  0.00970683935262
0.04  0.84  0.00741346424508
0.04  0.86  0.0056619307394
0.04  0.88  0.00432422125986
0.04  0.9  0.00330256415433
0.04  0.92  0.00252228767633
0.04  0.94  0.00192636231269
0.04  0.96  0.00147123256185
0.04  0.98  0.00112363351213
0.06  -1  0.000974270389301
0.06  -0.98  0.00127566355516
0.06  -0.96  0.00167029350768
0.06  -0.94  0.00218700329762
0.06  -0.92  0.0028635586511
0.06  -0.9  0.00374940822322
0.06  -0.88  0.00490929774355
0.06  -0.86  0.00642800220726
0.06  -0.84  0.00841652198236
0.06  -0.82  0.0110201956993
0.06  -0.8  0.0144293228849
0.06  -0.78  0.0188930727363
0.06  -0.76  0.0247376956125
0.06  -0.74  0.0323903682983
0.06  -0.72  0.0424104158663
0.06  -0.7  0.0555301921049
0.06  -0.68  0.0727086064171
0.06  -0.66  0.0952012094092
0.06  -0.64  0.124651959645
0.06  -0.62  0.163213378694
0.06  -0.6  0.213703876462
0.06  -0.58  0.27981374554
0.06  -0.56  0.366374880464
0.06  -0.54  0.479713935339
0.06  -0.52  0.628114731738
0.06  -0.5  0.822423713724
0.06  -0.48  1.07684270201
0.06  -0.46  1.40996688874
0.06  -0.44  1.84614393879
0.06  -0.42  2.41725353266
0.06  -0.4  3.16503741576
0.06  -0.38  4.14415025476
0.06  -0.36  5.42615428445
0.06  -0.34  7.10474970951
0.06  -0.32  9.30262314498
0.06  -0.3  12.1804146403
0.06  -0.28  15.9484586764
0.06  -0.26  20.8821572717
0.06  -0.24  27.3421087999
0.06  -0.22  35.8004637115
0.06  -0.2  33.729724336
0.06  -0.18  34.174167427
0.06  -0.16  35.920540112
0.06  -0.14  38.6328228472
0.06  -0.12  41.8803531525
0.06  -0.1  45.2563127739
0.06  -0.08  48.426488257
0.06  -0.06  51.1348253139
0.06  -0.04  53.1947536041
0.06  -0.02  54.4796276741
0.06  6.17561557e-16  54.9159534435
0.06  0.02  54.4796276741
0.06  0.04  53.1947536041
0.06  0.06  51.1348253139
0.06  0.08  48.426488257
0.06  0.1  45.2563127739
0.06  0.12  41.8803531524
0.06  0.14  38.6328228472
0.06  0.16  35.920540112
0.06  0.18  34.174167427
0.06  0.2  46.8754334693
0.06  0.22  35.8004637115
0.06  0.24  27.3421087999
0.06  0.26  20.8821572718
0.06  0.28  15.9484586765
0.06  0.3  12.1804146403
0.06  0.32  9.302623145
0.06  0.34  7.10474970952
0.06  0.36  5.42615428446
0.06  0.38  4.14415025476
0.06  0.4  3.16503741577
0.06  0.42  2.41725353267
0.06  0.44  1.8461439388
0.06  0.46  1.40996688874
0.06  0.48  1.07684270201
0.06  0.5  0.822423713725
0.06  0.52  0.628114731739
0.06  0.54  0.47971393534
0.06  0.56  0.366374880465
0.06  0.58  0.279813745541
0.06  0.6  0.213703876462
0.06  0.62  0.163213378694
0.06  0.64  0.124651959646
0.06  0.66  0.0952012094094
0.06  0.68  0.0727086064172
0.06  0.7  0.055530192105
0.06  0.72  0.0424104158664
0.06  0.74  0.0323903682984
0.06  0.76  0.0247376956125
0.06  0.78  0.0188930727363
0.06  0.8  0.0144293228849
0.06  0.82  0.0110201956993
0.06  0.84  0.00841652198237
0.06  0.86  0.00642800220727
0.06  0.88  0.00490929774355
0.06  0.9  0.00374940822323
0.06  0.92  0.00286355865111
0.06  0.94  0.00218700329762
0.06  0.96  0.00167029350768
0.06  0.98  0.00127566355517
0.08  -1  0.00106974579298
0.08  -0.98  0.00140067453182
0.08  -0.96  0.00183397696626
0.08  -0.94  0.00240132267445
0.08  -0.92  0.0031441783037
0.08  -0.9  0.00411683832026
0.08  -0.88  0.00539039332955
0.08  -0.86  0.00705792600701
0.08  -0.84  0.00924131440415
0.08  -0.82  0.0121001398756
0.08  -0.8  0.0158433506973
0.08  -0.78  0.0207445338565
0.08  -0.76  0.0271619112109
0.08  -0.74  0.0355645215136
0.08  -0.72  0.0465665019177
0.08  -0.7  0.0609719745567
0.08  -0.68  0.0798338189096
0.08  -0.66  0.104530625554
0.08  -0.64  0.136867455772
0.08  -0.62  0.179207771409
0.08  -0.6  0.234646177591
0.08  -0.58  0.307234603862
0.08  -0.56  0.402278455073
0.08  -0.54  0.526724377339
0.08  -0.52  0.689667980436
0.08  -0.5  0.903018625494
0.08  -0.48  1.18236986655
0.08  -0.46  1.54813916551
0.08  -0.44  2.02706018109
0.08  -0.42  2.65413670121
0.08  -0.4  3.47520102975
0.08  -0.38  4.55026381711
0.08  -0.36  5.95790016982
0.08  -0.34  7.800992615
0.08  -0.32  10.2142506663
0.08  -0.3  13.3740565878
0.08  -0.28  17.5113569714
0.08  -0.26  22.9285423587
0.08  -0.24  30.0215486185
0.08  -0.22  39.3087954461
0.08  -0.2  37.0351301889
0.08  -0.18  37.5231272912
0.08  -0.16  39.4406389525
0.08  -0.14  42.418716781
0.08  -0.12  45.9844947414
0.08  -0.1  49.691287683
0.08  -0.08  53.1721302944
0.08  -0.06  56.1458757807
0.08  -0.04  58.4076705006
0.08  -0.02  59.8184581484
0.08  6.17561557e-16  60.2975424574
0.08  0.02  59.8184581484
0.08  0.04  58.4076705006
0.08  0.06  56.1458757807
0.08  0.08  53.1721302944
0.08  0.1  49.691287683
0.08  0.12  45.9844947414
0.08  0.14  42.418716781
0.08  0.16  39.4406389525
0.08  0.18  37.5231272912
0.08  0.2  51.469077064
0.08  0.22  39.3087954462
0.08  0.24  30.0215486186
0.08  0.26  22.9285423587
0.08  0.28  17.5113569714
0.08  0.3  13.3740565878
0.08  0.32  10.2142506663
0.08  0.34  7.80099261501
0.08  0.36  5.95790016983
0.08  0.38  4.55026381712
0.08  0.4  3.47520102975
0.08  0.42  2.65413670121
0.08  0.44  2.02706018109
0.08  0.46  1.54813916552
0.08  0.48  1.18236986655
0.08  0.5  0.903018625496
0.08  0.52  0.689667980437
0.08  0.54  0.52672437734
0.08  0.56  0.402278455074
0.08  0.58  0.307234603862
0.08  0.6  0.234646177591
0.08  0.62  0.17920777141
0.08  0.64  0.136867455773
0.08  0.66  0.104530625554
0.08  0.68  0.0798338189097
0.08  0.7  0.0609719745568
0.08  0.72  0.0465665019177
0.08  0.74  0.0355645215136
0.08  0.76  0.0271619112109
0.08  0.78  0.0207445338565
0.08  0.8  0.0158433506973
0.08  0.82  0.0121001398756
0.08  0.84  0.00924131440417
0.08  0.86  0.00705792600702
0.08  0.88  0.00539039332956
0.08  0.9  0.00411683832027
0.08  0.92  0.00314417830371
0.08  0.94  0.00240132267445
0.08  0.96  0.00183397696626
0.08  0.98  0.00140067453182
0.1  -1  0.00114256355118
0.1  -0.98  0.00149601865941
0.1  -0.96  0.00195881605621
0.1  -0.94  0.00256478107271
0.1  -0.92  0.00335820299719
0.1  -0.9  0.00439707212844
0.1  -0.88  0.00575731822015
0.1  -0.86  0.0075383600996
0.1  -0.84  0.00987037207573
0.1  -0.82  0.0129237982301
0.1  -0.8  0.0169218099796
0.1  -0.78  0.022156617419
0.1  -0.76  0.0290108266221
0.1  -0.74  0.0379854038811
0.1  -0.72  0.0497362907582
0.1  -0.7  0.0651223461023
0.1  -0.68  0.0852681190578
0.1  -0.66  0.111646041072
0.1  -0.64  0.146184044223
0.1  -0.62  0.19140647156
0.1  -0.6  0.250618578449
0.1  -0.58  0.328148109893
0.1  -0.56  0.429661610456
0.1  -0.54  0.562578585505
0.1  -0.52  0.736613784352
0.1  -0.5  0.964487240142
0.1  -0.48  1.26285396249
0.1  -0.46  1.65352123306
0.1  -0.44  2.16504247472
0.1  -0.42  2.83480418857
0.1  -0.4  3.71175849035
0.1  -0.38  4.86000096452
0.1  -0.36  6.36345533703
0.1  -0.34  8.33200736418
0.1  -0.32  10.9095362566
0.1  -0.3  14.2844306459
0.1  -0.28  18.7033576935
0.1  -0.26  24.4892917108
0.1  -0.24  32.0651199814
0.1  -0.22  41.9845511075
0.1  -0.2  39.5561171118
0.1  -0.18  40.0773322508
0.1  -0.16  42.1253692214
0.1  -0.14  45.3061652589
0.1  -0.12  49.1146662653
0.1  -0.1  53.073781164
0.1  -0.08  56.7915652594
0.1  -0.06  59.9677340514
0.1  -0.04  62.3834894805
0.1  -0.02  63.8903096573
0.1  6.17561557e-16  64.4020053078
0.1  0.02  63.8903096573
0.1  0.04  62.3834894805
0.1  0.06  59.9677340514
0.1  0.08  56.7915652593
0.1  0.1  53.073781164
0.1  0.12  49.1146662653
0.1  0.14  45.3061652589
0.1  0.16  42.1253692214
0.1  0.18  40.0773322508
0.1  0.2  54.9725849375
0.1  0.22  41.9845511076
0.1  0.24  32.0651199814
0.1  0.26  24.4892917108
0.1  0.28  18.7033576935
0.1  0.3  14.2844306459
0.1  0.32  10.9095362567
0.1  0.34  8.33200736419
0.1  0.36  6.36345533704
0.1  0.38  4.86000096453
0.1  0.4  3.71175849035
0.1  0.42  2.83480418857
0.1  0.44  2.16504247473
0.1  0.46  1.65352123306
0.1  0.48  1.2628539625
0.1  0.5  0.964487240143
0.1  0.52  0.736613784353
0.1  0.54  0.562578585506
0.1  0.56  0.429661610457
0.1  0.58  0.328148109894
0.1  0.6  0.250618578449
0.1  0.62  0.19140647156
0.1  0.64  0.146184044223
0.1  0.66  0.111646041073
0.1  0.68  0.085268119058
0.1  0.7  0.0651223461024
0.1  0.72  0.0497362907583
0.1  0.74  0.0379854038812
0.1  0.76  0.0290108266222
0.1  0.78  0.022156617419
0.1  0.8  0.0169218099796
0.1  0.82  0.0129237982302
0.1  0.84  0.00987037207575
0.1  0.86  0.00753836009962
0.1  0.88  0.00575731822016
0.1  0.9  0.00439707212845
0.1  0.92  0.0033582029972
0.1  0.94  0.00256478107271
0.1  0.96  0.00195881605621
0.1  0.98  0.00149601865941
0.12  -1  0.00119118135454
0.12  -0.98  0.00155967651102
0.12  -0.96  0.00204216663546
0.12  -0.94  0.00267391637788
0.12  -0.92  0.00350109960261
0.12  -0.9  0.00458417418316
0.12  -0.88  0.00600230079883
0.12  -0.86  0.00785912869803
0.12  -0.84  0.010290371303
0.12  -0.82  0.0134737253482
0.12  -0.8  0.017641858531
0.12  -0.78  0.0230994149268
0.12  -0.76  0.0302452810753
0.12  -0.74  0.0396017401403
0.12  -0.72  0.0518526449873
0.12  -0.7  0.0678934002055
0.12  -0.68  0.0888964062025
0.12  -0.66  0.116396748606
0.12  -0.64  0.152404395912
0.12  -0.62  0.199551105778
0.12  -0.6  0.261282777172
0.12  -0.58  0.34211130718
0.12  -0.56  0.447944360387
0.12  -0.54  0.58651715331
0.12  -0.52  0.767957812505
0.12  -0.5  1.00552762772
0.12  -0.48  1.31659030438
0.12  -0.46  1.72388105686
0.12  -0.44  2.2571682993
0.12  -0.42  2.95542938481
0.12  -0.4  3.86969941555
0.12  -0.38  5.06680133982
0.12  -0.36  6.63422996475
0.12  -0.34  8.68654685141
0.12  -0.32  11.373753488
0.12  -0.3  14.8922547266
0.12  -0.28  19.4992137887
0.12  -0.26  25.53134803
0.12  -0.24  33.4295392262
0.12  -0.22  43.7710571163
0.12  -0.2  41.2392895893
0.12  -0.18  41.782683219
0.12  -0.16  43.9178672534
0.12  -0.14  47.2340109625
0.12  -0.12  51.2045694341
0.12  -0.1  55.3321506466
0.12  -0.08  59.2081320657
0.12  -0.06  62.519451633
0.12  -0.04  65.0380011013
0.12  -0.02  66.6089387505
0.12  6.17561557e-16  67.1424078231
0.12  0.02  66.6089387505
0.12  0.04  65.0380011013
0.12  0.06  62.519451633
0.12  0.08  59.2081320657
0.12  0.1  55.3321506466
0.12  0.12  51.2045694341
0.12  0.14  47.2340109625
0.12  0.16  43.9178672534
0.12  0.18  41.782683219
0.12  0.2  57.3117513861
0.12  0.22  43.7710571164
0.12  0.24  33.4295392263
0.12  0.26  25.5313480301
0.12  0.28  19.4992137887
0.12  0.3  14.8922547266
0.12  0.32  11.373753488
0.12  0.34  8.68654685143
0.12  0.36  6.63422996476
0.12  0.38  5.06680133983
0.12  0.4  3.86969941556
0.12  0.42  2.95542938482
0.12  0.44  2.25716829931
0.12  0.46  1.72388105687
0.12  0.48  1.31659030438
0.12  0.5  1.00552762773
0.12  0.52  0.767957812506
0.12  0.54  0.58651715331
0.12  0.56  0.447944360387
0.12  0.58  0.342111307181
0.12  0.6  0.261282777173
0.12  0.62  0.199551105778
0.12  0.64  0.152404395912
0.12  0.66  0.116396748606
0.12  0.68  0.0888964062026
0.12  0.7  0.0678934002056
0.12  0.72  0.0518526449874
0.12  0.74  0.0396017401404
0.12  0.76  0.0302452810754
0.12  0.78  0.0230994149269
0.12  0.8  0.0176418585311
0.12  0.82  0.0134737253482
0.12  0.84  0.010290371303
0.12  0.86  0.00785912869805
0.12  0.88  0.00600230079884
0.12  0.9  0.00458417418316
0.12  0.92  0.00350109960261
0.12  0.94  0.00267391637788
0.12  0.96  0.00204216663547
0.12  0.98  0.00155967651102
0.14  -1  0.00121456945844
0.14  -0.98  0.00159029978779
0.14  -0.96  0.00208226330528
0.14  -0.94  0.00272641706037
0.14  -0.92  0.00356984151247
0.14  -0.9  0.00467418158776
0.14  -0.88  0.00612015223618
0.14  -0.86  0.00801343779456
0.14  -0.84  0.0104924163337
0.14  -0.82  0.0137382735526
0.14  -0.8  0.0179882454342
0.14  -0.78  0.0235529575503
0.14  -0.76  0.0308391283294
0.14  -0.74  0.04037929564
0.14  -0.72  0.0528707393726
0.14  -0.7  0.0692264448277
0.14  -0.68  0.0906418317646
0.14  -0.66  0.118682126261
0.14  -0.64  0.155396761293
0.14  -0.62  0.203469167439
0.14  -0.6  0.266412901749
0.14  -0.58  0.348828449595
0.14  -0.56  0.456739468878
0.14  -0.54  0.598033052273
0.14  -0.52  0.783036185792
0.14  -0.5  1.02527053635
0.14  -0.48  1.3424407349
0.14  -0.46  1.75772838761
0.14  -0.44  2.30148639287
0.14  -0.42  3.01345739985
0.14  -0.4  3.94567855314
0.14  -0.38  5.16628482802
0.14  -0.36  6.76448893764
0.14  -0.34  8.85710178799
0.14  -0.32  11.597070053
0.14  -0.3  15.1846548718
0.14  -0.28  19.8820687054
0.14  -0.26  26.0326401451
0.14  -0.24  34.0859074057
0.14  -0.22  44.6304745578
0.14  -0.2  42.0489973524
0.14  -0.18  42.6030601776
0.14  -0.16  44.7801672205
0.14  -0.14  48.1614213457
0.14  -0.12  52.2099392596
0.14  -0.1  56.4185629581
0.14  -0.08  60.370646858
0.14  -0.06  63.7469821224
0.14  -0.04  66.3149817407
0.14  -0.02  67.9167637721
0.14  6.17561557e-16  68.4607071777
0.14  0.02  67.9167637721
0.14  0.04  66.3149817407
0.14  0.06  63.7469821224
0.14  0.08  60.370646858
0.14  0.1  56.4185629581
0.14  0.12  52.2099392596
0.14  0.14  48.1614213457
0.14  0.16  44.7801672205
0.14  0.18  42.6030601776
0.14  0.2  58.437031925
0.14  0.22  44.6304745579
0.14  0.24  34.0859074057
0.14  0.26  26.0326401451
0.14  0.28  19.8820687054
0.14  0.3  15.1846548718
0.14  0.32  11.597070053
0.14  0.34  8.857101788
0.14  0.36  6.76448893765
0.14  0.38  5.16628482803
0.14  0.4  3.94567855314
0.14  0.42  3.01345739985
0.14  0.44  2.30148639287
0.14  0.46  1.75772838761
0.14  0.48  1.3424407349
0.14  0.5  1.02527053635
0.14  0.52  0.783036185793
0.14  0.54  0.598033052274
0.14  0.56  0.456739468879
0.14  0.58  0.348828449596
0.14  0.6  0.266412901749
0.14  0.62  0.203469167439
0.14  0.64  0.155396761293
0.14  0.66  0.118682126261
0.14  0.68  0.0906418317648
0.14  0.7  0.0692264448278
0.14  0.72  0.0528707393727
0.14  0.74  0.0403792956401
0.14  0.76  0.0308391283295
0.14  0.78  0.0235529575503
0.14  0.8  0.0179882454342
0.14  0.82  0.0137382735527
0.14  0.84  0.0104924163337
0.14  0.86  0.00801343779458
0.14  0.88  0.00612015223619
0.14  0.9  0.00467418158777
0.14  0.92  0.00356984151247
0.14  0.94  0.00272641706038
0.14  0.96  0.00208226330529
0.14  0.98  0.00159029978779
0.16  -1  0.00121223249348
0.16  -0.98  0.00158723987642
0.16  -0.96  0.0020782568021
0.16  -0.94  0.00272117113465
0.16  -0.92  0.00356297274552
0.16  -0.9  0.00466518794927
0.16  -0.88  0.00610837639143
0.16  -0.86  0.00799801906056
0.16  -0.84  0.0104722277728
0.16  -0.82  0.0137118396062
0.16  -0.8  0.0179536340753
0.16  -0.78  0.0235076390744
0.16  -0.76  0.0307797904611
0.16  -0.74  0.0403016014425
0.16  -0.72  0.0527690102661
0.16  -0.7  0.0690932455485
0.16  -0.68  0.09046742693
0.16  -0.66  0.118453768822
0.16  -0.64  0.155097760865
0.16  -0.62  0.203077670425
0.16  -0.6  0.26590029408
0.16  -0.58  0.348157265365
0.16  -0.56  0.455860652001
0.16  -0.54  0.596882371031
0.16  -0.52  0.781529538212
0.16  -0.5  1.02329780329
0.16  -0.48  1.33985773156
0.16  -0.46  1.75434632524
0.16  -0.44  2.2970580804
0.16  -0.42  3.007659177
0.16  -0.4  3.93808663446
0.16  -0.38  5.15634432887
0.16  -0.36  6.75147331835
0.16  -0.34  8.84005975185
0.16  -0.32  11.5747560172
0.16  -0.3  15.1554379289
0.16  -0.28  19.8438134226
0.16  -0.26  25.9825504877
0.16  -0.24  34.020322378
0.16  -0.22  44.5446006254
0.16  -0.2  41.9680904655
0.16  -0.18  42.521087213
0.16  -0.16  44.694005263
0.16  -0.14  48.068753484
0.16  -0.12  52.1094816051
0.16  -0.1  56.3100074495
0.16  -0.08  60.2544871062
0.16  -0.06  63.6243259309
0.16  -0.04  66.187384436
0.16  -0.02  67.786084463
0.16  6.17561557e-16  68.3289812618
0.16  0.02  67.786084463
0.16  0.04  66.187384436
0.16  0.06  63.6243259309
0.16  0.08  60.2544871062
0.16  0.1  56.3100074495
0.16  0.12  52.1094816051
0.16  0.14  48.068753484
0.16  0.16  44.694005263
0.16  0.18  42.521087213
0.16  0.2  58.3245926606
0.16  0.22  44.5446006255
0.16  0.24  34.0203223781
0.16  0.26  25.9825504877
0.16  0.28  19.8438134226
0.16  0.3  15.1554379289
0.16  0.32  11.5747560172
0.16  0.34  8.84005975187
0.16  0.36  6.75147331836
0.16  0.38  5.15634432888
0.16  0.4  3.93808663447
0.16  0.42  3.00765917701
0.16  0.44  2.29705808041
0.16  0.46  1.75434632524
0.16  0.48  1.33985773156
0.16  0.5  1.02329780329
0.16  0.52  0.781529538213
0.16  0.54  0.596882371032
0.16  0.56  0.455860652002
0.16  0.58  0.348157265366
0.16  0.6  0.26590029408
0.16  0.62  0.203077670425
0.16  0.64  0.155097760865
0.16  0.66  0.118453768822
0.16  0.68  0.0904674269302
0.16  0.7  0.0690932455486
0.16  0.72  0.0527690102662
0.16  0.74  0.0403016014426
0.16  0.76  0.0307797904612
0.16  0.78  0.0235076390745
0.16  0.8  0.0179536340753
0.16  0.82  0.0137118396062
0.16  0.84  0.0104722277728
0.16  0.86  0.00799801906058
0.16  0.88  0.00610837639144
0.16  0.9  0.00466518794928
0.16  0.92  0.00356297274552
0.16  0.94  0.00272117113466
0.16  0.96  0.00207825680211
0.16  0.98  0.00158723987642
0.18  -1  0.00118421995749
0.18  -0.98  0.00155056158706
0.18  -0.96  0.00203023198526
0.18  -0.94  0.00265828971153
0.18  -0.92  0.00348063878499
0.18  -0.9  0.00455738375657
0.18  -0.88  0.00596722268171
0.18  -0.86  0.00781319907101
0.18  -0.84  0.0102302332223
0.18  -0.82  0.0133949833905
0.18  -0.8  0.0175387575368
0.18  -0.78  0.0229644193627
0.18  -0.76  0.0300685242703
0.18  -0.74  0.0393703031422
0.18  -0.72  0.0515496123312
0.18  -0.7  0.067496623582
0.18  -0.68  0.0883768856631
0.18  -0.66  0.11571651299
0.18  -0.64  0.151513727578
0.18  -0.62  0.198384906799
0.18  -0.6  0.259755811402
0.18  -0.58  0.340111970442
0.18  -0.56  0.44532652345
0.18  -0.54  0.583089481474
0.18  -0.52  0.763469781166
0.18  -0.5  0.999651211817
0.18  -0.48  1.3088960034
0.18  -0.46  1.71380650318
0.18  -0.44  2.24397715534
0.18  -0.42  2.93815752497
0.18  -0.4  3.84708445941
0.18  -0.38  5.03719038616
0.18  -0.36  6.59545878291
0.18  -0.34  8.63578170018
0.18  -0.32  11.3072840007
0.18  -0.3  14.8052227246
0.18  -0.28  19.3852582027
0.18  -0.26  25.3821399769
0.18  -0.24  33.2341732605
0.18  -0.22  43.5152541635
0.18  -0.2  40.998282569
0.18  -0.18  41.5385005456
0.18  -0.16  43.6612063258
0.18  -0.14  46.9579701201
0.18  -0.12  50.905324204
0.18  -0.1  55.0087833702
0.18  -0.08  58.8621131205
0.18  -0.06  62.1540809659
0.18  -0.04  64.6579117495
0.18  -0.02  66.2196686634
0.18  6.17561557e-16  66.7500200831
0.18  0.02  66.2196686634
0.18  0.04  64.6579117495
0.18  0.06  62.1540809659
0.18  0.08  58.8621131205
0.18  0.1  55.0087833702
0.18  0.12  50.905324204
0.18  0.14  46.9579701201
0.18  0.16  43.6612063258
0.18  0.18  41.5385005456
0.18  0.2  56.9768151016
0.18  0.22  43.5152541636
0.18  0.24  33.2341732605
0.18  0.26  25.3821399769
0.18  0.28  19.3852582027
0.18  0.3  14.8052227246
0.18  0.32  11.3072840007
0.18  0.34  8.63578170019
0.18  0.36  6.59545878292
0.18  0.38  5.03719038617
0.18  0.4  3.84708445941
0.18  0.42  2.93815752498
0.18  0.44  2.24397715534
0.18  0.46  1.71380650319
0.18  0.48  1.30889600341
0.18  0.5  0.999651211819
0.18  0.52  0.763469781167
0.18  0.54  0.583089481475
0.18  0.56  0.44532652345
0.18  0.58  0.340111970442
0.18  0.6  0.259755811403
0.18  0.62  0.198384906799
0.18  0.64  0.151513727578
0.18  0.66  0.11571651299
0.18  0.68  0.0883768856632
0.18  0.7  0.0674966235821
0.18  0.72  0.0515496123313
0.18  0.74  0.0393703031422
0.18  0.76  0.0300685242704
0.18  0.78  0.0229644193628
0.18  0.8  0.0175387575369
0.18  0.82  0.0133949833905
0.18  0.84  0.0102302332223
0.18  0.86  0.00781319907103
0.18  0.88  0.00596722268172
0.18  0.9  0.00455738375658
0.18  0.92  0.003480638785
0.18  0.94  0.00265828971154
0.18  0.96  0.00203023198527
0.18  0.98  0.00155056158707
0.2  -1  0.00113112516724
0.2  -0.98  0.00148104178062
0.2  -0.96  0.00193920603968
0.2  -0.94  0.00253910464481
0.2  -0.92  0.00332458349725
0.2  -0.9  0.00435305234575
0.2  -0.88  0.00569968079927
0.2  -0.86  0.00746289238751
0.2  -0.84  0.00977155822388
0.2  -0.82  0.0127944160474
0.2  -0.8  0.0167524030705
0.2  -0.78  0.0219348040269
0.2  -0.76  0.0287203946605
0.2  -0.74  0.0376051260109
0.2  -0.72  0.0492383729058
0.2  -0.7  0.0644703960227
0.2  -0.68  0.0844144864674
0.2  -0.66  0.110528334944
0.2  -0.64  0.144720572696
0.2  -0.62  0.18949027118
0.2  -0.6  0.248109596326
0.2  -0.58  0.324862967402
0.2  -0.56  0.425360200297
0.2  -0.54  0.556946522542
0.2  -0.52  0.72923942756
0.2  -0.5  0.954831606238
0.2  -0.48  1.25021133227
0.2  -0.46  1.63696757116
0.2  -0.44  2.14336789299
0.2  -0.42  2.80642451666
0.2  -0.4  3.67459949059
0.2  -0.38  4.81134672823
0.2  -0.36  6.29974978185
0.2  -0.34  8.24859432413
0.2  -0.32  10.8003191682
0.2  -0.3  14.1414269574
0.2  -0.28  18.5161154292
0.2  -0.26  24.2441255484
0.2  -0.24  31.7441110071
0.2  -0.22  41.5642371436
0.2  -0.2  39.1601145836
0.2  -0.18  39.6761117556
0.2  -0.16  41.7036455051
0.2  -0.14  44.8525980917
0.2  -0.12  48.6229715937
0.2  -0.1  52.5424511687
0.2  -0.08  56.223015941
0.2  -0.06  59.3673876062
0.2  -0.04  61.7589585267
0.2  -0.02  63.250693689
0.2  6.17561557e-16  63.7572666736
0.2  0.02  63.250693689
0.2  0.04  61.7589585267
0.2  0.06  59.3673876062
0.2  0.08  56.223015941
0.2  0.1  52.5424511687
0.2  0.12  48.6229715937
0.2  0.14  44.8525980917
0.2  0.16  41.7036455051
0.2  0.18  39.6761117556
0.2  0.2  54.422245718
0.2  0.22  41.5642371436
0.2  0.24  31.7441110072
0.2  0.26  24.2441255484
0.2  0.28  18.5161154293
0.2  0.3  14.1414269574
0.2  0.32  10.8003191683
0.2  0.34  8.24859432414
0.2  0.36  6.29974978186
0.2  0.38  4.81134672823
0.2  0.4  3.6745994906
0.2  0.42  2.80642451666
0.2  0.44  2.14336789299
0.2  0.46  1.63696757116
0.2  0.48  1.25021133227
0.2  0.5  0.95483160624
0.2  0.52  0.729239427561
0.2  0.54  0.556946522543
0.2  0.56  0.425360200298
0.2  0.58  0.324862967402
0.2  0.6  0.248109596327
0.2  0.62  0.18949027118
0.2  0.64  0.144720572696
0.2  0.66  0.110528334944
0.2  0.68  0.0844144864675
0.2  0.7  0.0644703960228
0.2  0.72  0.0492383729058
0.2  0.74  0.0376051260109
0.2  0.76  0.0287203946606
0.2  0.78  0.0219348040269
0.2  0.8  0.0167524030706
0.2  0.82  0.0127944160474
0.2  0.84  0.0097715582239
0.2  0.86  0.00746289238752
0.2  0.88  0.00569968079927
0.2  0.9  0.00435305234575
0.2  0.92  0.00332458349725
0.2  0.94  0.00253910464481
0.2  0.96  0.00193920603968
0.2  0.98  0.00148104178062
0.22  -1  0.00105407269171
0.22  -0.98  0.0013801529145
0.22  -0.96  0.00180710693142
0.22  -0.94  0.00236614032205
0.22  -0.92  0.00309811219594
0.22  -0.9  0.00405652153814
0.22  -0.88  0.00531141738861
0.22  -0.86  0.00695451864629
0.22  -0.84  0.00910591769821
0.22  -0.82  0.0119228578344
0.22  -0.8  0.0156112259798
0.22  -0.78  0.0204406007332
0.22  -0.76  0.0267639555582
0.22  -0.74  0.0350434572092
0.22  -0.72  0.045884244969
0.22  -0.7  0.0600786595857
0.22  -0.68  0.0786641545491
0.22  -0.66  0.102999122377
0.22  -0.64  0.134862177968
0.22  -0.62  0.176582155521
0.22  -0.6  0.231208320364
0.22  -0.58  0.302733236254
0.22  -0.56  0.396384577286
0.22  -0.54  0.519007212604
0.22  -0.52  0.679563490029
0.22  -0.5  0.889788283797
0.22  -0.48  1.16504668305
0.22  -0.46  1.52545700861
0.22  -0.44  1.99736123793
0.22  -0.42  2.61525031008
0.22  -0.4  3.42428502891
0.22  -0.38  4.48359681445
0.22  -0.36  5.87060955054
0.22  -0.34  7.68669840782
0.22  -0.32  10.0645992386
0.22  -0.3  13.1781100884
0.22  -0.28  17.2547938953
0.22  -0.26  22.5926108048
0.22  -0.24  29.5816957348
0.22  -0.22  38.7328728895
0.22  -0.2  36.4925196454
0.22  -0.18  36.9733669855
0.22  -0.16  38.8627847252
0.22  -0.14  41.7972300237
0.22  -0.12  45.310764919
0.22  -0.1  48.9632487514
0.22  -0.08  52.3930927058
0.22  -0.06  55.3232691362
0.22  -0.04  57.5519257611
0.22  -0.02  58.9420436219
0.22  6.17561557e-16  59.4141087522
0.22  0.02  58.9420436219
0.22  0.04  57.5519257611
0.22  0.06  55.3232691362
0.22  0.08  52.3930927058
0.22  0.1  48.9632487513
0.22  0.12  45.310764919
0.22  0.14  41.7972300237
0.22  0.16  38.8627847252
0.22  0.18  36.9733669855
0.22  0.2  50.7149913152
0.22  0.22  38.7328728896
0.22  0.24  29.5816957348
0.22  0.26  22.5926108049
0.22  0.28  17.2547938954
0.22  0.3  13.1781100884
0.22  0.32  10.0645992387
0.22  0.34  7.68669840783
0.22  0.36  5.87060955055
0.22  0.38  4.48359681445
0.22  0.4  3.42428502892
0.22  0.42  2.61525031008
0.22  0.44  1.99736123793
0.22  0.46  1.52545700861
0.22  0.48  1.16504668306
0.22  0.5  0.889788283799
0.22  0.52  0.679563490031
0.22  0.54  0.519007212604
0.22  0.56  0.396384577287
0.22  0.58  0.302733236254
0.22  0.6  0.231208320364
0.22  0.62  0.176582155521
0.22  0.64  0.134862177968
0.22  0.66  0.102999122377
0.22  0.68  0.0786641545492
0.22  0.7  0.0600786595858
0.22  0.72  0.0458842449691
0.22  0.74  0.0350434572093
0.22  0.76  0.0267639555583
0.22  0.78  0.0204406007332
0.22  0.8  0.0156112259798
0.22  0.82  0.0119228578345
0.22  0.84  0.00910591769823
0.22  0.86  0.0069545186463
0.22  0.88  0.00531141738862
0.22  0.9  0.00405652153815
0.22  0.92  0.00309811219595
0.22  0.94  0.00236614032205
0.22  0.96  0.00180710693143
0.22  0.98  0.00138015291451
0.24  -1  0.000954694533276
0.24  -0.98  0.00125003185542
0.24  -0.96  0.00163673257266
0.24  -0.94  0.00214306019707
0.24  -0.92  0.00280602163418
0.24  -0.9  0.00367407197534
0.24  -0.88  0.00481065602471
0.24  -0.86  0.00629884540734
0.24  -0.84  0.00824741017893
0.24  -0.82  0.0107987687046
0.24  -0.8  0.0141393968536
0.24  -0.78  0.0185134573074
0.24  -0.76  0.0242406451294
0.24  -0.74  0.0317395539111
0.24  -0.72  0.0415582702976
0.24  -0.7  0.0544144330121
0.24  -0.68  0.0712476842474
0.24  -0.66  0.0932883470362
0.24  -0.64  0.122147348151
0.24  -0.62  0.159933958897
0.24  -0.6  0.209409959328
0.24  -0.58  0.27419149359
0.24  -0.56  0.359013369748
0.24  -0.54  0.470075121479
0.24  -0.52  0.615494124881
0.24  -0.5  0.805898888184
0.24  -0.48  1.05520587723
0.24  -0.46  1.38163665402
0.24  -0.44  1.80904966974
0.24  -0.42  2.36868405169
0.24  -0.4  3.1014428352
0.24  -0.38  4.06088251961
0.24  -0.36  5.31712745144
0.24  -0.34  6.9619951324
0.24  -0.32  9.11570705542
0.24  -0.3  11.9356755556
0.24  -0.28  15.6280088975
0.24  -0.26  20.4625754916
0.24  -0.24  26.7927282674
0.24  -0.22  35.0811308333
0.24  -0.2  33.0519984864
0.24  -0.18  33.4875114548
0.24  -0.16  35.1987945583
0.24  -0.14  37.8565798389
0.24  -0.12  41.0388580474
0.24  -0.1  44.3469850628
0.24  -0.08  47.453462727
0.24  -0.06  50.1073816092
0.24  -0.04  52.1259200962
0.24  -0.02  53.384977401
0.24  6.17561557e-16  53.8125361479
0.24  0.02  53.384977401
0.24  0.04  52.1259200962
0.24  0.06  50.1073816091
0.24  0.08  47.453462727
0.24  0.1  44.3469850628
0.24  0.12  41.0388580474
0.24  0.14  37.8565798389
0.24  0.16  35.1987945583
0.24  0.18  33.4875114548
0.24  0.2  45.9335730302
0.24  0.22  35.0811308334
0.24  0.24  26.7927282674
0.24  0.26  20.4625754917
0.24  0.28  15.6280088975
0.24  0.3  11.9356755556
0.24  0.32  9.11570705544
0.24  0.34  6.96199513242
0.24  0.36  5.31712745144
0.24  0.38  4.06088251962
0.24  0.4  3.1014428352
0.24  0.42  2.3686840517
0.24  0.44  1.80904966975
0.24  0.46  1.38163665402
0.24  0.48  1.05520587723
0.24  0.5  0.805898888185
0.24  0.52  0.615494124882
0.24  0.54  0.47007512148
0.24  0.56  0.359013369749
0.24  0.58  0.27419149359
0.24  0.6  0.209409959328
0.24  0.62  0.159933958897
0.24  0.64  0.122147348152
0.24  0.66  0.0932883470364
0.24  0.68  0.0712476842475
0.24  0.7  0.0544144330122
0.24  0.72  0.0415582702977
0.24  0.74  0.0317395539111
0.24  0.76  0.0242406451294
0.24  0.78  0.0185134573074
0.24  0.8  0.0141393968536
0.24  0.82  0.0107987687046
0.24  0.84  0.00824741017895
0.24  0.86  0.00629884540735
0.24  0.88  0.00481065602472
0.24  0.9  0.00367407197534
0.24  0.92  0.00280602163419
0.24  0.94  0.00214306019707
0.24  0.96  0.00163673257266
0.24  0.98  0.00125003185542
0.26  -1  0.00083509556124
0.26  -0.98  0.00109343461964
0.26  -0.96  0.00143169156073
0.26  -0.94  0.00187458919651
0.26  -0.92  0.00245449840737
0.26  -0.9  0.00321380409266
0.26  -0.88  0.00420800303434
0.26  -0.86  0.00550976009316
0.26  -0.84  0.00721421920006
0.26  -0.82  0.00944595731693
0.26  -0.8  0.012368089624
0.26  -0.78  0.0161941914211
0.26  -0.76  0.0212039081021
0.26  -0.74  0.0277633941151
0.26  -0.72  0.0363520747723
0.26  -0.7  0.0475976868956
0.26  -0.68  0.0623221593817
0.26  -0.66  0.0816016870423
0.26  -0.64  0.10684538845
0.26  -0.62  0.139898296797
0.26  -0.6  0.183176211258
0.26  -0.58  0.239842264982
0.26  -0.56  0.314038114866
0.26  -0.54  0.411186650509
0.26  -0.52  0.538388346997
0.26  -0.5  0.704940230486
0.26  -0.48  0.923015387181
0.26  -0.46  1.20855268025
0.26  -0.44  1.58242170308
0.26  -0.42  2.07194811388
0.26  -0.4  2.71291083676
0.26  -0.38  3.55215710224
0.26  -0.36  4.65102645765
0.26  -0.34  6.08983400428
0.26  -0.32  7.97374053607
0.26  -0.3  10.4404386215
0.26  -0.28  13.6702163953
0.26  -0.26  17.8991346122
0.26  -0.24  23.4362800558
0.26  -0.22  30.6863563382
0.26  -0.2  28.9114227264
0.26  -0.18  29.2923769836
0.26  -0.16  30.7892797875
0.26  -0.14  33.1141120906
0.26  -0.12  35.8977316819
0.26  -0.1  38.7914344217
0.26  -0.08  41.5087493513
0.26  -0.06  43.8301996175
0.26  -0.04  45.5958665108
0.26  -0.02  46.6971959204
0.26  6.17561557e-16  47.071192418
0.26  0.02  46.6971959204
0.26  0.04  45.5958665108
0.26  0.06  43.8301996175
0.26  0.08  41.5087493513
0.26  0.1  38.7914344217
0.26  0.12  35.8977316819
0.26  0.14  33.1141120906
0.26  0.16  30.7892797875
0.26  0.18  29.2923769836
0.26  0.2  40.1792632223
0.26  0.22  30.6863563382
0.26  0.24  23.4362800558
0.26  0.26  17.8991346122
0.26  0.28  13.6702163954
0.26  0.3  10.4404386215
0.26  0.32  7.97374053609
0.26  0.34  6.08983400429
0.26  0.36  4.65102645766
0.26  0.38  3.55215710225
0.26  0.4  2.71291083676
0.26  0.42  2.07194811388
0.26  0.44  1.58242170308
0.26  0.46  1.20855268026
0.26  0.48  0.923015387183
0.26  0.5  0.704940230487
0.26  0.52  0.538388346998
0.26  0.54  0.411186650509
0.26  0.56  0.314038114866
0.26  0.58  0.239842264982
0.26  0.6  0.183176211258
0.26  0.62  0.139898296797
0.26  0.64  0.10684538845
0.26  0.66  0.0816016870425
0.26  0.68  0.0623221593818
0.26  0.7  0.0475976868957
0.26  0.72  0.0363520747724
0.26  0.74  0.0277633941152
0.26  0.76  0.0212039081021
0.26  0.78  0.0161941914212
0.26  0.8  0.012368089624
0.26  0.82  0.00944595731695
0.26  0.84  0.00721421920007
0.26  0.86  0.00550976009317
0.26  0.88  0.00420800303434
0.26  0.9  0.00321380409266
0.26  0.92  0.00245449840737
0.26  0.94  0.00187458919651
