-0.02  0.4  4.66632117633
-0.02  0.42  3.83173480886
-0.02  0.44  3.14641686474
-0.02  0.46  2.5836702122
-0.02  0.48  2.12157258633
-0.02  0.5  1.74212258895
-0.02  0.52  1.43053842913
-0.02  0.54  1.1746820862
-0.02  0.56  0.964586463078
-0.02  0.58  0.79206710963
-0.02  0.6  0.650403390646
-0.02  0.62  0.534076677873
-0.02  0.64  0.438555367254
-0.02  0.66  0.360118346514
-0.02  0.68  0.295710036131
-0.02  0.7  0.242821356687
-0.02  0.72  0.199391985591
-0.02  0.74  0.163730095492
-0.02  0.76  0.134446447737
-0.02  0.78  0.110400273418
-0.02  0.8  0.0906548337713
-0.02  0.82  0.0744409287376
-0.02  0.84  0.0611269321313
-0.02  0.86  0.0501941861171
-0.02  0.88  0.0412167964612
-0.02  0.9  0.0338450414669
-0.02  0.92  0.0277917482736
-0.02  0.94  0.0228211057994
-0.02  0.96  0.0187394785237
-0.02  0.98  0.0153878632537
2.8449465e-16  -1  0.015699149792
2.8449465e-16  -0.98  0.0191185660749
2.8449465e-16  -0.96  0.023282762035
2.8449465e-16  -0.94  0.0283539573971
2.8449465e-16  -0.92  0.0345297048033
2.8449465e-16  -0.9  0.0420505856416
2.8449465e-16  -0.88  0.0512095820938
2.8449465e-16  -0.86  0.062363490501
2.8449465e-16  -0.84  0.0759468206623
2.8449465e-16  -0.82  0.0924887225262
2.8449465e-16  -0.8  0.112633599668
2.8449465e-16  -0.78  0.137166212568
2.8449465e-16  -0.76  0.16704224961
2.8449465e-16  -0.74  0.20342555672
2.8449465e-16  -0.72  0.247733475952
2.8449465e-16  -0.7  0.301692059233
2.8449465e-16  -0.68  0.36740330815
2.8449465e-16  -0.66  0.447427059175
2.8449465e-16  -0.64  0.544880704234
2.8449465e-16  -0.62  0.663560631298
2.8449465e-16  -0.6  0.80809011585
2.8449465e-16  -0.58  0.98409942443
2.8449465e-16  -0.56  1.19844514636
2.8449465e-16  -0.54  1.45947729791
2.8449465e-16  -0.52  1.7773646041
2.8449465e-16  -0.5  2.16449062993
2.8449465e-16  -0.48  2.63593619241
2.8449465e-16  -0.46  3.21006684639
2.8449465e-16  -0.44  3.90924833005
2.8449465e-16  -0.42  4.76071784086
2.8449465e-16  -0.4  5.79764508335
2.8449465e-16  -0.38  7.06042442255
2.8449465e-16  -0.36  8.59824848019
2.8449465e-16  -0.34  10.4710244742
2.8449465e-16  -0.32  12.7517079546
2.8449465e-16  -0.3  15.5291448471
2.8449465e-16  -0.28  18.9115325212
2.8449465e-16  -0.26  23.0306347079
2.8449465e-16  -0.24  28.0469144663
2.8449465e-16  -0.22  34.1557851555
2.8449465e-16  -0.2  30.4360267862
2.8449465e-16  -0.18  30.459182157
2.8449465e-16  -0.16  30.697871809
2.8449465e-16  -0.14  31.1222817005
2.8449465e-16  -0.12  31.6810788804
2.8449465e-16  -0.1  32.3097636765
2.8449465e-16  -0.08  32.9396492061
2.8449465e-16  -0.06  33.5056918992
2.8449465e-16  -0.04  33.9523951502
2.8449465e-16  -0.02  34.2377896759
2.8449465e-16  6.17561557e-16  34.3358556332
2.8449465e-16  0.02  34.2377896759
2.8449465e-16  0.04  33.9523951502
2.8449465e-16  0.06  33.5056918992
2.8449465e-16  0.08  32.9396492061
2.8449465e-16  0.1  32.3097636765
2.8449465e-16  0.12  31.6810788804
2.8449465e-16  0.14  31.1222817005
2.8449465e-16  0.16  30.697871809
2.8449465e-16  0.18  30.459182157
2.8449465e-16  0.2  41.5952229253
2.8449465e-16  0.22  34.1557851555
2.8449465e-16  0.24  28.0469144663
2.8449465e-16  0.26  23.0306347079
2.8449465e-16  0.28  18.9115325212
2.8449465e-16  0.3  15.5291448471
2.8449465e-16  0.32  12.7517079546
2.8449465e-16  0.34  10.4710244742
2.8449465e-16  0.36  8.59824848019
2.8449465e-16  0.38  7.06042442255
2.8449465e-16  0.4  5.79764508335
2.8449465e-16  0.42  4.76071784086
2.8449465e-16  0.44  3.90924833005
2.8449465e-16  0.46  3.21006684639
2.8449465e-16  0.48  2.63593619241
2.8449465e-16  0.5  2.16449062993
2.8449465e-16  0.52  1.7773646041
2.8449465e-16  0.54  1.4594772979
2.8449465e-16  0.56  1.19844514636
2.8449465e-16  0.58  0.98409942443
2.8449465e-16  0.6  0.80809011585
2.8449465e-16  0.62  0.663560631298
2.8449465e-16  0.64  0.544880704234
2.8449465e-16  0.66  0.447427059175
2.8449465e-16  0.68  0.36740330815
2.8449465e-16  0.7  0.301692059233
2.8449465e-16  0.72  0.247733475952
2.8449465e-16  0.74  0.20342555672
2.8449465e-16  0.76  0.16704224961
2.8449465e-16  0.78  0.137166212568
2.8449465e-16  0.8  0.112633599668
2.8449465e-16  0.82  0.0924887225262
2.8449465e-16  0.84  0.0759468206623
2.8449465e-16  0.86  0.062363490501
2.8449465e-16  0.88  0.0512095820938
2.8449465e-16  0.9  0.0420505856416
2.8449465e-16  0.92  0.0345297048033
2.8449465e-16  0.94  0.0283539573971
2.8449465e-16  0.96  0.023282762035
2.8449465e-16  0.98  0.0191185660749
0.02  -1  0.0189502464573
0.02  -0.98  0.023077780888
0.02  -0.96  0.0281043295093
0.02  -0.94  0.0342257057122
0.02  -0.92  0.0416803728093
0.02  -0.9  0.0507587335708
0.02  -0.88  0.0618144431073
0.02  -0.86  0.075278185799
0.02  -0.84  0.091674452965
0.02  -0.82  0.111641974859
0.02  -0.8  0.135958602941
0.02  -0.78  0.165571611725
0.02  -0.76  0.201634600652
0.02  -0.74  0.245552433515
0.02  -0.72  0.299035966101
0.02  -0.7  0.364168694
0.02  -0.68  0.443487916919
0.02  -0.66  0.5400835813
0.02  -0.64  0.657718651764
0.02  -0.62  0.800975700534
0.02  -0.6  0.975435425353
0.02  -0.58  1.18789405022
0.02  -0.56  1.44662807795
0.02  -0.54  1.76171670826
0.02  -0.52  2.14543448138
0.02  -0.5  2.612729443
0.02  -0.48  3.18180545785
0.02  -0.46  3.87483135643
0.02  -0.44  4.71880454028
0.02  -0.42  5.74660268824
0.02  -0.4  6.99826453387
0.02  -0.38  8.52254960765
0.02  -0.36  10.3788377052
0.02  -0.34  12.6394420765
0.02  -0.32  15.3924264493
0.02  -0.3  18.7450356244
0.02  -0.28  22.8278732867
0.02  -0.26  27.7999897806
0.02  -0.24  33.8550780484
0.02  -0.22  41.2290191007
0.02  -0.2  36.738945511
0.02  -0.18  36.7668960682
0.02  -0.16  37.0550153481
0.02  -0.14  37.5673151955
0.02  -0.12  38.2418322501
0.02  -0.1  39.0007097682
0.02  -0.08  39.7610366766
0.02  -0.06  40.4442996992
0.02  -0.04  40.9835095808
0.02  -0.02  41.3280057269
0.02  6.17561557e-16  41.4463799118
0.02  0.02  41.3280057269
0.02  0.04  40.9835095808
0.02  0.06  40.4442996992
0.02  0.08  39.7610366766
0.02  0.1  39.0007097682
0.02  0.12  38.2418322501
0.02  0.14  37.5673151955
0.02  0.16  37.0550153481
0.02  0.18  36.7668960682
0.02  0.2  50.2090709575
0.02  0.22  41.2290191007
0.02  0.24  33.8550780484
0.02  0.26  27.7999897806
0.02  0.28  22.8278732867
0.02  0.3  18.7450356244
0.02  0.32  15.3924264493
0.02  0.34  12.6394420765
0.02  0.36  10.3788377052
0.02  0.38  8.52254960765
0.02  0.4  6.99826453387
0.02  0.42  5.74660268824
0.02  0.44  4.71880454028
0.02  0.46  3.87483135643
0.02  0.48  3.18180545785
0.02  0.5  2.612729443
0.02  0.52  2.14543448138
0.02  0.54  1.76171670826
0.02  0.56  1.44662807795
0.02  0.58  1.18789405022
0.02  0.6  0.975435425353
0.02  0.62  0.800975700534
0.02  0.64  0.657718651764
0.02  0.66  0.5400835813
0.02  0.68  0.443487916919
0.02  0.7  0.364168694
0.02  0.72  0.299035966101
0.02  0.74  0.245552433515
0.02  0.76  0.201634600652
0.02  0.78  0.165571611725
0.02  0.8  0.135958602941
0.02  0.82  0.111641974859
0.02  0.84  0.091674452965
0.02  0.86  0.075278185799
0.02  0.88  0.0618144431073
0.02  0.9  0.0507587335708
0.02  0.92  0.0416803728093
0.02  0.94  0.0342257057122
0.02  0.96  0.0281043295093
0.02  0.98  0.023077780888
0.04  -1  0.0218481615048
0.04  -0.98  0.0266068879448
0.04  -0.96  0.0324021078822
0.04  -0.94  0.0394595789402
0.04  -0.92  0.0480542307864
0.04  -0.9  0.0585208752474
0.04  -0.88  0.0712672491823
0.04  -0.86  0.0867898982123
0.04  -0.84  0.105693520069
0.04  -0.82  0.128714521098
0.04  -0.8  0.156749703584
0.04  -0.78  0.190891201427
0.04  -0.76  0.232469025135
0.04  -0.74  0.283102873487
0.04  -0.72  0.344765230249
0.04  -0.7  0.419858203926
0.04  -0.68  0.5113071039
0.04  -0.66  0.622674398295
0.04  -0.64  0.758298492891
0.04  -0.62  0.923462737339
0.04  -0.6  1.12460124245
0.04  -0.58  1.36954952635
0.04  -0.56  1.6678497536
0.04  -0.54  2.0311224582
0.04  -0.52  2.47351923116
0.04  -0.5  3.0122740075
0.04  -0.48  3.66837442862
0.04  -0.46  4.4673794333
0.04  -0.44  5.44041492748
0.04  -0.42  6.62538631989
0.04  -0.4  8.06845515883
0.04  -0.38  9.82583739375
0.04  -0.36  11.9659933144
0.04  -0.34  14.5722944787
0.04  -0.32  17.7462715207
0.04  -0.3  21.6115693618
0.04  -0.28  26.3187639013
0.04  -0.26  32.0512278259
0.04  -0.24  39.032274046
0.04  -0.22  47.5338550359
0.04  -0.2  42.3571491194
0.04  -0.18  42.3893739397
0.04  -0.16  42.7215530792
0.04  -0.14  43.3121949914
0.04  -0.12  44.0898607373
0.04  -0.1  44.9647875419
0.04  -0.08  45.8413853808
0.04  -0.06  46.6291345482
0.04  -0.04  47.2508016386
0.04  -0.02  47.6479789236
0.04  6.17561557e-16  47.7844551596
0.04  0.02  47.6479789236
0.04  0.04  47.2508016386
0.04  0.06  46.6291345482
0.04  0.08  45.8413853808
0.04  0.1  44.9647875419
0.04  0.12  44.0898607373
0.04  0.14  43.3121949914
0.04  0.16  42.7215530792
0.04  0.18  42.3893739397
0.04  0.2  57.8871569696
0.04  0.22  47.5338550359
0.04  0.24  39.0322740459
0.04  0.26  32.0512278259
0.04  0.28  26.3187639013
0.04  0.3  21.6115693618
0.04  0.32  17.7462715207
0.04  0.34  14.5722944787
0.04  0.36  11.9659933144
0.04  0.38  9.82583739375
0.04  0.4  8.06845515883
0.04  0.42  6.62538631989
0.04  0.44  5.44041492748
0.04  0.46  4.4673794333
0.04  0.48  3.66837442862
0.04  0.5  3.0122740075
0.04  0.52  2.47351923116
0.04  0.54  2.0311224582
0.04  0.56  1.6678497536
0.04  0.58  1.36954952635
0.04  0.6  1.12460124245
0.04  0.62  0.923462737339
0.04  0.64  0.758298492891
0.04  0.66  0.622674398295
0.04  0.68  0.5113071039
0.04  0.7  0.419858203926
0.04  0.72  0.344765230249
0.04  0.74  0.283102873487
0.04  0.76  0.232469025135
0.04  0.78  0.190891201427
0.04  0.8  0.156749703584
0.04  0.82  0.128714521098
0.04  0.84  0.105693520069
0.04  0.86  0.0867898982123
0.04  0.88  0.0712672491823
0.04  0.9  0.0585208752474
0.04  0.92  0.0480542307864
0.04  0.94  0.0394595789402
0.04  0.96  0.0324021078822
0.04  0.98  0.0266068879448
0.06  -1  0.0243388855935
0.06  -0.98  0.0296401141828
0.06  -0.96  0.0360959981259
0.06  -0.94  0.0439580317631
0.06  -0.92  0.0535324871677
0.06  -0.9  0.0651923452307
0.06  -0.88  0.0793918254417
0.06  -0.86  0.096684080388
0.06  -0.84  0.117742744275
0.06  -0.82  0.143388174906
0.06  -0.8  0.174619411409
0.06  -0.78  0.212653092633
0.06  -0.76  0.258970852333
0.06  -0.74  0.315377037444
0.06  -0.72  0.384068997924
0.06  -0.7  0.467722686351
0.06  -0.68  0.569596901883
0.06  -0.66  0.693660239502
0.06  -0.64  0.844745689935
0.06  -0.62  1.02873891284
0.06  -0.6  1.25280751757
0.06  -0.58  1.5256802834
0.06  -0.56  1.85798719636
0.06  -0.54  2.26267354924
0.06  -0.52  2.75550423623
0.06  -0.5  3.35567788753
0.06  -0.48  4.08657476799
0.06  -0.46  4.97666757479
0.06  -0.44  6.06063061516
0.06  -0.42  7.38069057285
0.06  -0.4  8.98827148379
0.06  -0.38  10.9459980024
0.06  -0.36  13.3301349969
0.06  -0.34  16.2335585112
0.06  -0.32  19.7693738285
0.06  -0.3  24.0753215815
0.06  -0.28  29.3191435542
0.06  -0.26  35.7051172023
0.06  -0.24  43.4820134522
0.06  -0.22  52.9527877796
0.06  -0.2  47.1859294091
0.06  -0.18  47.2218279086
0.06  -0.16  47.591875982
0.06  -0.14  48.2498519826
0.06  -0.12  49.1161728223
0.06  -0.1  50.0908426312
0.06  -0.08  51.0673739749
0.06  -0.06  51.9449277616
0.06  -0.04  52.6374658586
0.06  -0.02  53.0799219663
0.06  6.17561557e-16  53.2319567036
0.06  0.02  53.0799219663
0.06  0.04  52.6374658586
0.06  0.06  51.9449277616
0.06  0.08  51.0673739749
0.06  0.1  50.0908426312
0.06  0.12  49.1161728223
0.06  0.14  48.2498519826
0.06  0.16  47.591875982
0.06  0.18  47.2218279086
0.06  0.2  64.4863820924
0.06  0.22  52.9527877796
0.06  0.24  43.4820134522
0.06  0.26  35.7051172023
0.06  0.28  29.3191435542
0.06  0.3  24.0753215815
0.06  0.32  19.7693738285
0.06  0.34  16.2335585112
0.06  0.36  13.3301349969
0.06  0.38  10.9459980024
0.06  0.4  8.98827148379
0.06  0.42  7.38069057285
0.06  0.44  6.06063061516
0.06  0.46  4.97666757479
0.06  0.48  4.08657476799
0.06  0.5  3.35567788753
0.06  0.52  2.75550423623
0.06  0.54  2.26267354924
0.06  0.56  1.85798719636
0.06  0.58  1.5256802834
0.06  0.6  1.25280751757
0.06  0.62  1.02873891284
0.06  0.64  0.844745689935
0.06  0.66  0.693660239502
0.06  0.68  0.569596901883
0.06  0.7  0.467722686351
0.06  0.72  0.384068997924
0.06  0.74  0.315377037444
0.06  0.76  0.258970852333
0.06  0.78  0.212653092633
0.06  0.8  0.174619411409
0.06  0.82  0.143388174906
0.06  0.84  0.117742744275
0.06  0.86  0.096684080388
0.06  0.88  0.0793918254417
0.06  0.9  0.0651923452307
0.06  0.92  0.0535324871677
0.06  0.94  0.0439580317631
0.06  0.96  0.0360959981259
0.06  0.98  0.0296401141828
0.08  -1  0.0263759983264
0.08  -0.98  0.0321209284244
0.08  -0.96  0.039117156063
0.08  -0.94  0.0476372251211
0.08  -0.92  0.0580130419907
0.08  -0.9  0.0706488052665
0.08  -0.88  0.0860367516391
0.08  -0.86  0.104776331386
0.08  -0.84  0.127597560455
0.08  -0.82  0.155389458848
0.08  -0.8  0.189234683132
0.08  -0.78  0.23045170223
0.08  -0.76  0.280646159475
0.08  -0.74  0.341773421789
0.08  -0.72  0.416214752625
0.08  -0.7  0.506870076077
0.08  -0.68  0.617270945831
0.08  -0.66  0.751718119793
0.08  -0.64  0.915449099687
0.08  -0.62  1.11484216231
0.08  -0.6  1.35766483062
0.08  -0.58  1.65337646405
0.08  -0.56  2.01349675578
0.08  -0.54  2.45205449193
0.08  -0.52  2.98613405466
0.08  -0.5  3.63654095852
0.08  -0.48  4.42861234657
0.08  -0.46  5.39320401994
0.08  -0.44  6.5678924513
0.08  -0.42  7.9984386076
0.08  -0.4  9.74057060678
0.08  -0.38  11.862154653
0.08  -0.36  14.4458388211
0.08  -0.34  17.5922726815
0.08  -0.32  21.4240281878
0.08  -0.3  26.0903745696
0.08  -0.28  31.7730932399
0.08  -0.26  38.693559241
0.08  -0.24  47.1213650945
0.08  -0.22  57.3848230021
0.08  -0.2  51.1352909049
0.08  -0.18  51.1741940321
0.08  -0.16  51.5752143387
0.08  -0.14  52.2882615251
0.08  -0.12  53.2270915685
0.08  -0.1  54.2833391583
0.08  -0.08  55.3416040895
0.08  -0.06  56.2926072536
0.08  -0.04  57.04310931
0.08  -0.02  57.5225980487
0.08  6.17561557e-16  57.6873577688
0.08  0.02  57.5225980487
0.08  0.04  57.04310931
0.08  0.06  56.2926072536
0.08  0.08  55.3416040895
0.08  0.1  54.2833391583
0.08  0.12  53.2270915685
0.08  0.14  52.2882615251
0.08  0.16  51.5752143387
0.08  0.18  51.1741940321
0.08  0.2  69.8837545216
0.08  0.22  57.3848230021
0.08  0.24  47.1213650945
0.08  0.26  38.693559241
0.08  0.28  31.7730932399
0.08  0.3  26.0903745696
0.08  0.32  21.4240281878
0.08  0.34  17.5922726815
0.08  0.36  14.4458388211
0.08  0.38  11.862154653
0.08  0.4  9.74057060678
0.08  0.42  7.9984386076
0.08  0.44  6.5678924513
0.08  0.46  5.39320401994
0.08  0.48  4.42861234657
0.08  0.5  3.63654095852
0.08  0.52  2.98613405466
0.08  0.54  2.45205449193
0.08  0.56  2.01349675578
0.08  0.58  1.65337646405
0.08  0.6  1.35766483062
0.08  0.62  1.11484216231
0.08  0.64  0.915449099687
0.08  0.66  0.751718119793
0.08  0.68  0.617270945831
0.08  0.7  0.506870076077
0.08  0.72  0.416214752625
0.08  0.74  0.341773421789
0.08  0.76  0.280646159475
0.08  0.78  0.23045170223
0.08  0.8  0.189234683132
0.08  0.82  0.155389458848
0.08  0.84  0.127597560455
0.08  0.86  0.104776331386
0.08  0.88  0.0860367516391
0.08  0.9  0.0706488052665
0.08  0.92  0.0580130419907
0.08  0.94  0.0476372251211
0.08  0.96  0.039117156063
0.08  0.98  0.0321209284244
0.1  -1  0.027921533402
0.1  -0.98  0.0340030949657
0.1  -0.96  0.0414092754362
0.1  -0.94  0.0504285887472
0.1  -0.92  0.0614123897663
0.1  -0.9  0.0747885616176
0.1  -0.88  0.0910781842251
0.1  -0.86  0.110915833415
0.1  -0.84  0.135074301347
0.1  -0.82  0.164494701276
0.1  -0.8  0.200323129404
0.1  -0.78  0.243955312012
0.1  -0.76  0.297090977144
0.1  -0.74  0.361800068923
0.1  -0.72  0.440603383956
0.1  -0.7  0.536570771067
0.1  -0.68  0.65344071981
0.1  -0.66  0.795765996454
0.1  -0.64  0.969091000782
0.1  -0.62  1.18016775281
0.1  -0.6  1.43721892335
0.1  -0.58  1.750258155
0.1  -0.56  2.13148015198
0.1  -0.54  2.59573573492
0.1  -0.52  3.16111036702
0.1  -0.5  3.84962868835
0.1  -0.48  4.68811250399
0.1  -0.46  5.7092256499
0.1  -0.44  6.95274643979
0.1  -0.42  8.46711726254
0.1  -0.4  10.3113316958
0.1  -0.38  12.5572326501
0.1  -0.36  15.292311069
0.1  -0.34  18.6231142122
0.1  -0.32  22.6793962923
0.1  -0.3  27.619173159
0.1  -0.28  33.6348779373
0.1  -0.26  40.9608574213
0.1  -0.24  49.882501248
0.1  -0.22  60.7473594893
0.1  -0.2  54.1316281323
0.1  -0.18  54.1728108376
0.1  -0.16  54.5973294377
0.1  -0.14  55.3521585283
0.1  -0.12  56.3460005088
0.1  -0.1  57.4641402659
0.1  -0.08  58.584415573
0.1  -0.06  59.5911439737
0.1  -0.04  60.3856226499
0.1  -0.02  60.8932076394
0.1  6.17561557e-16  61.0676216643
0.1  0.02  60.8932076394
0.1  0.04  60.3856226499
0.1  0.06  59.5911439737
0.1  0.08  58.584415573
0.1  0.1  57.4641402659
0.1  0.12  56.3460005088
0.1  0.14  55.3521585283
0.1  0.16  54.5973294377
0.1  0.18  54.1728108376
0.1  0.2  73.978681754
0.1  0.22  60.7473594893
0.1  0.24  49.882501248
0.1  0.26  40.9608574212
0.1  0.28  33.6348779373
0.1  0.3  27.619173159
0.1  0.32  22.6793962923
0.1  0.34  18.6231142122
0.1  0.36  15.292311069
0.1  0.38  12.5572326501
0.1  0.4  10.3113316958
0.1  0.42  8.46711726254
0.1  0.44  6.95274643979
0.1  0.46  5.7092256499
0.1  0.48  4.68811250399
0.1  0.5  3.84962868835
0.1  0.52  3.16111036702
0.1  0.54  2.59573573492
0.1  0.56  2.13148015198
0.1  0.58  1.750258155
0.1  0.6  1.43721892335
0.1  0.62  1.18016775281
0.1  0.64  0.969091000782
0.1  0.66  0.795765996454
0.1  0.68  0.65344071981
0.1  0.7  0.536570771067
0.1  0.72  0.440603383956
0.1  0.74  0.361800068923
0.1  0.76  0.297090977144
0.1  0.78  0.243955312012
0.1  0.8  0.200323129404
0.1  0.82  0.164494701276
0.1  0.84  0.135074301347
0.1  0.86  0.110915833415
0.1  0.88  0.0910781842251
0.1  0.9  0.0747885616176
0.1  0.92  0.0614123897663
0.1  0.94  0.0504285887472
0.1  0.96  0.0414092754362
0.1  0.98  0.0340030949657
0.12  -1  0.028946686204
0.12  -0.98  0.0352515352851
0.12  -0.96  0.0429296373064
0.12  -0.94  0.052280099132
0.12  -0.92  0.0636671757961
0.12  -0.9  0.0775344603617
0.12  -0.88  0.0944221644576
0.12  -0.86  0.114988162673
0.12  -0.84  0.140033620612
0.12  -0.82  0.170534204963
0.12  -0.8  0.207678091413
0.12  -0.78  0.25291225102
0.12  -0.76  0.307998818174
0.12  -0.74  0.375083736015
0.12  -0.72  0.456780353435
0.12  -0.7  0.556271230261
0.12  -0.68  0.67743211653
0.12  -0.66  0.824982935555
0.12  -0.64  1.00467165248
0.12  -0.62  1.22349819105
0.12  -0.6  1.48998712147
0.12  -0.58  1.81451974215
0.12  -0.56  2.20973849183
0.12  -0.54  2.69103944634
0.12  -0.52  3.27717208554
0.12  -0.5  3.99096969493
0.12  -0.48  4.86023885538
0.12  -0.46  5.91884267157
0.12  -0.44  7.20801993755
0.12  -0.42  8.77799162827
0.12  -0.4  10.6899172996
0.12  -0.38  13.0182776096
0.12  -0.36  15.853775775
0.12  -0.34  19.3068709902
0.12  -0.32  23.5120814577
0.12  -0.3  28.6332246562
0.12  -0.28  34.8697989879
0.12  -0.26  42.464755404
0.12  -0.24  51.7139617623
0.12  -0.22  62.9777286061
0.12  -0.2  56.1190974255
0.12  -0.18  56.161792174
0.12  -0.16  56.6018971829
0.12  -0.14  57.384440194
0.12  -0.12  58.4147715706
0.12  -0.1  59.5739643776
0.12  -0.08  60.7353711424
0.12  -0.06  61.7790620704
0.12  -0.04  62.6027104212
0.12  -0.02  63.1289316427
0.12  6.17561557e-16  63.309749364
0.12  0.02  63.1289316427
0.12  0.04  62.6027104212
0.12  0.06  61.7790620704
0.12  0.08  60.7353711424
0.12  0.1  59.5739643776
0.12  0.12  58.4147715706
0.12  0.14  57.384440194
0.12  0.16  56.6018971829
0.12  0.18  56.161792174
0.12  0.2  76.6948453614
0.12  0.22  62.9777286061
0.12  0.24  51.7139617623
0.12  0.26  42.464755404
0.12  0.28  34.8697989879
0.12  0.3  28.6332246562
0.12  0.32  23.5120814577
0.12  0.34  19.3068709902
0.12  0.36  15.853775775
0.12  0.38  13.0182776096
0.12  0.4  10.6899172996
0.12  0.42  8.77799162827
0.12  0.44  7.20801993755
0.12  0.46  5.91884267157
0.12  0.48  4.86023885538
0.12  0.5  3.99096969493
0.12  0.52  3.27717208554
0.12  0.54  2.69103944634
0.12  0.56  2.20973849183
0.12  0.58  1.81451974215
0.12  0.6  1.48998712147
0.12  0.62  1.22349819105
0.12  0.64  1.00467165248
0.12  0.66  0.824982935555
0.12  0.68  0.67743211653
0.12  0.7  0.556271230261
0.12  0.72  0.456780353435
0.12  0.74  0.375083736015
0.12  0.76  0.307998818174
0.12  0.78  0.25291225102
0.12  0.8  0.207678091413
0.12  0.82  0.170534204963
0.12  0.84  0.140033620612
0.12  0.86  0.114988162673
0.12  0.88  0.0944221644576
0.12  0.9  0.0775344603617
0.12  0.92  0.0636671757961
0.12  0.94  0.052280099132
0.12  0.96  0.0429296373064
0.12  0.98  0.0352515352851
0.14  -1  0.0294323506418
0.14  -0.98  0.0358429818136
0.14  -0.96  0.0436499062181
0.14  -0.94  0.0531572491027
0.14  -0.92  0.064735376934
0.14  -0.9  0.0788353253325
0.14  -0.88  0.0960063695406
0.14  -0.86  0.116917421898
0.14  -0.84  0.142383089879
0.14  -0.82  0.173395409807
0.14  -0.8  0.211162492453
0.14  -0.78  0.257155586003
0.14  -0.76  0.313166389751
0.14  -0.74  0.381376851244
0.14  -0.72  0.464444165866
0.14  -0.7  0.565604290095
0.14  -0.68  0.688798000891
0.14  -0.66  0.838824411943
0.14  -0.64  1.02152792715
0.14  -0.62  1.24402591422
0.14  -0.6  1.51498596771
0.14  -0.58  1.84496356236
0.14  -0.56  2.2468132504
0.14  -0.54  2.73618942139
0.14  -0.52  3.33215613198
0.14  -0.5  4.05792976213
0.14  -0.48  4.94178342855
0.14  -0.46  6.01814838755
0.14  -0.44  7.32895533326
0.14  -0.42  8.92526784287
0.14  -0.4  10.8692716007
0.14  -0.38  13.2366968936
0.14  -0.36  16.1197687472
0.14  -0.34  19.6307996285
0.14  -0.32  23.9065646722
0.14  -0.3  29.1136298694
0.14  -0.28  35.4548407852
0.14  -0.26  43.1772245763
0.14  -0.24  52.5816131401
0.14  -0.22  64.034362272
0.14  -0.2  57.0606577033
0.14  -0.18  57.1040687798
0.14  -0.16  57.5515578239
0.14  -0.14  58.3472302588
0.14  -0.12  59.3948484263
0.14  -0.1  60.5734900475
0.14  -0.08  61.7543827721
0.14  -0.06  62.815584636
0.14  -0.04  63.6530520716
0.14  -0.02  64.1881021771
0.14  6.17561557e-16  64.3719536391
0.14  0.02  64.1881021771
0.14  0.04  63.6530520716
0.14  0.06  62.815584636
0.14  0.08  61.7543827721
0.14  0.1  60.5734900475
0.14  0.12  59.3948484263
0.14  0.14  58.3472302588
0.14  0.16  57.5515578239
0.14  0.18  57.1040687798
0.14  0.2  77.9816233605
0.14  0.22  64.034362272
0.14  0.24  52.5816131401
0.14  0.26  43.1772245763
0.14  0.28  35.4548407852
0.14  0.3  29.1136298694
0.14  0.32  23.9065646722
0.14  0.34  19.6307996285
0.14  0.36  16.1197687472
0.14  0.38  13.2366968936
0.14  0.4  10.8692716007
0.14  0.42  8.92526784287
0.14  0.44  7.32895533326
0.14  0.46  6.01814838755
0.14  0.48  4.94178342855
0.14  0.5  4.05792976213
0.14  0.52  3.33215613198
0.14  0.54  2.73618942139
0.14  0.56  2.2468132504
0.14  0.58  1.84496356236
0.14  0.6  1.51498596771
0.14  0.62  1.24402591422
0.14  0.64  1.02152792715
0.14  0.66  0.838824411943
0.14  0.68  0.688798000891
0.14  0.7  0.565604290095
0.14  0.72  0.464444165866
0.14  0.74  0.381376851244
0.14  0.76  0.313166389751
0.14  0.78  0.257155586003
0.14  0.8  0.211162492453
0.14  0.82  0.173395409807
0.14  0.84  0.142383089879
0.14  0.86  0.116917421898
0.14  0.88  0.0960063695406
0.14  0.9  0.0788353253325
0.14  0.92  0.064735376934
0.14  0.94  0.0531572491027
0.14  0.96  0.0436499062181
0.14  0.98  0.0358429818136
0.16  -1  0.0293694752368
0.16  -0.98  0.0357664115788
0.16  -0.96  0.0435566582963
0.16  -0.94  0.0530436909432
0.16  -0.92  0.0645970847842
0.16  -0.9  0.0786669119063
0.16  -0.88  0.0958012741528
0.16  -0.86  0.116667654887
0.16  -0.84  0.142078921362
0.16  -0.82  0.173024990646
0.16  -0.8  0.210711392662
0.16  -0.78  0.256606232612
0.16  -0.76  0.312497382241
0.16  -0.74  0.380562127871
0.16  -0.72  0.463451988401
0.16  -0.7  0.564396007438
0.16  -0.68  0.687326543384
0.16  -0.66  0.837032457733
0.16  -0.64  1.01934566916
0.16  -0.62  1.24136834078
0.16  -0.6  1.51174955084
0.16  -0.58  1.84102222472
0.16  -0.56  2.24201345392
0.16  -0.54  2.73034418598
0.16  -0.52  3.32503775163
0.16  -0.5  4.0492609344
0.16  -0.48  4.93122645203
0.16  -0.46  6.00529200642
0.16  -0.44  7.31329871648
0.16  -0.42  8.90620107387
0.16  -0.4  10.8460519177
0.16  -0.38  13.2084197544
0.16  -0.36  16.0853325922
0.16  -0.34  19.5888629687
0.16  -0.32  23.8554938299
0.16  -0.3  29.0514353375
0.16  -0.28  35.3790997239
0.16  -0.26  43.0849864293
0.16  -0.24  52.4692846937
0.16  -0.22  63.8975676778
0.16  -0.2  56.9387608148
0.16  -0.18  56.9820791536
0.16  -0.16  57.4286122409
0.16  -0.14  58.2225849059
0.16  -0.12  59.2679650795
0.16  -0.1  60.4440888058
0.16  -0.08  61.6224588263
0.16  -0.06  62.6813936781
0.16  -0.04  63.5170720584
0.16  -0.02  64.0509791532
0.16  6.17561557e-16  64.234437859
0.16  0.02  64.0509791532
0.16  0.04  63.5170720584
0.16  0.06  62.6813936781
0.16  0.08  61.6224588263
0.16  0.1  60.4440888058
0.16  0.12  59.2679650795
0.16  0.14  58.2225849059
0.16  0.16  57.4286122409
0.16  0.18  56.9820791536
0.16  0.2  77.8150336711
0.16  0.22  63.8975676778
0.16  0.24  52.4692846937
0.16  0.26  43.0849864293
0.16  0.28  35.3790997239
0.16  0.3  29.0514353375
0.16  0.32  23.8554938299
0.16  0.34  19.5888629687
0.16  0.36  16.0853325922
0.16  0.38  13.2084197544
0.16  0.4  10.8460519177
0.16  0.42  8.90620107387
0.16  0.44  7.31329871648
0.16  0.46  6.00529200642
0.16  0.48  4.93122645203
0.16  0.5  4.0492609344
0.16  0.52  3.32503775163
0.16  0.54  2.73034418598
0.16  0.56  2.24201345392
0.16  0.58  1.84102222472
0.16  0.6  1.51174955084
0.16  0.62  1.24136834078
0.16  0.64  1.01934566916
0.16  0.66  0.837032457733
0.16  0.68  0.687326543384
0.16  0.7  0.564396007438
0.16  0.72  0.463451988401
0.16  0.74  0.380562127871
0.16  0.76  0.312497382241
0.16  0.78  0.256606232612
0.16  0.8  0.210711392662
0.16  0.82  0.173024990646
0.16  0.84  0.142078921362
0.16  0.86  0.116667654887
0.16  0.88  0.0958012741528
0.16  0.9  0.0786669119063
0.16  0.92  0.0645970847842
0.16  0.94  0.0530436909432
0.16  0.96  0.0435566582962
0.16  0.98  0.0357664115788
0.18  -1  0.0287592318173
0.18  -0.98  0.035023251644
0.18  -0.96  0.0426516314313
0.18  -0.94  0.0519415410723
0.18  -0.92  0.0632548767404
0.18  -0.9  0.0770323588565
0.18  -0.88  0.0938107007204
0.18  -0.86  0.114243516625
0.18  -0.84  0.139126783944
0.18  -0.82  0.169429851098
0.18  -0.8  0.206333199325
0.18  -0.78  0.251274429317
0.18  -0.76  0.306004264146
0.18  -0.74  0.372654750148
0.18  -0.72  0.45382231256
0.18  -0.7  0.55266890143
0.18  -0.68  0.67304516802
0.18  -0.66  0.81964047013
0.18  -0.64  0.998165549948
0.18  -0.62  1.21557500076
0.18  -0.6  1.48033818894
0.18  -0.58  1.80276918517
0.18  -0.56  2.19542855767
0.18  -0.54  2.67361267958
0.18  -0.52  3.25594961195
0.18  -0.5  3.96512477538
0.18  -0.48  4.82876467946
0.18  -0.46  5.88051313654
0.18  -0.44  7.16134188442
0.18  -0.42  8.72114667457
0.18  -0.4  10.6206910027
0.18  -0.38  12.9339732015
0.18  -0.36  15.7511091072
0.18  -0.34  19.1818425972
0.18  -0.32  23.359820754
0.18  -0.3  28.4478001994
0.18  -0.28  34.6439874136
0.18  -0.26  42.1897600341
0.18  -0.24  51.379069923
0.18  -0.22  62.5698943067
0.18  -0.2  55.7556785901
0.18  -0.18  55.7980968539
0.18  -0.16  56.2353518089
0.18  -0.14  57.0128271892
0.18  -0.12  58.0364862947
0.18  -0.1  59.1881723434
0.18  -0.08  60.3420580127
0.18  -0.06  61.3789901552
0.18  -0.04  62.1973046831
0.18  -0.02  62.7201181751
0.18  6.17561557e-16  62.8997649481
0.18  0.02  62.7201181751
0.18  0.04  62.1973046831
0.18  0.06  61.3789901552
0.18  0.08  60.3420580127
0.18  0.1  59.1881723434
0.18  0.12  58.0364862947
0.18  0.14  57.0128271892
0.18  0.16  56.2353518089
0.18  0.18  55.7980968539
0.18  0.2  76.1981810767
0.18  0.22  62.5698943067
0.18  0.24  51.379069923
0.18  0.26  42.1897600341
0.18  0.28  34.6439874136
0.18  0.3  28.4478001994
0.18  0.32  23.359820754
0.18  0.34  19.1818425972
0.18  0.36  15.7511091072
0.18  0.38  12.9339732015
0.18  0.4  10.6206910027
0.18  0.42  8.72114667457
0.18  0.44  7.16134188442
0.18  0.46  5.88051313654
0.18  0.48  4.82876467946
0.18  0.5  3.96512477538
0.18  0.52  3.25594961195
0.18  0.54  2.67361267958
0.18  0.56  2.19542855767
0.18  0.58  1.80276918517
0.18  0.6  1.48033818894
0.18  0.62  1.21557500076
0.18  0.64  0.998165549947
0.18  0.66  0.81964047013
0.18  0.68  0.673045168019
0.18  0.7  0.55266890143
0.18  0.72  0.453822312559
0.18  0.74  0.372654750148
0.18  0.76  0.306004264146
0.18  0.78  0.251274429317
0.18  0.8  0.206333199325
0.18  0.82  0.169429851098
0.18  0.84  0.139126783944
0.18  0.86  0.114243516625
0.18  0.88  0.0938107007204
0.18  0.9  0.0770323588565
0.18  0.92  0.0632548767404
0.18  0.94  0.0519415410723
0.18  0.96  0.0426516314313
0.18  0.98  0.035023251644
0.2  -1  0.0276129936792
0.2  -0.98  0.0336273525111
0.2  -0.96  0.0409516928894
0.2  -0.94  0.0498713405986
0.2  -0.92  0.0607337679499
0.2  -0.9  0.0739621298548
0.2  -0.88  0.0900717481777
0.2  -0.86  0.109690186528
0.2  -0.84  0.133581697524
0.2  -0.82  0.162676994891
0.2  -0.8  0.19810951019
0.2  -0.78  0.241259546588
0.2  -0.76  0.293808049719
0.2  -0.74  0.357802090324
0.2  -0.72  0.435734609595
0.2  -0.7  0.53064153378
0.2  -0.68  0.646220041216
0.2  -0.66  0.786972589
0.2  -0.64  0.958382309951
0.2  -0.62  1.16712661262
0.2  -0.6  1.42133730532
0.2  -0.58  1.73091737747
0.2  -0.56  2.10792677882
0.2  -0.54  2.56705222486
0.2  -0.52  3.12617933002
0.2  -0.5  3.80708935674
0.2  -0.48  4.63630772266
0.2  -0.46  5.6461373204
0.2  -0.44  6.87591690366
0.2  -0.42  8.37355356116
0.2  -0.4  10.1973889772
0.2  -0.38  12.4184721807
0.2  -0.36  15.1233273191
0.2  -0.34  18.4173242789
0.2  -0.32  22.4287834573
0.2  -0.3  27.3139745903
0.2  -0.28  33.2632043703
0.2  -0.26  40.5082300024
0.2  -0.24  49.3312874989
0.2  -0.22  60.0760864189
0.2  -0.2  53.5334604995
0.2  -0.18  53.5741881259
0.2  -0.16  53.9940156924
0.2  -0.14  54.7405037383
0.2  -0.12  55.7233635237
0.2  -0.1  56.829147565
0.2  -0.08  57.9370435579
0.2  -0.06  58.9326473654
0.2  -0.04  59.7183468594
0.2  -0.02  60.2203229116
0.2  6.17561557e-16  60.3928096191
0.2  0.02  60.2203229116
0.2  0.04  59.7183468594
0.2  0.06  58.9326473654
0.2  0.08  57.9370435579
0.2  0.1  56.829147565
0.2  0.12  55.7233635237
0.2  0.14  54.7405037383
0.2  0.16  53.9940156924
0.2  0.18  53.5741881259
0.2  0.2  73.1611993603
0.2  0.22  60.0760864189
0.2  0.24  49.3312874989
0.2  0.26  40.5082300024
0.2  0.28  33.2632043703
0.2  0.3  27.3139745903
0.2  0.32  22.4287834573
0.2  0.34  18.4173242789
0.2  0.36  15.1233273191
0.2  0.38  12.4184721807
0.2  0.4  10.1973889772
0.2  0.42  8.37355356116
0.2  0.44  6.87591690366
0.2  0.46  5.6461373204
0.2  0.48  4.63630772266
0.2  0.5  3.80708935674
0.2  0.52  3.12617933002
0.2  0.54  2.56705222486
0.2  0.56  2.10792677882
0.2  0.58  1.73091737747
0.2  0.6  1.42133730532
0.2  0.62  1.16712661262
0.2  0.64  0.958382309951
0.2  0.66  0.786972589
0.2  0.68  0.646220041216
0.2  0.7  0.53064153378
0.2  0.72  0.435734609595
0.2  0.74  0.357802090324
0.2  0.76  0.293808049719
0.2  0.78  0.241259546588
0.2  0.8  0.19810951019
0.2  0.82  0.162676994891
0.2  0.84  0.133581697524
0.2  0.86  0.109690186528
0.2  0.88  0.0900717481777
0.2  0.9  0.0739621298548
0.2  0.92  0.0607337679499
0.2  0.94  0.0498713405986
0.2  0.96  0.0409516928894
0.2  0.98  0.0336273525111
0.22  -1  0.0259521236179
0.22  -0.98  0.0316047299851
0.22  -0.96  0.0384885249523
0.22  -0.94  0.0468716724902
0.22  -0.92  0.0570807450988
0.22  -0.9  0.069513445711
0.22  -0.88  0.0846541005422
0.22  -0.86  0.103092526421
0.22  -0.84  0.125547007598
0.22  -0.82  0.152892277102
0.22  -0.8  0.1861935927
0.22  -0.78  0.2267482349
0.22  -0.76  0.27613604359
0.22  -0.74  0.336280962026
0.22  -0.72  0.409525985636
0.22  -0.7  0.498724435367
0.22  -0.68  0.607351111178
0.22  -0.66  0.739637655769
0.22  -0.64  0.900737401748
0.22  -0.62  1.096926124
0.22  -0.6  1.33584651773
0.22  -0.58  1.62680592602
0.22  -0.56  1.98113891515
0.22  -0.54  2.41264882204
0.22  -0.52  2.93814547481
0.22  -0.5  3.57810003357
0.22  -0.48  4.35744246158
0.22  -0.46  5.30653269273
0.22  -0.44  6.46234332805
0.22  -0.42  7.86989993426
0.22  -0.4  9.58403505218
0.22  -0.38  11.6715242441
0.22  -0.36  14.2136873915
0.22  -0.34  17.3095565787
0.22  -0.32  21.0797339704
0.22  -0.3  25.6710899694
0.22  -0.28  31.2624846757
0.22  -0.26  38.0717355307
0.22  -0.24  46.3641025771
0.22  -0.22  56.4626218851
0.22  -0.2  50.3135227103
0.22  -0.18  50.351800646
0.22  -0.16  50.7463763675
0.22  -0.14  51.4479645499
0.22  -0.12  52.3717071526
0.22  -0.1  53.4109803465
0.22  -0.08  54.4522384621
0.22  -0.06  55.3879585578
0.22  -0.04  56.1263996928
0.22  -0.02  56.5981828218
0.22  6.17561557e-16  56.7602947756
0.22  0.02  56.5981828218
0.22  0.04  56.1263996928
0.22  0.06  55.3879585578
0.22  0.08  54.4522384621
0.22  0.1  53.4109803465
0.22  0.12  52.3717071526
0.22  0.14  51.4479645499
0.22  0.16  50.7463763675
0.22  0.18  50.351800646
0.22  0.2  68.7606896917
0.22  0.22  56.4626218851
0.22  0.24  46.3641025771
0.22  0.26  38.0717355307
0.22  0.28  31.2624846757
0.22  0.3  25.6710899694
0.22  0.32  21.0797339704
0.22  0.34  17.3095565787
0.22  0.36  14.2136873915
0.22  0.38  11.6715242441
0.22  0.4  9.58403505218
0.22  0.42  7.86989993426
0.22  0.44  6.46234332805
0.22  0.46  5.30653269273
0.22  0.48  4.35744246158
0.22  0.5  3.57810003357
0.22  0.52  2.93814547481
0.22  0.54  2.41264882204
0.22  0.56  1.98113891515
0.22  0.58  1.62680592602
0.22  0.6  1.33584651773
0.22  0.62  1.096926124
0.22  0.64  0.900737401747
0.22  0.66  0.739637655769
0.22  0.68  0.607351111178
0.22  0.7  0.498724435367
0.22  0.72  0.409525985636
0.22  0.74  0.336280962026
0.22  0.76  0.27613604359
0.22  0.78  0.2267482349
0.22  0.8  0.1861935927
0.22  0.82  0.152892277102
0.22  0.84  0.125547007598
0.22  0.86  0.103092526421
0.22  0.88  0.0846541005422
0.22  0.9  0.069513445711
0.22  0.92  0.0570807450988
0.22  0.94  0.0468716724902
0.22  0.96  0.0384885249523
0.22  0.98  0.0316047299851
0.24  -1  0.0238075757837
0.24  -0.98  0.028993080309
0.24  -0.96  0.0353080344443
0.24  -0.94  0.0429984424916
0.24  -0.92  0.0523638907065
0.24  -0.9  0.0637692179305
0.24  -0.88  0.0776587281924
0.24  -0.86  0.0945734989416
0.24  -0.84  0.115172459172
0.24  -0.82  0.140258058548
0.24  -0.8  0.170807527504
0.24  -0.78  0.208010946066
0.24  -0.76  0.253317604415
0.24  -0.74  0.308492461191
0.24  -0.72  0.37568489893
0.24  -0.7  0.45751245505
0.24  -0.68  0.557162790204
0.24  -0.66  0.678517866262
0.24  -0.64  0.826305171362
0.24  -0.62  1.00628188316
0.24  -0.6  1.22545914448
0.24  -0.58  1.49237518822
0.24  -0.56  1.81742795136
0.24  -0.54  2.21328013522
0.24  -0.52  2.69535249157
0.24  -0.5  3.28242455088
0.24  -0.48  3.99736619456
0.24  -0.46  4.86802857025
0.24  -0.44  5.92832905653
0.24  -0.42  7.21957254263
0.24  -0.4  8.79206049484
0.24  -0.38  10.707050492
0.24  -0.36  13.0391425658
0.24  -0.34  15.8791853066
0.24  -0.32  19.3378149468
0.24  -0.3  23.5497652868
0.24  -0.28  28.6791163629
0.24  -0.26  34.9256863218
0.24  -0.24  42.5328155028
0.24  -0.22  51.796845964
0.24  -0.2  46.1558762013
0.24  -0.18  46.1909910485
0.24  -0.16  46.552961095
0.24  -0.14  47.1965736975
0.24  -0.12  48.0439830402
0.24  -0.1  48.9973761301
0.24  -0.08  49.9525901181
0.24  -0.06  50.8109871963
0.24  -0.04  51.4884074161
0.24  -0.02  51.9212048535
0.24  6.17561557e-16  52.0699207229
0.24  0.02  51.9212048535
0.24  0.04  51.4884074161
0.24  0.06  50.8109871963
0.24  0.08  49.9525901181
0.24  0.1  48.9973761301
0.24  0.12  48.0439830402
0.24  0.14  47.1965736975
0.24  0.16  46.552961095
0.24  0.18  46.1909910485
0.24  0.2  63.0786657337
0.24  0.22  51.796845964
0.24  0.24  42.5328155028
0.24  0.26  34.9256863218
0.24  0.28  28.6791163629
0.24  0.3  23.5497652868
0.24  0.32  19.3378149468
0.24  0.34  15.8791853066
0.24  0.36  13.0391425658
0.24  0.38  10.707050492
0.24  0.4  8.79206049484
0.24  0.42  7.21957254263
0.24  0.44  5.92832905653
0.24  0.46  4.86802857025
0.24  0.48  3.99736619456
0.24  0.5  3.28242455088
0.24  0.52  2.69535249157
0.24  0.54  2.21328013522
0.24  0.56  1.81742795136
0.24  0.58  1.49237518822
0.24  0.6  1.22545914448
0.24  0.62  1.00628188316
0.24  0.64  0.826305171362
0.24  0.66  0.678517866262
0.24  0.68  0.557162790204
0.24  0.7  0.45751245505
0.24  0.72  0.37568489893
0.24  0.74  0.308492461191
0.24  0.76  0.253317604415
0.24  0.78  0.208010946066
0.24  0.8  0.170807527504
0.24  0.82  0.140258058548
0.24  0.84  0.115172459172
0.24  0.86  0.0945734989416
0.24  0.88  0.0776587281924
0.24  0.9  0.0637692179305
0.24  0.92  0.0523638907065
0.24  0.94  0.0429984424916
0.24  0.96  0.0353080344443
0.24  0.98  0.028993080309
0.26  -1  0.0212193187793
0.26  -0.98  0.0258410776074
0.26  -0.96  0.031469497153
0.26  -0.94  0.0383238371908
0.26  -0.92  0.0466711142504
0.26  -0.9  0.0568365034672
0.26  -0.88  0.0692160060513
0.26  -0.86  0.0842918758444
0.26  -0.84  0.102651405921
0.26  -0.82  0.125009807077
0.26  -0.8  0.152238069467
0.26  -0.78  0.185396892748
0.26  -0.76  0.225778006519
0.26  -0.74  0.274954490726
0.26  -0.72  0.334842056302
0.26  -0.7  0.40777367328
0.26  -0.68  0.496590453591
0.26  -0.66  0.604752328943
0.26  -0.64  0.736472835346
0.26  -0.62  0.896883254919
0.26  -0.6  1.09223250926
0.26  -0.58  1.33013059141
0.26  -0.56  1.61984501945
0.26  -0.54  1.9726618604
0.26  -0.52  2.40232538839
0.26  -0.5  2.92557350429
0.26  -0.48  3.56278977459
0.26  -0.46  4.33879749024
0.26  -0.44  5.28382667862
0.26  -0.42  6.43469173949
0.26  -0.4  7.83622558054
0.26  -0.38  9.5430261208
0.26  -0.36  11.621583198
0.26  -0.34  14.1528687355
0.26  -0.32  17.2354910714
0.26  -0.3  20.9895363282
0.26  -0.28  25.5612464681
0.26  -0.26  31.1287162701
0.26  -0.24  37.908831161
0.26  -0.22  46.1657161677
0.26  -0.2  41.1380083194
0.26  -0.18  41.1693056317
0.26  -0.16  41.4919238553
0.26  -0.14  42.0655656702
0.26  -0.12  42.8208483224
0.26  -0.1  43.6705926256
0.26  -0.08  44.5219598668
0.26  -0.06  45.2870357153
0.26  -0.04  45.8908097291
0.26  -0.02  46.2765552949
0.26  6.17561557e-16  46.4091034161
0.26  0.02  46.2765552949
0.26  0.04  45.8908097291
0.26  0.06  45.2870357153
0.26  0.08  44.5219598668
0.26  0.1  43.6705926256
0.26  0.12  42.8208483224
0.26  0.14  42.0655656702
0.26  0.16  41.4919238553
0.26  0.18  41.1693056317
0.26  0.2  56.2210251282
0.26  0.22  46.1657161677
0.26  0.24  37.9088311609
0.26  0.26  31.1287162701
0.26  0.28  25.5612464681
0.26  0.3  20.9895363282
0.26  0.32  17.2354910714
0.26  0.34  14.1528687355
0.26  0.36  11.6215831979
0.26  0.38  9.5430261208
0.26  0.4  7.83622558054
0.26  0.42  6.43469173949
0.26  0.44  5.28382667862
0.26  0.46  4.33879749024
0.26  0.48  3.56278977459
0.26  0.5  2.92557350429
0.26  0.52  2.40232538839
0.26  0.54  1.9726618604
0.26  0.56  1.61984501945
0.26  0.58  1.33013059141
0.26  0.6  1.09223250926
0.26  0.62  0.896883254919
0.26  0.64  0.736472835346
0.26  0.66  0.604752328943
0.26  0.68  0.496590453591
0.26  0.7  0.40777367328
0.26  0.72  0.334842056302
0.26  0.74  0.274954490726
0.26  0.76  0.225778006519
0.26  0.78  0.185396892748
0.26  0.8  0.152238069467
0.26  0.82  0.125009807077
0.26  0.84  0.102651405921
0.26  0.86  0.0842918758444
0.26  0.88  0.0692160060512
0.26  0.9  0.0568365034672
0.26  0.92  0.0466711142504
0.26  0.94  0.0383238371908
0.26  0.96  0.031469497153
0.26  0.98  0.0258410776074
0.28  -1  0.0182355907529
0.28  -0.98  0.0222074667318
0.28  -0.96  0.0270444530878
0.28  -0.94  0.0329349786561
0.28  -0.92  0.0401085137701
0.28  -0.9  0.0488445094696
0.28  -0.88  0.0594832837486
0.28  -0.86  0.0724392789269
0.28  -0.84  0.088217206596
0.28  -0.82  0.107431709079
0.28  -0.8  0.130831303337
0.28  -0.78  0.159327540068
0.28  -0.76  0.194030513925
0.28  -0.74  0.236292108183
0.28  -0.72  0.28775865847
0.28  -0.7  0.350435087152
0.28  -0.68  0.426763006752
0.28  -0.66  0.519715834997
0.28  -0.64  0.632914626792
0.28  -0.62  0.770769135425
0.28  -0.6  0.938649598185
0.28  -0.58  1.14309593843
0.28  -0.56  1.39207253376
0.28  -0.54  1.69527847497
0.28  -0.52  2.06452540224
0.28  -0.5  2.51419763738
0.28  -0.48  3.06181253714
0.28  -0.46  3.72870289639
0.28  -0.44  4.54084798493
0.28  -0.42  5.52988559165
0.28  -0.4  6.7343445009
0.28  -0.38  8.20114541344
0.28  -0.36  9.98742878142
0.28  -0.34  12.1627807624
0.28  -0.32  14.8119440059
0.28  -0.3  18.0381188744
0.28  -0.28  21.9669836989
0.28  -0.26  26.7515906834
0.28  -0.24  32.5783281811
0.28  -0.22  39.6741816081
0.28  -0.2  35.3534386238
0.28  -0.18  35.3803351036
0.28  -0.16  35.6575887683
0.28  -0.14  36.1505686554
0.28  -0.12  36.7996481801
0.28  -0.1  37.5299067487
0.28  -0.08  38.2615600478
0.28  -0.06  38.9190557108
0.28  -0.04  39.4379307952
0.28  -0.02  39.7694352297
0.28  6.17561557e-16  39.8833452623
0.28  0.02  39.7694352297
0.28  0.04  39.4379307952
0.28  0.06  38.9190557108
0.28  0.08  38.2615600478
0.28  0.1  37.5299067487
0.28  0.12  36.7996481801
0.28  0.14  36.1505686554
0.28  0.16  35.6575887683
0.28  0.18  35.3803351036
0.28  0.2  48.315575849
0.28  0.22  39.6741816081
0.28  0.24  32.5783281811
0.28  0.26  26.7515906834
0.28  0.28  21.9669836989
0.28  0.3  18.0381188744
0.28  0.32  14.8119440059
0.28  0.34  12.1627807624
0.28  0.36  9.98742878142
0.28  0.38  8.20114541343
0.28  0.4  6.7343445009
0.28  0.42  5.52988559165
0.28  0.44  4.54084798493
0.28  0.46  3.72870289639
0.28  0.48  3.06181253714
0.28  0.5  2.51419763738
0.28  0.52  2.06452540224
0.28  0.54  1.69527847497
0.28  0.56  1.39207253376
0.28  0.58  1.14309593843
0.28  0.6  0.938649598185
0.28  0.62  0.770769135425
0.28  0.64  0.632914626792
0.28  0.66  0.519715834997
0.28  0.68  0.426763006752
0.28  0.7  0.350435087152
0.28  0.72  0.28775865847
0.28  0.74  0.236292108183
0.28  0.76  0.194030513925
0.28  0.78  0.159327540068
0.28  0.8  0.130831303337
0.28  0.82  0.107431709079
0.28  0.84  0.088217206596
0.28  0.86  0.0724392789269
0.28  0.88  0.0594832837486
0.28  0.9  0.0488445094696
0.28  0.92  0.0401085137701
0.28  0.94  0.0329349786561
0.28  0.96  0.0270444530878
0.28  0.98  0.0222074667318
0.3  -1  0.0149120003687
0.3  -0.98  0.0181599684145
0.3  -0.96  0.0221153731667
0.3  -0.94  0.0269323007144
0.3  -0.92  0.0327983984852
0.3  -0.9  0.0399421852073
0.3  -0.88  0.0486419530471
0.3  -0.86  0.0592366087121
0.3  -0.84  0.0721388758449
0.3  -0.82  0.0878513730158
0.3  -0.8  0.106986193649
0.3  -0.78  0.130288750632
0.3  -0.76  0.158666814494
0.3  -0.74  0.193225876369
0.3  -0.72  0.235312213316
0.3  -0.7  0.286565333672
0.3  -0.68  0.348981845461
0.3  -0.66  0.424993235925
0.3  -0.64  0.517560592138
0.3  -0.62  0.630289952618
0.3  -0.6  0.767572783566
0.3  -0.58  0.934757052091
0.3  -0.56  1.13835556072
0.3  -0.54  1.38629965907
0.3  -0.52  1.68824821616
0.3  -0.5  2.05596388971
0.3  -0.48  2.50377135028
0.3  -0.46  3.04911531077
0.3  -0.44  3.7132400997
0.3  -0.42  4.5220172518
0.3  -0.4  5.50695335516
0.3  -0.38  6.70641741667
0.3  -0.36  8.16713555863
0.3  -0.34  9.94601127379
0.3  -0.32  12.1123421484
0.3  -0.3  14.7505194073
0.3  -0.28  17.9633154447
0.3  -0.26  21.8758874082
0.3  -0.24  26.6406527998
0.3  -0.22  32.4432270269
0.3  -0.2  28.909975933
0.3  -0.18  28.9319703023
0.3  -0.16  29.1586921457
0.3  -0.14  29.5618222859
0.3  -0.12  30.0926015869
0.3  -0.1  30.6897643655
0.3  -0.08  31.2880676732
0.3  -0.06  31.8257292002
0.3  -0.04  32.2500349194
0.3  -0.02  32.5211198717
0.3  6.17561557e-16  32.6142688391
0.3  0.02  32.5211198717
0.3  0.04  32.2500349194
0.3  0.06  31.8257292002
0.3  0.08  31.2880676732
0.3  0.1  30.6897643655
0.3  0.12  30.0926015869
0.3  0.14  29.5618222859
0.3  0.16  29.1586921457
0.3  0.18  28.9319703023
0.3  0.2  39.5096542051
0.3  0.22  32.4432270269
0.3  0.24  26.6406527998
0.3  0.26  21.8758874082
0.3  0.28  17.9633154447
0.3  0.3  14.7505194073
0.3  0.32  12.1123421484
0.3  0.34  9.94601127379
0.3  0.36  8.16713555863
0.3  0.38  6.70641741667
0.3  0.4  5.50695335516
0.3  0.42  4.5220172518
0.3  0.44  3.7132400997
0.3  0.46  3.04911531077
0.3  0.48  2.50377135028
0.3  0.5  2.05596388971
0.3  0.52  1.68824821616
0.3  0.54  1.38629965907
0.3  0.56  1.13835556072
0.3  0.58  0.934757052091
0.3  0.6  0.767572783566
0.3  0.62  0.630289952618
0.3  0.64  0.517560592138
0.3  0.66  0.424993235925
0.3  0.68  0.348981845461
0.3  0.7  0.286565333672
0.3  0.72  0.235312213316
0.3  0.74  0.193225876369
0.3  0.76  0.158666814494
0.3  0.78  0.130288750632
0.3  0.8  0.106986193649
0.3  0.82  0.0878513730158
0.3  0.84  0.0721388758449
0.3  0.86  0.0592366087121
0.3  0.88  0.0486419530471
0.3  0.9  0.0399421852073
0.3  0.92  0.0327983984852
0.3  0.94  0.0269323007144
0.3  0.96  0.0221153731667
0.3  0.98  0.0181599684145
0.32  -1  0.0118135055718
0.32  -0.98  0.0143865935317
0.32  -0.96  0.0175201232343
0.32  -0.94  0.0213361639409
0.32  -0.92  0.025983372698
0.32  -0.9  0.0316427853965
0.32  -0.88  0.0385348691752
0.32  -0.86  0.0469281109025
0.32  -0.84  0.0571494763057
0.32  -0.82  0.0695971471941
0.32  -0.8  0.0847560329625
0.32  -0.78  0.103216660641
0.32  -0.76  0.125698179369
0.32  -0.74  0.153076375447
0.32  -0.72  0.186417789324
0.32  -0.7  0.227021263569
0.32  -0.68  0.276468540363
0.32  -0.66  0.336685879592
0.32  -0.64  0.410019097896
0.32  -0.62  0.499324951922
0.32  -0.6  0.608082425649
0.32  -0.58  0.740528257121
0.32  -0.56  0.901821984099
0.32  -0.54  1.09824693816
0.32  -0.52  1.33745501712
0.32  -0.5  1.62876477107
0.32  -0.48  1.98352441429
0.32  -0.46  2.4155539044
0.32  -0.44  2.94168331028
0.32  -0.42  3.58240844148
0.32  -0.4  4.36268927956
0.32  -0.38  5.31292231494
0.32  -0.36  6.47012466755
0.32  -0.34  7.87937611962
0.32  -0.32  9.59557523609
0.32  -0.3  11.6855779841
0.32  -0.28  14.2308021626
0.32  -0.26  17.3303991012
0.32  -0.24  21.1051161821
0.32  -0.22  25.7020006555
0.32  -0.2  22.9029072776
0.32  -0.18  22.9203315398
0.32  -0.16  23.0999439119
0.32  -0.14  23.4193095262
0.32  -0.12  23.8398006793
0.32  -0.1  24.3128817977
0.32  -0.08  24.78686646
0.32  -0.06  25.2128098135
0.32  -0.04  25.5489510323
0.32  -0.02  25.7637085105
0.32  6.17561557e-16  25.8375024897
0.32  0.02  25.7637085105
0.32  0.04  25.5489510323
0.32  0.06  25.2128098135
0.32  0.08  24.78686646
0.32  0.1  24.3128817977
0.32  0.12  23.8398006793
0.32  0.14  23.4193095262
0.32  0.16  23.0999439119
0.32  0.18  22.9203315398
0.32  0.2  31.3001279878
0.32  0.22  25.7020006555
0.32  0.24  21.1051161821
0.32  0.26  17.3303991012
0.32  0.28  14.2308021626
0.32  0.3  11.6855779841
0.32  0.32  9.59557523609
0.32  0.34  7.87937611962
0.32  0.36  6.47012466755
0.32  0.38  5.31292231494
0.32  0.4  4.36268927956
0.32  0.42  3.58240844148
0.32  0.44  2.94168331028
0.32  0.46  2.4155539044
0.32  0.48  1.98352441429
0.32  0.5  1.62876477107
0.32  0.52  1.33745501712
0.32  0.54  1.09824693816
0.32  0.56  0.901821984099
0.32  0.58  0.740528257121
0.32  0.6  0.608082425649
0.32  0.62  0.499324951921
0.32  0.64  0.410019097896
0.32  0.66  0.336685879592
0.32  0.68  0.276468540363
0.32  0.7  0.227021263569
0.32  0.72  0.186417789324
0.32  0.74  0.153076375447
0.32  0.76  0.125698179369
0.32  0.78  0.103216660641
0.32  0.8  0.0847560329625
0.32  0.82  0.0695971471941
0.32  0.84  0.0571494763057
0.32  0.86  0.0469281109024
0.32  0.88  0.0385348691752
0.32  0.9  0.0316427853965
0.32  0.92  0.025983372698
0.32  0.94  0.0213361639409
0.32  0.96  0.0175201232343
0.32  0.98  0.0143865935317
0.34  -1  0.00935883251379
0.34  -0.98  0.0113972705637
0.34  -0.96  0.0138796987882
0.34  -0.94  0.0169028222482
0.34  -0.92  0.0205844092379
0.34  -0.9  0.025067879047
0.34  -0.88  0.0305278889792
0.34  -0.86  0.0371771382723
0.34  -0.84  0.045274653975
0.34  -0.82  0.0551358815609
0.34  -0.8  0.0671449733702
0.34  -0.78  0.0817697535843
0.34  -0.76  0.0995799427065
0.34  -0.74  0.121269351499
0.34  -0.72  0.147682908961
0.34  -0.7  0.179849577239
0.34  -0.68  0.219022435708
0.34  -0.66  0.266727495721
0.34  -0.64  0.324823147654
0.34  -0.62  0.395572556052
0.34  -0.6  0.481731823092
0.34  -0.58  0.586657354837
0.34  -0.56  0.714436612834
0.34  -0.54  0.870047344586
0.34  -0.52  1.05955149585
0.34  -0.5  1.29033135881
0.34  -0.48  1.57137715537
0.34  -0.46  1.9136372588
0.34  -0.44  2.33044469672
0.34  -0.42  2.83803655028
0.34  -0.4  3.45618648324
0.34  -0.38  4.20897504148
0.34  -0.36  5.12572773076
0.34  -0.34  6.24215741621
0.34  -0.32  7.60175554682
0.34  -0.3  9.25748640102
