0.18  -0.48  14.2443458637
0.18  -0.46  16.4210133469
0.18  -0.44  18.930295706
0.18  -0.42  21.8230195632
0.18  -0.4  25.1577783175
0.18  -0.38  29.0021189799
0.18  -0.36  33.4339103679
0.18  -0.34  38.542920373
0.18  -0.32  44.4326342486
0.18  -0.3  51.2223507499
0.18  -0.28  59.0495985825
0.18  -0.26  68.0729221074
0.18  -0.24  78.4750927268
0.18  -0.22  90.4668109996
0.18  -0.2  78.4354313792
0.18  -0.18  78.6319763006
0.18  -0.16  77.8386856466
0.18  -0.14  76.1167461389
0.18  -0.12  73.6045500459
0.18  -0.1  70.5192428392
0.18  -0.08  67.1564840685
0.18  -0.06  63.8828585775
0.18  -0.04  61.1105761461
0.18  -0.02  59.241769257
0.18  6.17561557e-16  58.5805587949
0.18  0.02  59.241769257
0.18  0.04  61.1105761461
0.18  0.06  63.8828585775
0.18  0.08  67.1564840685
0.18  0.1  70.5192428392
0.18  0.12  73.6045500459
0.18  0.14  76.1167461389
0.18  0.16  77.8386856466
0.18  0.18  78.6319763006
0.18  0.2  104.290974474
0.18  0.22  90.4668109996
0.18  0.24  78.4750927268
0.18  0.26  68.0729221074
0.18  0.28  59.0495985825
0.18  0.3  51.2223507499
0.18  0.32  44.4326342486
0.18  0.34  38.542920373
0.18  0.36  33.4339103679
0.18  0.38  29.0021189799
0.18  0.4  25.1577783175
0.18  0.42  21.8230195632
0.18  0.44  18.930295706
0.18  0.46  16.4210133469
0.18  0.48  14.2443458637
0.18  0.5  12.3562038955
0.18  0.52  10.718342293
0.18  0.54  9.2975854463
0.18  0.56  8.06515529808
0.18  0.58  6.99608843155
0.18  0.6  6.06873042527
0.18  0.62  5.26429723337
0.18  0.64  4.56649470635
0.18  0.66  3.96118854592
0.18  0.68  3.43611800852
0.18  0.7  2.98064755859
0.18  0.72  2.58555144104
0.18  0.74  2.24282680956
0.18  0.76  1.94553162542
0.18  0.78  1.68764404339
0.18  0.8  1.46394043662
0.18  0.82  1.2698895898
0.18  0.84  1.10156091732
0.18  0.86  0.95554484762
0.18  0.88  0.828883760719
0.18  0.9  0.71901208038
0.18  0.92  0.623704307205
0.18  0.94  0.541029940165
0.18  0.96  0.469314373451
0.18  0.98  0.407104976595
0.2  -1  0.340329134037
0.2  -0.98  0.392334565997
0.2  -0.96  0.452286907825
0.2  -0.94  0.521400520675
0.2  -0.92  0.601075331293
0.2  -0.9  0.692925188147
0.2  -0.88  0.798810550644
0.2  -0.86  0.920876173555
0.2  -0.84  1.06159454997
0.2  -0.82  1.22381599273
0.2  -0.8  1.4108263688
0.2  -0.78  1.6264136559
0.2  -0.76  1.87494466974
0.2  -0.74  2.16145351574
0.2  -0.72  2.49174355707
0.2  -0.7  2.87250496437
0.2  -0.68  3.31145022806
0.2  -0.66  3.81747037827
0.2  -0.64  4.40081507657
0.2  -0.62  5.0733002274
0.2  -0.6  5.84854731442
0.2  -0.58  6.74225930969
0.2  -0.56  7.77253874428
0.2  -0.54  8.96025438305
0.2  -0.52  10.3294639307
0.2  -0.5  11.9079013312
0.2  -0.48  13.727538531
0.2  -0.46  15.825233085
0.2  -0.44  18.2434747228
0.2  -0.42  21.0312459963
0.2  -0.4  24.2450144437
0.2  -0.38  27.9498763639
0.2  -0.36  32.220875371
0.2  -0.34  37.1445224357
0.2  -0.32  42.8205482032
0.2  -0.3  49.3639230817
0.2  -0.28  56.9071860186
0.2  -0.26  65.6031291353
0.2  -0.24  75.6278925993
0.2  -0.22  87.184532421
0.2  -0.2  75.589670228
0.2  -0.18  75.7790841896
0.2  -0.16  75.0145753716
0.2  -0.14  73.355110545
0.2  -0.12  70.9340608882
0.2  -0.1  67.9606934928
0.2  -0.08  64.7199409137
0.2  -0.06  61.5650877184
0.2  -0.04  58.8933880658
0.2  -0.02  57.092384438
0.2  6.17561557e-16  56.4551637342
0.2  0.02  57.092384438
0.2  0.04  58.8933880658
0.2  0.06  61.5650877184
0.2  0.08  64.7199409137
0.2  0.1  67.9606934928
0.2  0.12  70.9340608882
0.2  0.14  73.355110545
0.2  0.16  75.0145753716
0.2  0.18  75.7790841896
0.2  0.2  100.507133443
0.2  0.22  87.184532421
0.2  0.24  75.6278925993
0.2  0.26  65.6031291353
0.2  0.28  56.9071860186
0.2  0.3  49.3639230817
0.2  0.32  42.8205482032
0.2  0.34  37.1445224357
0.2  0.36  32.220875371
0.2  0.38  27.9498763639
0.2  0.4  24.2450144437
0.2  0.42  21.0312459963
0.2  0.44  18.2434747228
0.2  0.46  15.825233085
0.2  0.48  13.727538531
0.2  0.5  11.9079013312
0.2  0.52  10.3294639307
0.2  0.54  8.96025438305
0.2  0.56  7.77253874428
0.2  0.58  6.74225930969
0.2  0.6  5.84854731442
0.2  0.62  5.0733002274
0.2  0.64  4.40081507657
0.2  0.66  3.81747037827
0.2  0.68  3.31145022806
0.2  0.7  2.87250496437
0.2  0.72  2.49174355707
0.2  0.74  2.16145351574
0.2  0.76  1.87494466974
0.2  0.78  1.6264136559
0.2  0.8  1.4108263688
0.2  0.82  1.22381599273
0.2  0.84  1.06159454997
0.2  0.86  0.920876173555
0.2  0.88  0.798810550644
0.2  0.9  0.692925188147
0.2  0.92  0.601075331293
0.2  0.94  0.521400520675
0.2  0.96  0.452286907825
0.2  0.98  0.392334565997
0.22  -1  0.321794219613
0.22  -0.98  0.370967345624
0.22  -0.96  0.427654579019
0.22  -0.94  0.493004144741
0.22  -0.92  0.568339727098
0.22  -0.9  0.655187281573
0.22  -0.88  0.755305943732
0.22  -0.86  0.870723661281
0.22  -0.84  1.00377827105
0.22  -0.82  1.15716485292
0.22  -0.8  1.33399031981
0.22  -0.78  1.53783634966
0.22  -0.76  1.77283193378
0.22  -0.74  2.04373701151
0.22  -0.72  2.35603888481
0.22  -0.7  2.71606336601
0.22  -0.68  3.13110290996
0.22  -0.66  3.60956432586
0.22  -0.64  4.16113906097
0.22  -0.62  4.79699950508
0.22  -0.6  5.53002529225
0.22  -0.58  6.37506418347
0.22  -0.56  7.3492328146
0.22  -0.54  8.47226340139
0.22  -0.52  9.76690342426
0.22  -0.5  11.2593763885
0.22  -0.48  12.979912993
0.22  -0.46  14.9633634664
0.22  -0.44  17.2499034738
0.22  -0.42  19.8858478926
0.22  -0.4  22.9245889409
0.22  -0.38  26.4276776605
0.22  -0.36  30.4660706601
0.22  -0.34  35.121567373
0.22  -0.32  40.4884669408
0.22  -0.3  46.6754782839
0.22  -0.28  53.8079220489
0.22  -0.26  62.0302690336
0.22  -0.24  71.5090665066
0.22  -0.22  82.4363116961
0.22  -0.2  71.4729257918
0.22  -0.18  71.6520239409
0.22  -0.16  70.9291515979
0.22  -0.14  69.3600641016
0.22  -0.12  67.0708690048
0.22  -0.1  64.2594363505
0.22  -0.08  61.1951807731
0.22  -0.06  58.2121463501
0.22  -0.04  55.6859520905
0.22  -0.02  53.9830342414
0.22  6.17561557e-16  53.3805176815
0.22  0.02  53.9830342414
0.22  0.04  55.6859520905
0.22  0.06  58.2121463501
0.22  0.08  61.1951807731
0.22  0.1  64.2594363505
0.22  0.12  67.0708690048
0.22  0.14  69.3600641016
0.22  0.16  70.9291515979
0.22  0.18  71.6520239409
0.22  0.2  95.0333407783
0.22  0.22  82.4363116961
0.22  0.24  71.5090665066
0.22  0.26  62.0302690336
0.22  0.28  53.8079220489
0.22  0.3  46.6754782839
0.22  0.32  40.4884669408
0.22  0.34  35.121567373
0.22  0.36  30.4660706601
0.22  0.38  26.4276776605
0.22  0.4  22.9245889409
0.22  0.42  19.8858478926
0.22  0.44  17.2499034738
0.22  0.46  14.9633634664
0.22  0.48  12.979912993
0.22  0.5  11.2593763885
0.22  0.52  9.76690342426
0.22  0.54  8.47226340139
0.22  0.56  7.3492328146
0.22  0.58  6.37506418347
0.22  0.6  5.53002529225
0.22  0.62  4.79699950508
0.22  0.64  4.16113906097
0.22  0.66  3.60956432586
0.22  0.68  3.13110290996
0.22  0.7  2.71606336601
0.22  0.72  2.35603888481
0.22  0.74  2.04373701151
0.22  0.76  1.77283193378
0.22  0.78  1.53783634966
0.22  0.8  1.33399031981
0.22  0.82  1.15716485292
0.22  0.84  1.00377827105
0.22  0.86  0.870723661281
0.22  0.88  0.755305943732
0.22  0.9  0.655187281573
0.22  0.92  0.568339727098
0.22  0.94  0.493004144741
0.22  0.96  0.427654579019
0.22  0.98  0.370967345624
0.24  -1  0.297848578127
0.24  -0.98  0.343362589168
0.24  -0.96  0.395831561063
0.24  -0.94  0.456318276004
0.24  -0.92  0.52604791911
0.24  -0.9  0.606432895091
0.24  -0.88  0.699101437129
0.24  -0.86  0.80593058746
0.24  -0.84  0.929084217694
0.24  -0.82  1.07105685899
0.24  -0.8  1.23472422988
0.24  -0.78  1.42340148524
0.24  -0.76  1.64091036617
0.24  -0.74  1.8916566111
0.24  -0.72  2.18071919594
0.24  -0.7  2.51395321098
0.24  -0.68  2.89810845832
0.24  -0.66  3.34096617213
0.24  -0.64  3.85149663095
0.24  -0.62  4.44004085462
0.24  -0.6  5.11852006629
0.24  -0.58  5.90067716194
0.24  -0.56  6.80235507892
0.24  -0.54  7.84181770156
0.24  -0.52  9.04011980426
0.24  -0.5  10.4215335252
0.24  -0.48  12.0140400093
0.24  -0.46  13.8498961784
0.24  -0.44  15.96628811
0.24  -0.42  18.4060842571
0.24  -0.4  21.218703768
0.24  -0.38  24.4611174926
0.24  -0.36  28.1990019527
0.24  -0.34  32.5080696484
0.24  -0.32  37.4756026487
0.24  -0.3  43.2022205277
0.24  -0.28  49.8039184591
0.24  -0.26  57.4144167496
0.24  -0.24  66.1878694024
0.24  -0.22  76.3019865747
0.24  -0.2  66.154418023
0.24  -0.18  66.3201889592
0.24  -0.16  65.6511076445
0.24  -0.14  64.1987805011
0.24  -0.12  62.079931053
0.24  -0.1  59.4777052592
0.24  -0.08  56.6414698294
0.24  -0.06  53.8804116524
0.24  -0.04  51.5421988368
0.24  -0.02  49.9660000454
0.24  6.17561557e-16  49.4083184907
0.24  0.02  49.9660000454
0.24  0.04  51.5421988368
0.24  0.06  53.8804116524
0.24  0.08  56.6414698294
0.24  0.1  59.4777052592
0.24  0.12  62.079931053
0.24  0.14  64.1987805011
0.24  0.16  65.6511076445
0.24  0.18  66.3201889592
0.24  0.2  87.9616341758
0.24  0.22  76.3019865747
0.24  0.24  66.1878694024
0.24  0.26  57.4144167496
0.24  0.28  49.8039184591
0.24  0.3  43.2022205277
0.24  0.32  37.4756026487
0.24  0.34  32.5080696484
0.24  0.36  28.1990019527
0.24  0.38  24.4611174926
0.24  0.4  21.218703768
0.24  0.42  18.4060842571
0.24  0.44  15.96628811
0.24  0.46  13.8498961784
0.24  0.48  12.0140400093
0.24  0.5  10.4215335252
0.24  0.52  9.04011980426
0.24  0.54  7.84181770156
0.24  0.56  6.80235507892
0.24  0.58  5.90067716194
0.24  0.6  5.11852006629
0.24  0.62  4.44004085462
0.24  0.64  3.85149663095
0.24  0.66  3.34096617213
0.24  0.68  2.89810845832
0.24  0.7  2.51395321098
0.24  0.72  2.18071919594
0.24  0.74  1.8916566111
0.24  0.76  1.64091036617
0.24  0.78  1.42340148524
0.24  0.8  1.23472422988
0.24  0.82  1.07105685899
0.24  0.84  0.929084217694
0.24  0.86  0.80593058746
0.24  0.88  0.699101437129
0.24  0.9  0.606432895091
0.24  0.92  0.52604791911
0.24  0.94  0.456318276004
0.24  0.96  0.395831561063
0.24  0.98  0.343362589168
0.26  -1  0.268894837477
0.26  -0.98  0.309984449786
0.26  -0.96  0.357352933997
0.26  -0.94  0.411959759673
0.26  -0.92  0.47491101218
0.26  -0.9  0.547481796932
0.26  -0.88  0.631142067219
0.26  -0.86  0.727586398754
0.26  -0.84  0.838768314057
0.26  -0.82  0.966939851915
0.26  -0.8  1.11469718342
0.26  -0.78  1.28503319856
0.26  -0.76  1.48139812854
0.26  -0.74  1.70776943171
0.26  -0.72  1.96873235878
0.26  -0.7  2.26957282906
0.26  -0.68  2.61638449911
0.26  -0.66  3.01619219243
0.26  -0.64  3.4770941904
0.26  -0.62  4.00842626648
0.26  -0.6  4.62095078649
0.26  -0.58  5.32707470503
0.26  -0.56  6.14110087385
0.26  -0.54  7.07951775245
0.26  -0.52  8.16133338903
0.26  -0.5  9.408460437
0.26  -0.48  10.8461600054
0.26  -0.46  12.5035533337
0.26  -0.44  14.4142116557
0.26  -0.42  16.6168361993
0.26  -0.4  19.1560420971
0.26  -0.38  22.0832620859
0.26  -0.36  25.4577882989
0.26  -0.34  29.3479732547
0.26  -0.32  33.8326143672
0.26  -0.3  39.0025500223
0.26  -0.28  44.9624995494
0.26  -0.26  51.8331843578
0.26  -0.24  59.753773202
0.26  -0.22  68.8847011063
0.26  -0.2  59.7235736178
0.26  -0.18  59.8732300279
0.26  -0.16  59.2691898391
0.26  -0.14  57.9580428339
0.26  -0.12  56.0451658896
0.26  -0.1  53.69590142
0.26  -0.08  51.1353752972
0.26  -0.06  48.6427184766
0.26  -0.04  46.5318023897
0.26  -0.02  45.1088252497
0.26  6.17561557e-16  44.605355695
0.26  0.02  45.1088252497
0.26  0.04  46.5318023897
0.26  0.06  48.6427184766
0.26  0.08  51.1353752972
0.26  0.1  53.69590142
0.26  0.12  56.0451658896
0.26  0.14  57.9580428339
0.26  0.16  59.2691898391
0.26  0.18  59.8732300279
0.26  0.2  79.4109190472
0.26  0.22  68.8847011063
0.26  0.24  59.753773202
0.26  0.26  51.8331843578
0.26  0.28  44.9624995494
0.26  0.3  39.0025500223
0.26  0.32  33.8326143672
0.26  0.34  29.3479732547
0.26  0.36  25.4577882989
0.26  0.38  22.0832620859
0.26  0.4  19.1560420971
0.26  0.42  16.6168361993
0.26  0.44  14.4142116557
0.26  0.46  12.5035533337
0.26  0.48  10.8461600054
0.26  0.5  9.408460437
0.26  0.52  8.16133338903
0.26  0.54  7.07951775245
0.26  0.56  6.14110087385
0.26  0.58  5.32707470503
0.26  0.6  4.62095078649
0.26  0.62  4.00842626648
0.26  0.64  3.4770941904
0.26  0.66  3.01619219243
0.26  0.68  2.61638449911
0.26  0.7  2.26957282906
0.26  0.72  1.96873235878
0.26  0.74  1.70776943171
0.26  0.76  1.48139812854
0.26  0.78  1.28503319856
0.26  0.8  1.11469718342
0.26  0.82  0.966939851915
0.26  0.84  0.838768314057
0.26  0.86  0.727586398754
0.26  0.88  0.631142067219
0.26  0.9  0.547481796932
0.26  0.92  0.47491101218
0.26  0.94  0.411959759673
0.26  0.96  0.357352933997
0.26  0.98  0.309984449786
0.28  -1  0.235419832973
0.28  -0.98  0.271394155713
0.28  -0.96  0.31286568691
0.28  -0.94  0.360674450739
0.28  -0.92  0.415788834822
0.28  -0.9  0.479325205343
0.28  -0.88  0.552570519541
0.28  -0.86  0.637008393597
0.28  -0.84  0.734349153932
0.28  -0.82  0.846564480628
0.28  -0.8  0.975927344674
0.28  -0.78  1.125058048
0.28  -0.76  1.29697729885
0.28  -0.74  1.49516739757
0.28  -0.72  1.7236427721
0.28  -0.7  1.98703129205
0.28  -0.68  2.29066800817
0.28  -0.66  2.64070321624
0.28  -0.64  3.04422703394
0.28  -0.62  3.50941301436
0.28  -0.6  4.04568370496
0.28  -0.58  4.66390150535
0.28  -0.56  5.37658869004
0.28  -0.54  6.19818105265
0.28  -0.52  7.14532030926
0.28  -0.5  8.2371911837
0.28  -0.48  9.49591000265
0.28  -0.46  10.9469726716
0.28  -0.44  12.6197711055
0.28  -0.42  14.5481885754
0.28  -0.4  16.7712860285
0.28  -0.38  19.3340932854
0.28  -0.36  22.2885211387
0.28  -0.34  25.6944128289
0.28  -0.32  29.6207561963
0.28  -0.3  34.1470810592
0.28  -0.28  39.3650701265
0.28  -0.26  45.3804160706
0.28  -0.24  52.3149623796
0.28  -0.22  60.309171351
0.28  -0.2  52.2885223738
0.28  -0.18  52.4195478981
0.28  -0.16  51.8907053153
0.28  -0.14  50.7427843963
0.28  -0.12  49.0680435387
0.28  -0.1  47.0112415032
0.28  -0.08  44.7694780027
0.28  -0.06  42.5871346826
0.28  -0.04  40.739008786
0.28  -0.02  39.4931795847
0.28  6.17561557e-16  39.0523874907
0.28  0.02  39.4931795847
0.28  0.04  40.739008786
0.28  0.06  42.5871346826
0.28  0.08  44.7694780027
0.28  0.1  47.0112415032
0.28  0.12  49.0680435387
0.28  0.14  50.7427843963
0.28  0.16  51.8907053153
0.28  0.18  52.4195478981
0.28  0.2  69.5249692173
0.28  0.22  60.309171351
0.28  0.24  52.3149623796
0.28  0.26  45.3804160706
0.28  0.28  39.3650701265
0.28  0.3  34.1470810593
0.28  0.32  29.6207561963
0.28  0.34  25.6944128289
0.28  0.36  22.2885211387
0.28  0.38  19.3340932854
0.28  0.4  16.7712860285
0.28  0.42  14.5481885754
0.28  0.44  12.6197711055
0.28  0.46  10.9469726716
0.28  0.48  9.49591000265
0.28  0.5  8.2371911837
0.28  0.52  7.14532030926
0.28  0.54  6.19818105265
0.28  0.56  5.37658869004
0.28  0.58  4.66390150535
0.28  0.6  4.04568370496
0.28  0.62  3.50941301436
0.28  0.64  3.04422703394
0.28  0.66  2.64070321624
0.28  0.68  2.29066800817
0.28  0.7  1.98703129205
0.28  0.72  1.7236427721
0.28  0.74  1.49516739757
0.28  0.76  1.29697729885
0.28  0.78  1.125058048
0.28  0.8  0.975927344674
0.28  0.82  0.846564480628
0.28  0.84  0.734349153932
0.28  0.86  0.637008393597
0.28  0.88  0.552570519541
0.28  0.9  0.479325205343
0.28  0.92  0.415788834822
0.28  0.94  0.360674450739
0.28  0.96  0.31286568691
0.28  0.98  0.271394155713
0.3  -1  0.197986421562
0.3  -0.98  0.228240573634
0.3  -0.96  0.263117839303
0.3  -0.94  0.303324672986
0.3  -0.92  0.34967548185
0.3  -0.9  0.403109121997
0.3  -0.88  0.4647079154
0.3  -0.86  0.535719572819
0.3  -0.84  0.617582466729
0.3  -0.82  0.711954766192
0.3  -0.8  0.820748023804
0.3  -0.78  0.946165895035
0.3  -0.76  1.09074877424
0.3  -0.74  1.25742525149
0.3  -0.72  1.44957143241
0.3  -0.7  1.67107932274
0.3  -0.68  1.92643566262
0.3  -0.66  2.22081280744
0.3  -0.64  2.56017349626
0.3  -0.62  2.95139162969
0.3  -0.6  3.40239150374
0.3  -0.58  3.92230832
0.3  -0.56  4.52167322316
0.3  -0.54  5.21262661397
0.3  -0.52  6.00916405845
0.3  -0.5  6.92741977424
0.3  -0.48  7.98599343632
0.3  -0.46  9.20632692163
0.3  -0.44  10.6131386237
0.3  -0.42  12.2349241348
0.3  -0.4  14.1045334365
0.3  -0.38  16.2598362907
0.3  -0.36  18.7444893085
0.3  -0.34  21.6088202337
0.3  -0.32  24.9108473539
0.3  -0.3  28.7174546866
0.3  -0.28  33.1057467439
0.3  -0.26  38.1646103192
0.3  -0.24  43.9965149279
0.3  -0.22  50.7195883728
0.3  -0.2  43.9742790692
0.3  -0.18  44.0844706124
0.3  -0.16  43.6397177247
0.3  -0.14  42.6743243161
0.3  -0.12  41.2658790494
0.3  -0.1  39.5361230228
0.3  -0.08  37.6508157067
0.3  -0.06  35.8154803439
0.3  -0.04  34.2612194804
0.3  -0.02  33.213485896
0.3  6.17561557e-16  32.8427828493
0.3  0.02  33.213485896
0.3  0.04  34.2612194804
0.3  0.06  35.8154803439
0.3  0.08  37.6508157067
0.3  0.1  39.5361230228
0.3  0.12  41.2658790494
0.3  0.14  42.6743243161
0.3  0.16  43.6397177247
0.3  0.18  44.0844706124
0.3  0.2  58.4700094752
0.3  0.22  50.7195883728
0.3  0.24  43.9965149279
0.3  0.26  38.1646103192
0.3  0.28  33.1057467439
0.3  0.3  28.7174546866
0.3  0.32  24.9108473539
0.3  0.34  21.6088202337
0.3  0.36  18.7444893085
0.3  0.38  16.2598362907
0.3  0.4  14.1045334365
0.3  0.42  12.2349241348
0.3  0.44  10.6131386237
0.3  0.46  9.20632692163
0.3  0.48  7.98599343632
0.3  0.5  6.92741977424
0.3  0.52  6.00916405845
0.3  0.54  5.21262661397
0.3  0.56  4.52167322316
0.3  0.58  3.92230832
0.3  0.6  3.40239150374
0.3  0.62  2.95139162969
0.3  0.64  2.56017349626
0.3  0.66  2.22081280744
0.3  0.68  1.92643566262
0.3  0.7  1.67107932274
0.3  0.72  1.44957143241
0.3  0.74  1.25742525149
0.3  0.76  1.09074877424
0.3  0.78  0.946165895035
0.3  0.8  0.820748023804
0.3  0.82  0.711954766192
0.3  0.84  0.617582466729
0.3  0.86  0.535719572819
0.3  0.88  0.4647079154
0.3  0.9  0.403109121997
0.3  0.92  0.34967548185
0.3  0.94  0.303324672986
0.3  0.96  0.263117839303
0.3  0.98  0.228240573634
0.32  -1  0.162416732302
0.32  -0.98  0.187235507647
0.32  -0.96  0.215846820872
0.32  -0.94  0.248830206759
0.32  -0.92  0.286853758354
0.32  -0.9  0.330687659483
0.32  -0.88  0.381219785168
0.32  -0.86  0.439473685927
0.32  -0.84  0.506629320241
0.32  -0.82  0.584046955136
0.32  -0.8  0.67329471899
0.32  -0.78  0.776180364666
0.32  -0.76  0.894787886346
0.32  -0.74  1.03151973175
0.32  -0.72  1.18914546479
0.32  -0.7  1.37085786427
0.32  -0.68  1.58033759509
0.32  -0.66  1.82182776168
0.32  -0.64  2.10021985401
0.32  -0.62  2.42115282682
0.32  -0.6  2.79112731918
0.32  -0.58  3.21763732779
0.32  -0.56  3.70932200121
0.32  -0.54  4.2761406296
0.32  -0.52  4.92957437454
0.32  -0.5  5.68285882505
0.32  -0.48  6.55125209031
0.32  -0.46  7.55234385932
0.32  -0.44  8.70641168789
0.32  -0.42  10.0368317295
0.32  -0.4  11.5705522294
0.32  -0.38  13.3386393737
0.32  -0.36  15.3769065481
0.32  -0.34  17.7266397542
0.32  -0.32  20.4354338756
0.32  -0.3  23.5581567333
0.32  -0.28  27.1580604576
0.32  -0.26  31.3080626879
0.32  -0.24  36.0922235519
0.32  -0.22  41.6074483402
0.32  -0.2  36.0739825257
0.32  -0.18  36.164377363
0.32  -0.16  35.7995275408
0.32  -0.14  35.0075740242
0.32  -0.12  33.8521661126
0.32  -0.1  32.4331732378
0.32  -0.08  30.8865749849
0.32  -0.06  29.3809708634
0.32  -0.04  28.1059441793
0.32  -0.02  27.2464434936
0.32  6.17561557e-16  26.9423399241
0.32  0.02  27.2464434936
0.32  0.04  28.1059441793
0.32  0.06  29.3809708634
0.32  0.08  30.8865749849
0.32  0.1  32.4331732378
0.32  0.12  33.8521661126
0.32  0.14  35.0075740242
0.32  0.16  35.7995275408
0.32  0.18  36.164377363
0.32  0.2  47.9654503662
0.32  0.22  41.6074483402
0.32  0.24  36.0922235519
0.32  0.26  31.3080626879
0.32  0.28  27.1580604576
0.32  0.3  23.5581567333
0.32  0.32  20.4354338756
0.32  0.34  17.7266397542
0.32  0.36  15.3769065481
0.32  0.38  13.3386393737
0.32  0.4  11.5705522294
0.32  0.42  10.0368317295
0.32  0.44  8.70641168789
0.32  0.46  7.55234385932
0.32  0.48  6.55125209031
0.32  0.5  5.68285882505
0.32  0.52  4.92957437454
0.32  0.54  4.2761406296
0.32  0.56  3.70932200121
0.32  0.58  3.21763732779
0.32  0.6  2.79112731918
0.32  0.62  2.42115282682
0.32  0.64  2.10021985401
0.32  0.66  1.82182776168
0.32  0.68  1.58033759509
0.32  0.7  1.37085786427
0.32  0.72  1.18914546479
0.32  0.74  1.03151973175
0.32  0.76  0.894787886346
0.32  0.78  0.776180364666
0.32  0.8  0.67329471899
0.32  0.82  0.584046955136
0.32  0.84  0.506629320241
0.32  0.86  0.439473685927
0.32  0.88  0.381219785168
0.32  0.9  0.330687659483
0.32  0.92  0.286853758354
0.32  0.94  0.248830206759
0.32  0.96  0.215846820872
0.32  0.98  0.187235507647
0.34  -1  0.13323739438
0.34  -0.98  0.153597297648
0.34  -0.96  0.177068381999
0.34  -0.94  0.204126064611
0.34  -0.92  0.235318410792
0.34  -0.9  0.271277235287
0.34  -0.88  0.312730899964
0.34  -0.86  0.360519067104
0.34  -0.84  0.415609707134
0.34  -0.82  0.479118705291
0.34  -0.8  0.552332464376
0.34  -0.78  0.636733961406
0.34  -0.76  0.73403278597
0.34  -0.74  0.846199768722
0.34  -0.72  0.975506901424
0.34  -0.7  1.12457335714
0.34  -0.68  1.29641854276
0.34  -0.66  1.49452325839
0.34  -0.64  1.72290020251
0.34  -0.62  1.98617525097
0.34  -0.6  2.28968115612
0.34  -0.58  2.63956556409
0.34  -0.56  3.04291553804
0.34  -0.54  3.50790110979
0.34  -0.52  4.04394076742
0.34  -0.5  4.66189223087
0.34  -0.48  5.37427237988
0.34  -0.46  6.19551078893
0.34  -0.44  7.1422420046
0.34  -0.42  8.23364248568
0.34  -0.4  9.49181903083
0.34  -0.38  10.9422565615
0.34  -0.36  12.6143343303
0.34  -0.34  14.5419210108
0.34  -0.32  16.7640607222
0.34  -0.3  19.3257638856
0.34  -0.28  22.2789189297
0.34  -0.26  25.6833433139
0.34  -0.24  29.6079951572
0.34  -0.22  34.1323700156
0.34  -0.2  29.593031263
0.34  -0.18  29.6671860155
0.34  -0.16  29.3678840965
0.34  -0.14  28.7182107437
0.34  -0.12  27.7703802007
0.34  -0.1  26.6063196349
0.34  -0.08  25.3375789181
0.34  -0.06  24.1024674412
0.34  -0.04  23.0565085012
0.34  -0.02  22.3514233156
0.34  6.17561557e-16  22.1019541467
0.34  0.02  22.3514233156
0.34  0.04  23.0565085012
0.34  0.06  24.1024674412
0.34  0.08  25.3375789181
0.34  0.1  26.6063196349
0.34  0.12  27.7703802007
0.34  0.14  28.7182107437
0.34  0.16  29.3678840965
0.34  0.18  29.6671860155
0.34  0.2  39.3481110997
0.34  0.22  34.1323700156
0.34  0.24  29.6079951572
0.34  0.26  25.6833433139
0.34  0.28  22.2789189297
0.34  0.3  19.3257638856
0.34  0.32  16.7640607222
0.34  0.34  14.5419210108
0.34  0.36  12.6143343303
0.34  0.38  10.9422565615
0.34  0.4  9.49181903083
0.34  0.42  8.23364248568
0.34  0.44  7.1422420046
0.34  0.46  6.19551078893
0.34  0.48  5.37427237988
0.34  0.5  4.66189223087
0.34  0.52  4.04394076742
0.34  0.54  3.50790110979
0.34  0.56  3.04291553804
0.34  0.58  2.63956556409
0.34  0.6  2.28968115612
0.34  0.62  1.98617525097
0.34  0.64  1.72290020251
0.34  0.66  1.49452325839
0.34  0.68  1.29641854276
0.34  0.7  1.12457335714
0.34  0.72  0.975506901424
0.34  0.74  0.846199768722
0.34  0.76  0.73403278597
0.34  0.78  0.636733961406
0.34  0.8  0.552332464376
0.34  0.82  0.479118705291
0.34  0.84  0.415609707134
0.34  0.86  0.360519067104
0.34  0.88  0.312730899964
0.34  0.9  0.271277235287
0.34  0.92  0.235318410792
0.34  0.94  0.204126064611
0.34  0.96  0.177068381999
0.34  0.98  0.153597297648
0.36  -1  0.109300335068
0.36  -0.98  0.126002434801
0.36  -0.96  0.145256769486
0.36  -0.94  0.167453344174
0.36  -0.92  0.193041760287
0.36  -0.9  0.222540322491
0.36  -0.88  0.256546537188
0.36  -0.86  0.295749215272
0.36  -0.84  0.340942424298
0.36  -0.82  0.39304157267
0.36  -0.8  0.453101951641
0.36  -0.78  0.522340110706
0.36  -0.76  0.602158499351
0.36  -0.74  0.694173874279
0.36  -0.72  0.800250047539
0.36  -0.7  0.922535638857
0.36  -0.68  1.06350759688
0.36  -0.66  1.22602137087
0.36  -0.64  1.41336874906
0.36  -0.62  1.62934453533
0.36  -0.6  1.87832341459
0.36  -0.58  2.16534856397
0.36  -0.56  2.49623380462
0.36  -0.54  2.87768136317
0.36  -0.52  3.31741762836
0.36  -0.5  3.8243496524
0.36  -0.48  4.40874556726
0.36  -0.46  5.08244257025
0.36  -0.44  5.85908669162
0.36  -0.42  6.75440920097
0.36  -0.4  7.78654525105
0.36  -0.38  8.9764012133
0.36  -0.36  10.3480781456
0.36  -0.34  11.9293599699
0.36  -0.32  13.7522762477
0.36  -0.3  15.8537509531
0.36  -0.28  18.2763503842
0.36  -0.26  21.0691453622
0.36  -0.24  24.2887051824
0.36  -0.22  28.0002434506
0.36  -0.2  24.2764296597
0.36  -0.18  24.3372619759
0.36  -0.16  24.0917318064
0.36  -0.14  23.5587769593
0.36  -0.12  22.7812310126
0.36  -0.1  21.8263023271
0.36  -0.08  20.7855000351
0.36  -0.06  19.7722852472
0.36  -0.04  18.9142403782
0.36  -0.02  18.3358288339
0.36  6.17561557e-16  18.1311786014
0.36  0.02  18.3358288339
0.36  0.04  18.9142403782
0.36  0.06  19.7722852472
0.36  0.08  20.7855000351
0.36  0.1  21.8263023271
0.36  0.12  22.7812310126
0.36  0.14  23.5587769593
0.36  0.16  24.0917318064
0.36  0.18  24.3372619759
0.36  0.2  32.2789390133
0.36  0.22  28.0002434506
0.36  0.24  24.2887051824
0.36  0.26  21.0691453622
0.36  0.28  18.2763503842
0.36  0.3  15.8537509531
0.36  0.32  13.7522762477
0.36  0.34  11.9293599699
0.36  0.36  10.3480781456
0.36  0.38  8.9764012133
0.36  0.4  7.78654525105
0.36  0.42  6.75440920097
0.36  0.44  5.85908669162
0.36  0.46  5.08244257025
0.36  0.48  4.40874556726
0.36  0.5  3.8243496524
0.36  0.52  3.31741762836
0.36  0.54  2.87768136317
0.36  0.56  2.49623380462
0.36  0.58  2.16534856397
0.36  0.6  1.87832341459
0.36  0.62  1.62934453533
0.36  0.64  1.41336874906
0.36  0.66  1.22602137087
0.36  0.68  1.06350759688
0.36  0.7  0.922535638858
0.36  0.72  0.800250047539
0.36  0.74  0.694173874279
0.36  0.76  0.602158499351
0.36  0.78  0.522340110706
0.36  0.8  0.453101951641
0.36  0.82  0.39304157267
0.36  0.84  0.340942424298
0.36  0.86  0.295749215272
0.36  0.88  0.256546537188
0.36  0.9  0.222540322491
0.36  0.92  0.193041760287
0.36  0.94  0.167453344174
0.36  0.96  0.145256769486
0.36  0.98  0.126002434801
0.38  -1  0.0896637411857
0.38  -0.98  0.103365188183
0.38  -0.96  0.119160342707
0.38  -0.94  0.137369142587
0.38  -0.92  0.158360415104
0.38  -0.9  0.182559347753
0.38  -0.88  0.210456100598
0.38  -0.86  0.242615734687
0.38  -0.84  0.279689657607
0.38  -0.82  0.322428818038
0.38  -0.8  0.371698916544
0.38  -0.78  0.428497940726
0.38  -0.76  0.493976379899
0.38  -0.74  0.569460528758
0.38  -0.72  0.656479352069
0.38  -0.7  0.756795454522
0.38  -0.68  0.872440783063
0.38  -0.66  1.00575778489
0.38  -0.64  1.15944685473
0.38  -0.62  1.33662103256
0.38  -0.6  1.54086905959
0.38  -0.58  1.77632806977
0.38  -0.56  2.04776738934
0.38  -0.54  2.36068514156
0.38  -0.52  2.72141961367
0.38  -0.5  3.13727764168
0.38  -0.48  3.61668261356
0.38  -0.46  4.16934508871
0.38  -0.44  4.80645948958
0.38  -0.42  5.54093084968
0.38  -0.4  6.38763621069
0.38  -0.38  7.36372596358
0.38  -0.36  8.48897123728
0.38  -0.34  9.78616437163
0.38  -0.32  11.2815805864
0.38  -0.3  13.0055101972
0.38  -0.28  14.9928721595
0.38  -0.26  17.2839213675
0.38  -0.24  19.9250640344
0.38  -0.22  22.9697976711
0.38  -0.2  19.914993898
0.38  -0.18  19.9648972496
0.38  -0.16  19.7634783467
0.38  -0.14  19.3262726836
0.38  -0.12  18.6884184768
0.38  -0.1  17.9050496202
0.38  -0.08  17.0512349701
0.38  -0.06  16.2200515301
0.38  -0.04  15.5161606132
0.38  -0.02  15.0416648766
0.38  6.17561557e-16  14.873781535
0.38  0.02  15.0416648766
0.38  0.04  15.5161606132
0.38  0.06  16.2200515301
0.38  0.08  17.0512349701
0.38  0.1  17.9050496202
0.38  0.12  18.6884184768
0.38  0.14  19.3262726836
0.38  0.16  19.7634783467
0.38  0.18  19.9648972496
0.38  0.2  26.4797947018
0.38  0.22  22.9697976711
0.38  0.24  19.9250640344
0.38  0.26  17.2839213675
0.38  0.28  14.9928721595
0.38  0.3  13.0055101972
0.38  0.32  11.2815805864
0.38  0.34  9.78616437163
0.38  0.36  8.48897123728
0.38  0.38  7.36372596359
0.38  0.4  6.3876362107
0.38  0.42  5.54093084968
0.38  0.44  4.80645948958
0.38  0.46  4.16934508871
0.38  0.48  3.61668261356
0.38  0.5  3.13727764168
0.38  0.52  2.72141961367
0.38  0.54  2.36068514156
0.38  0.56  2.04776738934
0.38  0.58  1.77632806977
0.38  0.6  1.54086905959
0.38  0.62  1.33662103256
0.38  0.64  1.15944685473
0.38  0.66  1.00575778489
0.38  0.68  0.872440783063
0.38  0.7  0.756795454522
0.38  0.72  0.656479352069
0.38  0.74  0.569460528758
0.38  0.76  0.493976379899
0.38  0.78  0.428497940726
0.38  0.8  0.371698916544
0.38  0.82  0.322428818038
0.38  0.84  0.279689657607
0.38  0.86  0.242615734687
0.38  0.88  0.210456100598
0.38  0.9  0.182559347753
0.38  0.92  0.158360415104
0.38  0.94  0.137369142587
0.38  0.96  0.119160342707
0.38  0.98  0.103365188183
0.4  -1  0.0735550030878
0.4  -0.98  0.0847948862652
0.4  -0.96  0.0977523273045
0.4  -0.94  0.112689784895
0.4  -0.92  0.129909823837
0.4  -0.9  0.149761243621
0.4  -0.88  0.172646143521
0.4  -0.86  0.199028067288
0.4  -0.84  0.229441392439
0.4  -0.82  0.264502154301
0.4  -0.8  0.304920524089
0.4  -0.78  0.351515193727
0.4  -0.76  0.405229958824
0.4  -0.74  0.467152835664
0.4  -0.72  0.538538099459
0.4  -0.7  0.620831690246
0.4  -0.68  0.715700501044
0.4  -0.66  0.825066141504
0.4  -0.64  0.951143860963
0.4  -0.62  1.0964874193
0.4  -0.6  1.26404081446
0.4  -0.58  1.45719791444
0.4  -0.56  1.67987120161
0.4  -0.54  1.93657102169
0.4  -0.52  2.2324969429
0.4  -0.5  2.57364307544
0.4  -0.48  2.96691948485
0.4  -0.46  3.42029215844
0.4  -0.44  3.94294435992
0.4  -0.42  4.54546264039
0.4  -0.4  5.24005127366
0.4  -0.38  6.04077945919
0.4  -0.36  6.96386629994
0.4  -0.34  8.02800932745
0.4  -0.32  9.2547632286
0.4  -0.3  10.6689764453
0.4  -0.28  12.2992944908
0.4  -0.26  14.1787401768
0.4  -0.24  16.3453825057
0.4  -0.22  18.8431077744
0.4  -0.2  16.337121542
0.4  -0.18  16.3780593963
0.4  -0.16  16.2128268528
0.4  -0.14  15.8541683418
0.4  -0.12  15.3309092459
0.4  -0.1  14.688278257
0.4  -0.08  13.9878575698
0.4  -0.06  13.3060022324
0.4  -0.04  12.7285703979
0.4  -0.02  12.3393212442
0.4  6.17561557e-16  12.2015993563
0.4  0.02  12.3393212442
0.4  0.04  12.7285703979
0.4  0.06  13.3060022324
0.4  0.08  13.9878575698
0.4  0.1  14.688278257
0.4  0.12  15.3309092459
0.4  0.14  15.8541683418
0.4  0.16  16.2128268528
0.4  0.18  16.3780593963
0.4  0.2  21.7225085112
0.4  0.22  18.8431077744
0.4  0.24  16.3453825057
0.4  0.26  14.1787401768
0.4  0.28  12.2992944908
0.4  0.3  10.6689764453
0.4  0.32  9.2547632286
0.4  0.34  8.02800932745
0.4  0.36  6.96386629994
0.4  0.38  6.04077945919
0.4  0.4  5.24005127366
0.4  0.42  4.54546264039
0.4  0.44  3.94294435992
0.4  0.46  3.42029215844
0.4  0.48  2.96691948485
0.4  0.5  2.57364307544
0.4  0.52  2.2324969429
0.4  0.54  1.93657102169
0.4  0.56  1.67987120161
0.4  0.58  1.45719791444
0.4  0.6  1.26404081446
0.4  0.62  1.0964874193
0.4  0.64  0.951143860963
0.4  0.66  0.825066141504
0.4  0.68  0.715700501044
0.4  0.7  0.620831690246
0.4  0.72  0.538538099459
0.4  0.74  0.467152835664
0.4  0.76  0.405229958824
0.4  0.78  0.351515193727
0.4  0.8  0.304920524089
0.4  0.82  0.264502154301
0.4  0.84  0.229441392439
0.4  0.86  0.199028067288
0.4  0.88  0.172646143521
0.4  0.9  0.149761243621
0.4  0.92  0.129909823837
0.4  0.94  0.112689784895
0.4  0.96  0.0977523273045
0.4  0.98  0.0847948862652
0.42  -1  0.0603403160263
0.42  -0.98  0.0695608730863
0.42  -0.96  0.0801904163449
0.42  -0.94  0.0924442518941
0.42  -0.92  0.106570586584
0.42  -0.9  0.12285555556
0.42  -0.88  0.14162901806
0.42  -0.86  0.163271238857
0.42  -0.84  0.188220590688
0.42  -0.82  0.216982433692
0.42  -0.8  0.250139351696
0.42  -0.78  0.288362952718
0.42  -0.76  0.332427472671
0.42  -0.74  0.383225457864
0.42  -0.72  0.441785843918
0.42  -0.7  0.509294797308
0.42  -0.68  0.587119741694
0.42  -0.66  0.676837055686
0.42  -0.64  0.780264003095
0.42  -0.62  0.899495542408
0.42  -0.6  1.0369467611
0.42  -0.58  1.19540179429
0.42  -0.56  1.37807021865
0.42  -0.54  1.58865206377
0.42  -0.52  1.8314127579
0.42  -0.5  2.11126952609
0.42  -0.48  2.43389099075
0.42  -0.46  2.8058119921
0.42  -0.44  3.23456595424
0.42  -0.42  3.72883747798
0.42  -0.4  4.29863825128
0.42  -0.38  4.95550984041
0.42  -0.36  5.71275746942
0.42  -0.34  6.58571952341
0.42  -0.32  7.59207823424
0.42  -0.3  8.75221784193
0.42  -0.28  10.0896374865
0.42  -0.26  11.6314271934
0.42  -0.24  13.4088165939
0.42  -0.22  15.457807495
0.42  -0.2  13.4020397718
0.42  -0.18  13.4356228453
0.42  -0.16  13.3000755205
0.42  -0.14  13.005852599
0.42  -0.12  12.5766007754
0.42  -0.1  12.0494230808
0.42  -0.08  11.474838024
0.42  -0.06  10.9154829181
0.42  -0.04  10.4417908793
0.42  -0.02  10.1224731448
0.42  6.17561557e-16  10.0094939879
0.42  0.02  10.1224731448
0.42  0.04  10.4417908793
0.42  0.06  10.9154829181
0.42  0.08  11.474838024
0.42  0.1  12.0494230808
0.42  0.12  12.5766007754
0.42  0.14  13.005852599
0.42  0.16  13.3000755205
0.42  0.18  13.4356228453
0.42  0.2  17.8199031123
0.42  0.22  15.457807495
0.42  0.24  13.4088165939
0.42  0.26  11.6314271934
0.42  0.28  10.0896374865
0.42  0.3  8.75221784194
0.42  0.32  7.59207823424
0.42  0.34  6.58571952341
0.42  0.36  5.71275746942
0.42  0.38  4.95550984041
0.42  0.4  4.29863825128
0.42  0.42  3.72883747798
0.42  0.44  3.23456595424
0.42  0.46  2.8058119921
0.42  0.48  2.43389099075
0.42  0.5  2.11126952609
0.42  0.52  1.8314127579
0.42  0.54  1.58865206377
0.42  0.56  1.37807021865
0.42  0.58  1.19540179429
0.42  0.6  1.0369467611
0.42  0.62  0.899495542408
0.42  0.64  0.780264003095
0.42  0.66  0.676837055686
0.42  0.68  0.587119741694
0.42  0.7  0.509294797308
0.42  0.72  0.441785843918
0.42  0.74  0.383225457864
0.42  0.76  0.332427472671
0.42  0.78  0.288362952718
0.42  0.8  0.250139351696
0.42  0.82  0.216982433692
0.42  0.84  0.188220590688
0.42  0.86  0.163271238857
0.42  0.88  0.14162901806
0.42  0.9  0.12285555556
0.42  0.92  0.106570586584
0.42  0.94  0.0924442518941
0.42  0.96  0.0801904163449
0.42  0.98  0.0695608730863
0.44  -1  0.0494997428496
0.44  -0.98  0.0570637603003
0.44  -0.96  0.065783629412
0.44  -0.94  0.0758359749838
0.44  -0.92  0.0874244117139
0.44  -0.9  0.100783668505
0.44  -0.88  0.116184343002
0.44  -0.86  0.133938382667
0.44  -0.84  0.154405403413
0.44  -0.82  0.177999973781
0.44  -0.8  0.205200012213
0.44  -0.78  0.236556467498
0.44  -0.76  0.272704478482
0.44  -0.74  0.314376239088
0.44  -0.72  0.362415829228
0.44  -0.7  0.417796312012
0.44  -0.68  0.481639443571
0.44  -0.66  0.555238394724
0.44  -0.64  0.640083944725
0.44  -0.62  0.737894677651
0.44  -0.6  0.850651793087
0.44  -0.58  0.980639236191
0.44  -0.56  1.13048996002
0.44  -0.54  1.30323925715
0.44  -0.52  1.50238624087
0.44  -0.5  1.73196472127
0.44  -0.48  1.99662491184
0.44  -0.46  2.30172762159
0.44  -0.44  2.65345284064
0.44  -0.42  3.05892491858
0.44  -0.4  3.52635687141
0.44  -0.38  4.0652167397
0.44  -0.36  4.68641936803
0.44  -0.34  5.40254748992
0.44  -0.32  6.22810659668
0.44  -0.3  7.17981875254
0.44  -0.28  8.27696130744
0.44  -0.26  9.54175736826
0.44  -0.24  10.9998259377
0.44  -0.22  12.6807008384
0.44  -0.2  10.9942666206
0.44  -0.18  11.0218162526
0.44  -0.16  10.9106209828
0.44  -0.14  10.6692573322
0.44  -0.12  10.3171236961
0.44  -0.1  9.88465727831
0.44  -0.08  9.41330057311
0.44  -0.06  8.95443764814
0.44  -0.04  8.56584780216
0.44  -0.02  8.30389780279
0.44  6.17561557e-16  8.21121616663
0.44  0.02  8.30389780279
0.44  0.04  8.56584780216
0.44  0.06  8.95443764814
0.44  0.08  9.41330057311
0.44  0.1  9.88465727831
0.44  0.12  10.3171236961
0.44  0.14  10.6692573322
0.44  0.16  10.9106209828
0.44  0.18  11.0218162526
0.44  0.2  14.6184289337
0.44  0.22  12.6807008384
0.44  0.24  10.9998259377
0.44  0.26  9.54175736826
0.44  0.28  8.27696130744
0.44  0.3  7.17981875254
0.44  0.32  6.22810659668
0.44  0.34  5.40254748992
0.44  0.36  4.68641936803
0.44  0.38  4.0652167397
0.44  0.4  3.52635687141
0.44  0.42  3.05892491858
0.44  0.44  2.65345284064
0.44  0.46  2.30172762159
0.44  0.48  1.99662491184
0.44  0.5  1.73196472127
0.44  0.52  1.50238624087
0.44  0.54  1.30323925715
0.44  0.56  1.13048996002
0.44  0.58  0.980639236191
0.44  0.6  0.850651793087
0.44  0.62  0.737894677651
0.44  0.64  0.640083944725
0.44  0.66  0.555238394724
0.44  0.68  0.481639443571
0.44  0.7  0.417796312012
0.44  0.72  0.362415829228
0.44  0.74  0.314376239088
0.44  0.76  0.272704478482
0.44  0.78  0.236556467498
0.44  0.8  0.205200012213
0.44  0.82  0.177999973781
0.44  0.84  0.154405403413
0.44  0.86  0.133938382667
0.44  0.88  0.116184343002
0.44  0.9  0.100783668505
0.44  0.92  0.0874244117139
0.44  0.94  0.0758359749838
0.44  0.96  0.065783629412
0.44  0.98  0.0570637603003
0.46  -1  0.0406067568674
0.46  -0.98  0.0468118440027
0.46  -0.96  0.0539651257079
0.46  -0.94  0.0622114948622
0.46  -0.92  0.0717179853141
0.46  -0.9  0.0826771552251
0.46  -0.88  0.0953109874208
0.46  -0.86  0.109875385751
0.46  -0.84  0.126665358534
0.46  -0.82  0.146020994082
0.46  -0.8  0.168334349341
0.46  -0.78  0.194057391172
0.46  -0.76  0.223711151147
0.46  -0.74  0.257896279266
0.46  -0.72  0.297305210394
0.46  -0.7  0.342736189832
0.46  -0.68  0.395109442128
0.46  -0.66  0.455485810633
0.46  -0.64  0.52508824535
0.46  -0.62  0.605326574325
0.46  -0.6  0.697826060341
0.46  -0.58  0.804460321331
0.46  -0.56  0.927389281334
0.46  -0.54  1.06910292071
0.46  -0.52  1.23247171181
0.46  -0.5  1.42080476162
0.46  -0.48  1.63791683922
0.46  -0.46  1.88820564561
0.46  -0.44  2.17674089108
0.46  -0.42  2.50936698443
0.46  -0.4  2.89282141404
0.46  -0.38  3.3348712187
0.46  -0.36  3.84447031239
0.46  -0.34  4.43194084976
0.46  -0.32  5.10918230594
0.46  -0.3  5.88991250565
0.46  -0.28  6.78994548382
0.46  -0.26  7.82751180582
0.46  -0.24  9.02362783565
0.46  -0.22  10.4025214316
0.46  -0.2  9.01906729003
0.46  -0.18  9.04166743183
0.46  -0.16  8.95044919456
0.46  -0.14  8.75244826545
0.46  -0.12  8.463577978
0.46  -0.1  8.10880727274
0.46  -0.08  7.72213320083
0.46  -0.06  7.34570831139
0.46  -0.04  7.02693143522
0.46  -0.02  6.81204264341
0.46  6.17561557e-16  6.73601193196
0.46  0.02  6.81204264341
0.46  0.04  7.02693143522
0.46  0.06  7.34570831139
0.46  0.08  7.72213320083
0.46  0.1  8.10880727274
0.46  0.12  8.463577978
0.46  0.14  8.75244826545
0.46  0.16  8.95044919456
0.46  0.18  9.04166743183
0.46  0.2  11.9921226923
0.46  0.22  10.4025214316
0.46  0.24  9.02362783565
0.46  0.26  7.82751180582
0.46  0.28  6.78994548382
0.46  0.3  5.88991250565
0.46  0.32  5.10918230594
0.46  0.34  4.43194084976
0.46  0.36  3.84447031239
0.46  0.38  3.3348712187
0.46  0.4  2.89282141404
0.46  0.42  2.50936698443
0.46  0.44  2.17674089108
0.46  0.46  1.88820564561
0.46  0.48  1.63791683922
0.46  0.5  1.42080476162
0.46  0.52  1.23247171181
0.46  0.54  1.06910292071
0.46  0.56  0.927389281334
0.46  0.58  0.804460321331
0.46  0.6  0.697826060342
0.46  0.62  0.605326574325
0.46  0.64  0.52508824535
0.46  0.66  0.455485810633
0.46  0.68  0.395109442129
0.46  0.7  0.342736189832
0.46  0.72  0.297305210394
0.46  0.74  0.257896279266
0.46  0.76  0.223711151147
0.46  0.78  0.194057391172
0.46  0.8  0.168334349341
0.46  0.82  0.146020994082
0.46  0.84  0.126665358534
0.46  0.86  0.109875385751
0.46  0.88  0.0953109874208
0.46  0.9  0.0826771552251
0.46  0.92  0.0717179853141
0.46  0.94  0.0622114948622
0.46  0.96  0.0539651257079
0.46  0.98  0.0468118440028
0.48  -1  0.0333114599867
0.48  -0.98  0.0384017584436
0.48  -0.96  0.0442699014739
0.48  -0.94  0.0510347509057
0.48  -0.92  0.0588333317511
0.48  -0.9  0.0678236077087
0.48  -0.88  0.0781876807875
0.48  -0.86  0.0901354798639
0.48  -0.84  0.103909012884
0.48  -0.82  0.11978726884
0.48  -0.8  0.138091868818
0.48  -0.78  0.159193580572
0.48  -0.76  0.183519828592
0.48  -0.74  0.211563351773
0.48  -0.72  0.243892184057
0.48  -0.7  0.28116116022
0.48  -0.68  0.324125179827
0.48  -0.66  0.373654498067
0.48  -0.64  0.430752353151
0.48  -0.62  0.496575287343
0.48  -0.6  0.572456573241
0.48  -0.58  0.659933219794
0.48  -0.56  0.760777105104
0.48  -0.54  0.877030866595
0.48  -0.52  1.01104927554
0.48  -0.5  1.16554693398
0.48  -0.48  1.3436532602
0.48  -0.46  1.5489758765
0.48  -0.44  1.78567368311
0.48  -0.42  2.05854109863
0.48  -0.4  2.37310517304
0.48  -0.38  2.73573754056
0.48  -0.36  3.15378347991
0.48  -0.34  3.63571069618
0.48  -0.32  4.19128083793
0.48  -0.3  4.83174722369
0.48  -0.28  5.57008278289
0.48  -0.26  6.4212428283
0.48  -0.24  7.40246798245
0.48  -0.22  8.5336333941
0.48  -0.2  7.39872677176
0.48  -0.18  7.41726663501
0.48  -0.16  7.34243641228
0.48  -0.14  7.18000777881
0.48  -0.12  6.94303512293
0.48  -0.1  6.65200153481
0.48  -0.08  6.33479625008
0.48  -0.06  6.02599880823
0.48  -0.04  5.76449249808
0.48  -0.02  5.58821002831
0.48  6.17561557e-16  5.5258387828
0.48  0.02  5.58821002831
0.48  0.04  5.76449249808
0.48  0.06  6.02599880823
0.48  0.08  6.33479625008
0.48  0.1  6.65200153481
0.48  0.12  6.94303512293
0.48  0.14  7.18000777881
0.48  0.16  7.34243641228
0.48  0.18  7.41726663501
0.48  0.2  9.83765131813
0.48  0.22  8.5336333941
0.48  0.24  7.40246798245
0.48  0.26  6.4212428283
0.48  0.28  5.57008278289
0.48  0.3  4.83174722369
0.48  0.32  4.19128083793
0.48  0.34  3.63571069618
0.48  0.36  3.15378347991
0.48  0.38  2.73573754056
0.48  0.4  2.37310517304
0.48  0.42  2.05854109863
0.48  0.44  1.78567368311
0.48  0.46  1.5489758765
0.48  0.48  1.3436532602
0.48  0.5  1.16554693398
0.48  0.52  1.01104927554
0.48  0.54  0.877030866595
0.48  0.56  0.760777105104
0.48  0.58  0.659933219794
0.48  0.6  0.572456573241
0.48  0.62  0.496575287343
0.48  0.64  0.430752353151
0.48  0.66  0.373654498067
0.48  0.68  0.324125179827
0.48  0.7  0.28116116022
0.48  0.72  0.243892184057
0.48  0.74  0.211563351773
0.48  0.76  0.183519828592
0.48  0.78  0.159193580572
0.48  0.8  0.138091868818
0.48  0.82  0.11978726884
0.48  0.84  0.103909012884
0.48  0.86  0.0901354798639
0.48  0.88  0.0781876807875
0.48  0.9  0.0678236077087
0.48  0.92  0.0588333317511
0.48  0.94  0.0510347509057
0.48  0.96  0.0442699014739
0.48  0.98  0.0384017584436
0.5  -1  0.0273268158319
0.5  -0.98  0.0315026054406
0.5  -0.96  0.0363164942322
0.5  -0.94  0.0418659896499
0.5  -0.92  0.0482634991736
0.5  -0.9  0.0556386071835
0.5  -0.88  0.0641406997488
0.5  -0.86  0.0739419905085
0.5  -0.84  0.0852410089345
0.5  -0.82  0.0982666216342
0.5  -0.8  0.113282668144
0.5  -0.78  0.130593305117
0.5  -0.76  0.150549167147
0.5  -0.74  0.173554469032
0.5  -0.72  0.200075193319
0.5  -0.7  0.230648528989
0.5  -0.68  0.265893752455
0.5  -0.66  0.30652477128
0.5  -0.64  0.353364584692
0.5  -0.62  0.407361953794
0.5  -0.6  0.469610619137
0.5  -0.58  0.541371454925
0.5  -0.56  0.624098008571
0.5  -0.54  0.719465942948
0.5  -0.52  0.829406977676
0.5  -0.5  0.956148016955
0.5  -0.48  1.1022562565
0.5  -0.46  1.27069118321
0.5  -0.44  1.46486452091
0.5  -0.42  1.68870933628
0.5  -0.4  1.9467597049
0.5  -0.38  2.24424255092
0.5  -0.36  2.58718352073
0.5  -0.34  2.98252903512
0.5  -0.32  3.43828699203
0.5  -0.3  3.96368897012
0.5  -0.28  4.56937721845
0.5  -0.26  5.26762021991
0.5  -0.24  6.07256119481
0.5  -0.22  7.00050457802
0.5  -0.2  6.06949211962
0.5  -0.18  6.08470116266
0.5  -0.16  6.0233147294
0.5  -0.14  5.89006757198
0.5  -0.12  5.69566876367
0.5  -0.1  5.4569214597
0.5  -0.08  5.19670439325
0.5  -0.06  4.94338464004
0.5  -0.04  4.72885982549
0.5  -0.02  4.58424777343
0.5  6.17561557e-16  4.53308197222
0.5  0.02  4.58424777343
0.5  0.04  4.72885982549
0.5  0.06  4.94338464004
0.5  0.08  5.19670439325
0.5  0.1  5.4569214597
0.5  0.12  5.69566876367
0.5  0.14  5.89006757198
0.5  0.16  6.0233147294
0.5  0.18  6.08470116266
0.5  0.2  8.07024627249
0.5  0.22  7.00050457802
0.5  0.24  6.07256119481
0.5  0.26  5.26762021991
0.5  0.28  4.56937721845
0.5  0.3  3.96368897012
0.5  0.32  3.43828699203
0.5  0.34  2.98252903512
0.5  0.36  2.58718352073
0.5  0.38  2.24424255092
0.5  0.4  1.9467597049
0.5  0.42  1.68870933628
0.5  0.44  1.46486452091
0.5  0.46  1.27069118321
0.5  0.48  1.1022562565
0.5  0.5  0.956148016955
0.5  0.52  0.829406977676
0.5  0.54  0.719465942948
0.5  0.56  0.624098008571
0.5  0.58  0.541371454925
0.5  0.6  0.469610619137
0.5  0.62  0.407361953794
0.5  0.64  0.353364584692
0.5  0.66  0.30652477128
0.5  0.68  0.265893752455
0.5  0.7  0.230648528989
0.5  0.72  0.200075193319
0.5  0.74  0.173554469032
0.5  0.76  0.150549167147
0.5  0.78  0.130593305117
0.5  0.8  0.113282668144
0.5  0.82  0.0982666216342
0.5  0.84  0.0852410089345
0.5  0.86  0.0739419905085
0.5  0.88  0.0641406997488
0.5  0.9  0.0556386071835
0.5  0.92  0.0482634991736
0.5  0.94  0.0418659896499
0.5  0.96  0.0363164942322
0.5  0.98  0.0315026054406
0.52  -1  0.0224173561834
0.52  -0.98  0.0258429350573
0.52  -0.96  0.0297919739915
0.52  -0.94  0.0343444625135
0.52  -0.92  0.0395926132882
0.52  -0.9  0.045642729927
0.52  -0.88  0.0526173602137
0.52  -0.86  0.0606577783644
0.52  -0.84  0.069926846599
0.52  -0.82  0.0806123139872
0.52  -0.8  0.0929306193891
0.52  -0.78  0.10713127552
0.52  -0.76  0.123501922939
0.52  -0.74  0.142374156339
0.52  -0.72  0.16413024114
0.52  -0.7  0.189210856447
0.52  -0.68  0.218124021195
0.52  -0.66  0.251455384304
0.52  -0.64  0.289880087251
0.52  -0.62  0.33417643936
0.52  -0.6  0.385241682802
0.52  -0.58  0.44411016663
0.52  -0.56  0.511974297977
0.52  -0.54  0.590208694789
0.52  -0.52  0.680398029317
0.52  -0.5  0.784369126354
0.52  -0.48  0.90422796638
0.52  -0.46  1.04240234312
0.52  -0.44  1.20169103959
0.52  -0.42  1.38532051866
0.52  -0.4  1.59701027652
0.52  -0.38  1.84104818268
0.52  -0.36  2.12237733268
0.52  -0.34  2.44669617269
0.52  -0.32  2.82057392399
0.52  -0.3  3.25158364553
0.52  -0.28  3.74845562953
0.52  -0.26  4.32125423741
0.52  -0.24  4.98158175789
0.52  -0.22  5.74281341647
0.52  -0.2  4.9790640642
0.52  -0.18  4.99154069291
0.52  -0.16  4.94118277534
0.52  -0.14  4.83187443124
0.52  -0.12  4.67240077158
0.52  -0.1  4.47654614351
0.52  -0.08  4.26307895072
0.52  -0.06  4.05526991908
0.52  -0.04  3.87928603542
0.52  -0.02  3.760654582
0.52  6.17561557e-16  3.71868108619
0.52  0.02  3.760654582
0.52  0.04  3.87928603542
0.52  0.06  4.05526991908
0.52  0.08  4.26307895072
0.52  0.1  4.47654614351
0.52  0.12  4.67240077158
0.52  0.14  4.83187443124
0.52  0.16  4.94118277534
0.52  0.18  4.99154069291
0.52  0.2  6.6203682965
0.52  0.22  5.74281341647
0.52  0.24  4.98158175789
0.52  0.26  4.32125423741
0.52  0.28  3.74845562953
0.52  0.3  3.25158364553
0.52  0.32  2.82057392399
0.52  0.34  2.44669617269
0.52  0.36  2.12237733268
0.52  0.38  1.84104818268
0.52  0.4  1.59701027652
0.52  0.42  1.38532051866
0.52  0.44  1.20169103959
0.52  0.46  1.04240234312
0.52  0.48  0.90422796638
0.52  0.5  0.784369126354
0.52  0.52  0.680398029317
0.52  0.54  0.590208694789
0.52  0.56  0.511974297977
0.52  0.58  0.44411016663
0.52  0.6  0.385241682802
0.52  0.62  0.33417643936
0.52  0.64  0.289880087251
0.52  0.66  0.251455384304
0.52  0.68  0.218124021195
0.52  0.7  0.189210856447
0.52  0.72  0.16413024114
0.52  0.74  0.142374156339
0.52  0.76  0.123501922939
0.52  0.78  0.10713127552
0.52  0.8  0.0929306193891
0.52  0.82  0.0806123139872
0.52  0.84  0.069926846599
0.52  0.86  0.0606577783644
0.52  0.88  0.0526173602137
0.52  0.9  0.045642729927
0.52  0.92  0.0395926132882
0.52  0.94  0.0343444625135
0.52  0.96  0.0297919739915
0.52  0.98  0.0258429350573
0.54  -1  0.0183899163863
0.54  -0.98  0.0212000652973
0.54  -0.96  0.0244396308916
0.54  -0.94  0.0281742320008
0.54  -0.92  0.0324795146193
0.54  -0.9  0.0374426841476
0.54  -0.88  0.0431642717759
0.54  -0.86  0.049760170788
0.54  -0.84  0.0573639840306
0.54  -0.82  0.0661297300986
0.54  -0.8  0.0762349630488
0.54  -0.78  0.0878843688367
0.54  -0.76  0.10131391132
0.54  -0.74  0.116795611812
0.54  -0.72  0.134643058992
0.54  -0.7  0.155217760782
0.54  -0.68  0.178936466852
0.54  -0.66  0.206279610067
0.54  -0.64  0.237801037865
0.54  -0.62  0.274139230685
0.54  -0.6  0.316030234667
0.54  -0.58  0.364322570593
0.54  -0.56  0.419994421051
0.54  -0.54  0.484173443953
0.54  -0.52  0.558159613747
0.54  -0.5  0.643451552969
0.54  -0.48  0.741776887509
0.54  -0.46  0.855127240432
0.54  -0.44  0.985798573186
0.54  -0.42  1.13643769131
0.54  -0.4  1.31009585667
0.54  -0.38  1.51029059206
0.54  -0.36  1.74107693026
0.54  -0.34  2.00712955044
0.54  -0.32  2.3138374659
0.54  -0.3  2.66741318089
0.54  -0.28  3.07501852765
0.54  -0.26  3.54490973243
0.54  -0.24  4.08660464908
0.54  -0.22  4.71107554732
0.54  -0.2  4.08453927723
