-0.16  0.66  0.0110387009337
-0.16  0.68  0.00856572255259
-0.16  0.7  0.00664676063685
-0.16  0.72  0.00515769997129
-0.16  0.74  0.00400223062741
-0.16  0.76  0.00310561879988
-0.16  0.78  0.00240987315027
-0.16  0.8  0.00186999402522
-0.16  0.82  0.00145106295489
-0.16  0.84  0.00112598418533
-0.16  0.86  0.000873732170854
-0.16  0.88  0.000677991677261
-0.16  0.9  0.000526102540079
-0.16  0.92  0.000408240826489
-0.16  0.94  0.00031678343995
-0.16  0.96  0.000245815071191
-0.16  0.98  0.000190745606002
-0.14  -1  0.000191833593888
-0.14  -0.98  0.000247217168074
-0.14  -0.96  0.000318590331088
-0.14  -0.94  0.000410569378549
-0.14  -0.92  0.000529103359875
-0.14  -0.9  0.000681858852748
-0.14  -0.88  0.000878715824409
-0.14  -0.86  0.00113240665125
-0.14  -0.84  0.00145933962742
-0.14  -0.82  0.00188066022555
-0.14  -0.8  0.00242361875023
-0.14  -0.78  0.00312333284166
-0.14  -0.76  0.0040250588253
-0.14  -0.74  0.00518711881457
-0.14  -0.72  0.00668467288661
-0.14  -0.7  0.00861458030909
-0.14  -0.68  0.0111016642341
-0.14  -0.66  0.0143067850486
-0.14  -0.64  0.0184372445529
-0.14  -0.62  0.0237601938903
-0.14  -0.6  0.0306199124325
-0.14  -0.58  0.0394600751872
-0.14  -0.56  0.0508524489484
-0.14  -0.54  0.0655338732069
-0.14  -0.52  0.0844539176835
-0.14  -0.5  0.108836298895
-0.14  -0.48  0.140258028071
-0.14  -0.46  0.180751409577
-0.14  -0.44  0.232935486926
-0.14  -0.42  0.300185438091
-0.14  -0.4  0.386850876313
-0.14  -0.38  0.498537175741
-0.14  -0.36  0.64246801756
-0.14  -0.34  0.827952605487
-0.14  -0.32  1.06698776935
-0.14  -0.3  1.37503389975
-0.14  -0.28  1.77201490007
-0.14  -0.26  2.28360683081
-0.14  -0.24  2.94289859385
-0.14  -0.22  3.79253206676
-0.14  -0.2  3.52659864177
-0.14  -0.18  3.55966179744
-0.14  -0.16  3.70289420591
-0.14  -0.14  3.9308010753
-0.14  -0.12  4.2086284052
-0.14  -0.1  4.50157626749
-0.14  -0.08  4.77965570198
-0.14  -0.06  5.01909563154
-0.14  -0.04  5.20219586286
-0.14  -0.02  5.31678862013
-0.14  6.17561557e-16  5.35576549917
-0.14  0.02  5.31678862013
-0.14  0.04  5.20219586286
-0.14  0.06  5.01909563154
-0.14  0.08  4.77965570198
-0.14  0.1  4.50157626749
-0.14  0.12  4.2086284052
-0.14  0.14  3.9308010753
-0.14  0.16  3.70289420591
-0.14  0.18  3.55966179744
-0.14  0.2  4.88746010734
-0.14  0.22  3.79253206676
-0.14  0.24  2.94289859385
-0.14  0.26  2.28360683081
-0.14  0.28  1.77201490007
-0.14  0.3  1.37503389975
-0.14  0.32  1.06698776935
-0.14  0.34  0.827952605486
-0.14  0.36  0.64246801756
-0.14  0.38  0.498537175741
-0.14  0.4  0.386850876313
-0.14  0.42  0.300185438091
-0.14  0.44  0.232935486926
-0.14  0.46  0.180751409577
-0.14  0.48  0.140258028071
-0.14  0.5  0.108836298895
-0.14  0.52  0.0844539176835
-0.14  0.54  0.0655338732069
-0.14  0.56  0.0508524489484
-0.14  0.58  0.0394600751872
-0.14  0.6  0.0306199124325
-0.14  0.62  0.0237601938903
-0.14  0.64  0.0184372445529
-0.14  0.66  0.0143067850486
-0.14  0.68  0.0111016642341
-0.14  0.7  0.00861458030909
-0.14  0.72  0.00668467288661
-0.14  0.74  0.00518711881457
-0.14  0.76  0.0040250588253
-0.14  0.78  0.00312333284166
-0.14  0.8  0.00242361875023
-0.14  0.82  0.00188066022555
-0.14  0.84  0.00145933962742
-0.14  0.86  0.00113240665125
-0.14  0.88  0.000878715824409
-0.14  0.9  0.000681858852747
-0.14  0.92  0.000529103359875
-0.14  0.94  0.000410569378549
-0.14  0.96  0.000318590331088
-0.14  0.98  0.000247217168074
-0.12  -1  0.000248627262334
-0.12  -0.98  0.000320407528496
-0.12  -0.96  0.000412911212365
-0.12  -0.94  0.000532121295953
-0.12  -0.92  0.000685748086095
-0.12  -0.9  0.00088372790407
-0.12  -0.88  0.00113886575007
-0.12  -0.86  0.001467663509
-0.12  -0.84  0.00189138726449
-0.12  -0.82  0.00243744275329
-0.12  -0.8  0.003141147922
-0.12  -0.78  0.00404801723223
-0.12  -0.76  0.00521670545907
-0.12  -0.74  0.00672280138286
-0.12  -0.72  0.00866371674383
-0.12  -0.7  0.0111649866689
-0.12  -0.68  0.0143883890716
-0.12  -0.66  0.0185424081745
-0.12  -0.64  0.0238957189159
-0.12  -0.62  0.0307945643917
-0.12  -0.6  0.0396851502738
-0.12  -0.58  0.0511425046388
-0.12  -0.56  0.0659076698131
-0.12  -0.54  0.0849356317386
-0.12  -0.52  0.10945708685
-0.12  -0.5  0.141058041443
-0.12  -0.48  0.181782391879
-0.12  -0.46  0.234264120352
-0.12  -0.44  0.301897656406
-0.12  -0.42  0.389057422907
-0.12  -0.4  0.501380766319
-0.12  -0.38  0.646132570757
-0.12  -0.36  0.832675138413
-0.12  -0.34  1.07307372746
-0.12  -0.32  1.38287691254
-0.12  -0.3  1.78212224034
-0.12  -0.28  2.29663222426
-0.12  -0.26  2.95968450094
-0.12  -0.24  3.8141641716
-0.12  -0.22  4.91533753793
-0.12  -0.2  4.57067267459
-0.12  -0.18  4.61352440725
-0.12  -0.16  4.79916176551
-0.12  -0.14  5.09454204721
-0.12  -0.12  5.45462208864
-0.12  -0.1  5.83429920115
-0.12  -0.08  6.19470598448
-0.12  -0.06  6.50503376897
-0.12  -0.04  6.74234209606
-0.12  -0.02  6.89086083538
-0.12  6.17561557e-16  6.94137709029
-0.12  0.02  6.89086083538
-0.12  0.04  6.74234209606
-0.12  0.06  6.50503376897
-0.12  0.08  6.19470598448
-0.12  0.1  5.83429920115
-0.12  0.12  5.45462208864
-0.12  0.14  5.09454204721
-0.12  0.16  4.79916176551
-0.12  0.18  4.61352440725
-0.12  0.2  6.33442663314
-0.12  0.22  4.91533753793
-0.12  0.24  3.8141641716
-0.12  0.26  2.95968450094
-0.12  0.28  2.29663222426
-0.12  0.3  1.78212224034
-0.12  0.32  1.38287691254
-0.12  0.34  1.07307372745
-0.12  0.36  0.832675138413
-0.12  0.38  0.646132570757
-0.12  0.4  0.501380766319
-0.12  0.42  0.389057422907
-0.12  0.44  0.301897656406
-0.12  0.46  0.234264120352
-0.12  0.48  0.181782391879
-0.12  0.5  0.141058041443
-0.12  0.52  0.10945708685
-0.12  0.54  0.0849356317386
-0.12  0.56  0.0659076698131
-0.12  0.58  0.0511425046388
-0.12  0.6  0.0396851502738
-0.12  0.62  0.0307945643917
-0.12  0.64  0.0238957189159
-0.12  0.66  0.0185424081745
-0.12  0.68  0.0143883890716
-0.12  0.7  0.0111649866689
-0.12  0.72  0.00866371674382
-0.12  0.74  0.00672280138285
-0.12  0.76  0.00521670545907
-0.12  0.78  0.00404801723223
-0.12  0.8  0.003141147922
-0.12  0.82  0.00243744275329
-0.12  0.84  0.00189138726449
-0.12  0.86  0.001467663509
-0.12  0.88  0.00113886575007
-0.12  0.9  0.00088372790407
-0.12  0.92  0.000685748086095
-0.12  0.94  0.000532121295953
-0.12  0.96  0.000412911212365
-0.12  0.98  0.000320407528496
-0.1  -1  0.00032223509096
-0.1  -0.98  0.000415266403693
-0.1  -0.96  0.000535156445941
-0.1  -0.94  0.000689659503119
-0.1  -0.92  0.000888768571975
-0.1  -0.9  0.00114536169074
-0.1  -0.88  0.00147603486891
-0.1  -0.86  0.00190217548905
-0.1  -0.84  0.00245134560664
-0.1  -0.82  0.00315906461722
-0.1  -0.8  0.0040711065909
-0.1  -0.78  0.0052464608619
-0.1  -0.76  0.00676114735904
-0.1  -0.74  0.00871313344633
-0.1  -0.72  0.0112286702866
-0.1  -0.7  0.0144704585533
-0.1  -0.68  0.0186481716355
-0.1  -0.66  0.0240320169583
-0.1  -0.64  0.0309702125428
-0.1  -0.62  0.0399115091591
-0.1  -0.6  0.0514342147687
-0.1  -0.58  0.0662835985061
-0.1  -0.56  0.0854200934275
-0.1  -0.54  0.110081415699
-0.1  -0.52  0.141862617986
-0.1  -0.5  0.182819254769
-0.1  -0.48  0.235600332128
-0.1  -0.46  0.30361964099
-0.1  -0.44  0.391276555352
-0.1  -0.42  0.504240576364
-0.1  -0.4  0.649818026084
-0.1  -0.38  0.837424608048
-0.1  -0.36  1.07919439907
-0.1  -0.34  1.39076466083
-0.1  -0.32  1.79228723155
-0.1  -0.3  2.30973191285
-0.1  -0.28  2.97656615264
-0.1  -0.26  3.83591966312
-0.1  -0.24  4.94337397772
-0.1  -0.22  6.37055737076
-0.1  -0.2  5.9238520797
-0.1  -0.18  5.97939036557
-0.1  -0.16  6.21998695366
-0.1  -0.14  6.60281662024
-0.1  -0.12  7.06950085999
-0.1  -0.1  7.56158401989
-0.1  -0.08  8.02869173574
-0.1  -0.06  8.43089421717
-0.1  -0.04  8.73845932345
-0.1  -0.02  8.93094806755
-0.1  6.17561557e-16  8.99642001075
-0.1  0.02  8.93094806755
-0.1  0.04  8.73845932345
-0.1  0.06  8.43089421717
-0.1  0.08  8.02869173574
-0.1  0.1  7.56158401989
-0.1  0.12  7.06950085999
-0.1  0.14  6.60281662024
-0.1  0.16  6.21998695366
-0.1  0.18  5.97939036557
-0.1  0.2  8.2097776533
-0.1  0.22  6.37055737076
-0.1  0.24  4.94337397771
-0.1  0.26  3.83591966312
-0.1  0.28  2.97656615264
-0.1  0.3  2.30973191285
-0.1  0.32  1.79228723155
-0.1  0.34  1.39076466083
-0.1  0.36  1.07919439907
-0.1  0.38  0.837424608048
-0.1  0.4  0.649818026084
-0.1  0.42  0.504240576364
-0.1  0.44  0.391276555352
-0.1  0.46  0.30361964099
-0.1  0.48  0.235600332128
-0.1  0.5  0.182819254769
-0.1  0.52  0.141862617986
-0.1  0.54  0.110081415699
-0.1  0.56  0.0854200934275
-0.1  0.58  0.0662835985061
-0.1  0.6  0.0514342147687
-0.1  0.62  0.0399115091591
-0.1  0.64  0.0309702125428
-0.1  0.66  0.0240320169583
-0.1  0.68  0.0186481716355
-0.1  0.7  0.0144704585533
-0.1  0.72  0.0112286702866
-0.1  0.74  0.00871313344633
-0.1  0.76  0.00676114735904
-0.1  0.78  0.0052464608619
-0.1  0.8  0.0040711065909
-0.1  0.82  0.00315906461722
-0.1  0.84  0.00245134560664
-0.1  0.86  0.00190217548905
-0.1  0.88  0.00147603486891
-0.1  0.9  0.00114536169074
-0.1  0.92  0.000888768571975
-0.1  0.94  0.000689659503119
-0.1  0.96  0.000535156445941
-0.1  0.98  0.000415266403692
-0.08  -1  0.000417635028722
-0.08  -0.98  0.000538208908027
-0.08  -0.96  0.000693593230352
-0.08  -0.94  0.000893837991188
-0.08  -0.92  0.00115189468341
-0.08  -0.9  0.00148445397795
-0.08  -0.88  0.00191302524823
-0.08  -0.86  0.00246532776005
-0.08  -0.84  0.00317708350692
-0.08  -0.82  0.00409432764823
-0.08  -0.8  0.00527638598564
-0.08  -0.78  0.00679971205564
-0.08  -0.76  0.00876283201521
-0.08  -0.74  0.0112927171472
-0.08  -0.72  0.0145529961485
-0.08  -0.7  0.0187545383575
-0.08  -0.68  0.024169092427
-0.08  -0.66  0.0311468625678
-0.08  -0.64  0.0401391591658
-0.08  -0.62  0.0517275887749
-0.08  -0.6  0.0666616714469
-0.08  -0.58  0.0859073184222
-0.08  -0.56  0.110709305637
-0.08  -0.54  0.142671783729
-0.08  -0.52  0.183862031788
-0.08  -0.5  0.236944165481
-0.08  -0.48  0.305351447548
-0.08  -0.46  0.393508345438
-0.08  -0.44  0.50711669839
-0.08  -0.42  0.653524502764
-0.08  -0.4  0.842201168034
-0.08  -0.38  1.08534998219
-0.08  -0.36  1.39869739981
-0.08  -0.34  1.80251020254
-0.08  -0.32  2.32290632035
-0.08  -0.3  2.99354409507
-0.08  -0.28  3.85779924511
-0.08  -0.26  4.97157033367
-0.08  -0.24  6.40689419336
-0.08  -0.22  8.25660514685
-0.08  -0.2  7.67764965039
-0.08  -0.18  7.74963043171
-0.08  -0.16  8.06145731151
-0.08  -0.14  8.55762636102
-0.08  -0.12  9.16247571275
-0.08  -0.1  9.80024351142
-0.08  -0.08  10.4056417123
-0.08  -0.06  10.9269190331
-0.08  -0.04  11.3255409262
-0.08  -0.02  11.5750173006
-0.08  6.17561557e-16  11.6598726675
-0.08  0.02  11.5750173006
-0.08  0.04  11.3255409262
-0.08  0.06  10.9269190331
-0.08  0.08  10.4056417123
-0.08  0.1  9.80024351142
-0.08  0.12  9.16247571275
-0.08  0.14  8.55762636102
-0.08  0.16  8.06145731151
-0.08  0.18  7.74963043171
-0.08  0.2  10.6403393741
-0.08  0.22  8.25660514685
-0.08  0.24  6.40689419336
-0.08  0.26  4.97157033367
-0.08  0.28  3.85779924511
-0.08  0.3  2.99354409507
-0.08  0.32  2.32290632035
-0.08  0.34  1.80251020254
-0.08  0.36  1.39869739981
-0.08  0.38  1.08534998219
-0.08  0.4  0.842201168033
-0.08  0.42  0.653524502764
-0.08  0.44  0.50711669839
-0.08  0.46  0.393508345438
-0.08  0.48  0.305351447548
-0.08  0.5  0.236944165481
-0.08  0.52  0.183862031788
-0.08  0.54  0.142671783729
-0.08  0.56  0.110709305637
-0.08  0.58  0.0859073184222
-0.08  0.6  0.0666616714469
-0.08  0.62  0.0517275887749
-0.08  0.64  0.0401391591658
-0.08  0.66  0.0311468625678
-0.08  0.68  0.024169092427
-0.08  0.7  0.0187545383575
-0.08  0.72  0.0145529961485
-0.08  0.74  0.0112927171472
-0.08  0.76  0.00876283201521
-0.08  0.78  0.00679971205563
-0.08  0.8  0.00527638598564
-0.08  0.82  0.00409432764823
-0.08  0.84  0.00317708350692
-0.08  0.86  0.00246532776005
-0.08  0.88  0.00191302524823
-0.08  0.9  0.00148445397795
-0.08  0.92  0.00115189468341
-0.08  0.94  0.000893837991188
-0.08  0.96  0.000693593230352
-0.08  0.98  0.000538208908027
-0.06  -1  0.000541278780956
-0.06  -0.98  0.000697549395049
-0.06  -0.96  0.000898936325702
-0.06  -0.94  0.0011584649394
-0.06  -0.92  0.00149292110849
-0.06  -0.9  0.00192393689301
-0.06  -0.88  0.00247938966582
-0.06  -0.86  0.003195205174
-0.06  -0.84  0.00411768115543
-0.06  -0.82  0.00530648179835
-0.06  -0.8  0.0068384967202
-0.06  -0.78  0.00881281405821
-0.06  -0.76  0.0113571293228
-0.06  -0.74  0.0146360045273
-0.06  -0.72  0.0188615117812
-0.06  -0.7  0.024306949756
-0.06  -0.68  0.0313245201814
-0.06  -0.66  0.0403681076582
-0.06  -0.64  0.0520226361479
-0.06  -0.62  0.0670419008662
-0.06  -0.6  0.0863973224843
-0.06  -0.58  0.111340776977
-0.06  -0.56  0.143485564846
-0.06  -0.54  0.184910756671
-0.06  -0.52  0.238295663883
-0.06  -0.5  0.307093132103
-0.06  -0.48  0.395752865361
-0.06  -0.46  0.510009225438
-0.06  -0.44  0.657252120701
-0.06  -0.42  0.84700497289
-0.06  -0.4  1.09154067595
-0.06  -0.38  1.40667538609
-0.06  -0.36  1.81279148401
-0.06  -0.34  2.33615587293
-0.06  -0.32  3.01061887744
-0.06  -0.3  3.87980362536
-0.06  -0.28  4.99992751794
-0.06  -0.26  6.44343827642
-0.06  -0.24  8.30369973827
-0.06  -0.22  10.7010304725
-0.06  -0.2  9.95067117833
-0.06  -0.18  10.0439623701
-0.06  -0.16  10.4481077645
-0.06  -0.14  11.0911711087
-0.06  -0.12  11.8750903139
-0.06  -0.1  12.701673701
-0.06  -0.08  13.4863042459
-0.06  -0.06  14.1619093397
-0.06  -0.04  14.6785460142
-0.06  -0.02  15.0018816026
-0.06  6.17561557e-16  15.1118589905
-0.06  0.02  15.0018816026
-0.06  0.04  14.6785460142
-0.06  0.06  14.1619093397
-0.06  0.08  13.4863042459
-0.06  0.1  12.701673701
-0.06  0.12  11.8750903139
-0.06  0.14  11.0911711087
-0.06  0.16  10.4481077645
-0.06  0.18  10.0439623701
-0.06  0.2  13.7904857812
-0.06  0.22  10.7010304724
-0.06  0.24  8.30369973827
-0.06  0.26  6.44343827642
-0.06  0.28  4.99992751794
-0.06  0.3  3.87980362536
-0.06  0.32  3.01061887744
-0.06  0.34  2.33615587293
-0.06  0.36  1.81279148401
-0.06  0.38  1.40667538609
-0.06  0.4  1.09154067595
-0.06  0.42  0.84700497289
-0.06  0.44  0.657252120701
-0.06  0.46  0.510009225438
-0.06  0.48  0.395752865361
-0.06  0.5  0.307093132103
-0.06  0.52  0.238295663883
-0.06  0.54  0.184910756671
-0.06  0.56  0.143485564846
-0.06  0.58  0.111340776977
-0.06  0.6  0.0863973224843
-0.06  0.62  0.0670419008662
-0.06  0.64  0.0520226361479
-0.06  0.66  0.0403681076582
-0.06  0.68  0.0313245201814
-0.06  0.7  0.024306949756
-0.06  0.72  0.0188615117812
-0.06  0.74  0.0146360045273
-0.06  0.76  0.0113571293228
-0.06  0.78  0.00881281405821
-0.06  0.8  0.0068384967202
-0.06  0.82  0.00530648179835
-0.06  0.84  0.00411768115543
-0.06  0.86  0.00319520517399
-0.06  0.88  0.00247938966582
-0.06  0.9  0.00192393689301
-0.06  0.92  0.00149292110849
-0.06  0.94  0.0011584649394
-0.06  0.96  0.000898936325702
-0.06  0.98  0.000697549395049
-0.04  -1  0.000701528125189
-0.04  -0.98  0.000904063740447
-0.04  -0.96  0.00116507267128
-0.04  -0.94  0.00150143653443
-0.04  -0.92  0.00193491077638
-0.04  -0.9  0.00249353177886
-0.04  -0.88  0.00321343020468
-0.04  -0.86  0.00414116786797
-0.04  -0.84  0.00533674927363
-0.04  -0.82  0.00687750260739
-0.04  -0.8  0.00886308119221
-0.04  -0.78  0.0114219088969
-0.04  -0.76  0.0147194863749
-0.04  -0.74  0.0189690953674
-0.04  -0.72  0.0244455934052
-0.04  -0.7  0.0315031911307
-0.04  -0.68  0.0405983620428
-0.04  -0.66  0.0523193664324
-0.04  -0.64  0.0674242990642
-0.04  -0.62  0.0868901214652
-0.04  -0.6  0.111975850146
-0.04  -0.58  0.144303987664
-0.04  -0.56  0.185965463343
-0.04  -0.54  0.239654871055
-0.04  -0.52  0.308844750998
-0.04  -0.5  0.398010187731
-0.04  -0.48  0.51291825108
-0.04  -0.46  0.66100100048
-0.04  -0.44  0.851836178018
-0.04  -0.42  1.09776668062
-0.04  -0.4  1.41469887775
-0.04  -0.38  1.82313140857
-0.04  -0.36  2.34948099923
-0.04  -0.34  3.02779105214
-0.04  -0.32  3.90193351571
-0.04  -0.3  5.02844644786
-0.04  -0.28  6.48019080214
-0.04  -0.26  8.35106295106
-0.04  -0.24  10.7620677449
-0.04  -0.22  13.869144901
-0.04  -0.2  12.8966365239
-0.04  -0.18  13.0175472213
-0.04  -0.16  13.5413426679
-0.04  -0.14  14.3747893836
-0.04  -0.12  15.3907933166
-0.04  -0.1  16.462092459
-0.04  -0.08  17.4790183289
-0.04  -0.06  18.3546410052
-0.04  -0.04  19.024231557
-0.04  -0.02  19.4432928932
-0.04  6.17561557e-16  19.585829851
-0.04  0.02  19.4432928932
-0.04  0.04  19.024231557
-0.04  0.06  18.3546410052
-0.04  0.08  17.4790183289
-0.04  0.1  16.462092459
-0.04  0.12  15.3907933166
-0.04  0.14  14.3747893836
-0.04  0.16  13.5413426679
-0.04  0.18  13.0175472213
-0.04  0.2  17.8732549214
-0.04  0.22  13.869144901
-0.04  0.24  10.7620677449
-0.04  0.26  8.35106295106
-0.04  0.28  6.48019080214
-0.04  0.3  5.02844644786
-0.04  0.32  3.9019335157
-0.04  0.34  3.02779105214
-0.04  0.36  2.34948099923
-0.04  0.38  1.82313140857
-0.04  0.4  1.41469887775
-0.04  0.42  1.09776668062
-0.04  0.44  0.851836178018
-0.04  0.46  0.66100100048
-0.04  0.48  0.51291825108
-0.04  0.5  0.398010187731
-0.04  0.52  0.308844750998
-0.04  0.54  0.239654871055
-0.04  0.56  0.185965463343
-0.04  0.58  0.144303987664
-0.04  0.6  0.111975850146
-0.04  0.62  0.0868901214652
-0.04  0.64  0.0674242990641
-0.04  0.66  0.0523193664324
-0.04  0.68  0.0405983620427
-0.04  0.7  0.0315031911307
-0.04  0.72  0.0244455934052
-0.04  0.74  0.0189690953673
-0.04  0.76  0.0147194863749
-0.04  0.78  0.0114219088969
-0.04  0.8  0.00886308119221
-0.04  0.82  0.00687750260739
-0.04  0.84  0.00533674927363
-0.04  0.86  0.00414116786797
-0.04  0.88  0.00321343020468
-0.04  0.9  0.00249353177886
-0.04  0.92  0.00193491077638
-0.04  0.94  0.00150143653443
-0.04  0.96  0.00116507267128
-0.04  0.98  0.000904063740447
-0.02  -1  0.000909220401292
-0.02  -0.98  0.00117171809279
-0.02  -0.96  0.00151000053124
-0.02  -0.94  0.00194594725333
-0.02  -0.92  0.00250775455665
-0.02  -0.9  0.00323175918855
-0.02  -0.88  0.00416478854563
-0.02  -0.86  0.00536718939061
-0.02  -0.84  0.00691673097904
-0.02  -0.82  0.00891363504335
-0.02  -0.8  0.0114870579652
-0.02  -0.78  0.0148034443921
-0.02  -0.76  0.0190772925961
-0.02  -0.74  0.0245850278596
-0.02  -0.72  0.0316828811956
-0.02  -0.7  0.0408299297681
-0.02  -0.68  0.0526177892274
-0.02  -0.66  0.0678088784112
-0.02  -0.64  0.0873857313068
-0.02  -0.62  0.11261454569
-0.02  -0.6  0.145127078658
-0.02  -0.58  0.187026185923
-0.02  -0.56  0.241021830966
-0.02  -0.54  0.310606360897
-0.02  -0.52  0.400280385571
-0.02  -0.5  0.515843869423
-0.02  -0.48  0.664771263378
-0.02  -0.46  0.856694939706
-0.02  -0.44  1.10402819759
-0.02  -0.42  1.42276813436
-0.02  -0.4  1.83353031069
-0.02  -0.38  2.36288213029
-0.02  -0.36  3.04506117466
-0.02  -0.34  3.92418963204
-0.02  -0.32  5.05712804602
-0.02  -0.3  6.51715295943
-0.02  -0.28  8.39869631739
-0.02  -0.26  10.8234531659
-0.02  -0.24  13.9482526821
-0.02  -0.22  17.9752016202
-0.02  -0.2  16.7147753805
-0.02  -0.18  16.8714825299
-0.02  -0.16  17.5503512581
-0.02  -0.14  18.6305456654
-0.02  -0.12  19.9473446225
-0.02  -0.1  21.3358093201
-0.02  -0.08  22.6538031599
-0.02  -0.06  23.7886600139
-0.02  -0.04  24.6564875013
-0.02  -0.02  25.1996148579
-0.02  6.17561557e-16  25.3843508725
-0.02  0.02  25.1996148579
-0.02  0.04  24.6564875013
-0.02  0.06  23.7886600139
-0.02  0.08  22.6538031599
-0.02  0.1  21.3358093201
-0.02  0.12  19.9473446225
-0.02  0.14  18.6305456654
-0.02  0.16  17.5503512581
-0.02  0.18  16.8714825299
-0.02  0.2  23.164756235
-0.02  0.22  17.9752016202
-0.02  0.24  13.9482526821
-0.02  0.26  10.8234531659
-0.02  0.28  8.39869631738
-0.02  0.3  6.51715295943
-0.02  0.32  5.05712804602
-0.02  0.34  3.92418963204
-0.02  0.36  3.04506117466
-0.02  0.38  2.36288213029
-0.02  0.4  1.83353031069
-0.02  0.42  1.42276813436
-0.02  0.44  1.10402819759
-0.02  0.46  0.856694939706
-0.02  0.48  0.664771263378
-0.02  0.5  0.515843869423
-0.02  0.52  0.400280385571
-0.02  0.54  0.310606360897
-0.02  0.56  0.241021830966
-0.02  0.58  0.187026185923
-0.02  0.6  0.145127078658
-0.02  0.62  0.11261454569
-0.02  0.64  0.0873857313068
-0.02  0.66  0.0678088784112
-0.02  0.68  0.0526177892274
-0.02  0.7  0.0408299297681
-0.02  0.72  0.0316828811956
-0.02  0.74  0.0245850278596
-0.02  0.76  0.0190772925961
-0.02  0.78  0.0148034443921
-0.02  0.8  0.0114870579652
-0.02  0.82  0.00891363504334
-0.02  0.84  0.00691673097904
-0.02  0.86  0.00536718939061
-0.02  0.88  0.00416478854563
-0.02  0.9  0.00323175918855
-0.02  0.92  0.00250775455665
-0.02  0.94  0.00194594725333
-0.02  0.96  0.00151000053124
-0.02  0.98  0.00117171809279
2.8449465e-16  -1  0.00117840141891
2.8449465e-16  -0.98  0.00151861337596
2.8449465e-16  -0.96  0.00195704668091
2.8449465e-16  -0.94  0.0025220584593
2.8449465e-16  -0.92  0.00325019271854
2.8449465e-16  -0.9  0.00418854395253
2.8449465e-16  -0.88  0.00539780313403
2.8449465e-16  -0.86  0.00695618310418
2.8449465e-16  -0.84  0.00896447724701
2.8449465e-16  -0.82  0.0115525786352
2.8449465e-16  -0.8  0.0148878812948
2.8449465e-16  -0.78  0.0191861069677
2.8449465e-16  -0.76  0.0247252576297
2.8449465e-16  -0.74  0.031863596189
2.8449465e-16  -0.72  0.0410628183253
2.8449465e-16  -0.7  0.0529179141869
2.8449465e-16  -0.68  0.0681956513483
2.8449465e-16  -0.66  0.0878841680418
2.8449465e-16  -0.64  0.113256884269
2.8449465e-16  -0.62  0.145954864455
2.8449465e-16  -0.6  0.188092958725
2.8449465e-16  -0.58  0.242396587836
2.8449465e-16  -0.56  0.312378018788
2.8449465e-16  -0.54  0.402563532321
2.8449465e-16  -0.52  0.518786175109
2.8449465e-16  -0.5  0.66856303136
2.8449465e-16  -0.48  0.861581415133
2.8449465e-16  -0.46  1.11032542944
2.8449465e-16  -0.44  1.43088341694
2.8449465e-16  -0.42  1.84398852678
2.8449465e-16  -0.4  2.37635969964
2.8449465e-16  -0.38  3.06242980369
2.8449465e-16  -0.36  3.94657269434
2.8449465e-16  -0.34  5.08597324024
2.8449465e-16  -0.32  6.55432594402
2.8449465e-16  -0.3  8.44660137818
2.8449465e-16  -0.28  10.8851887214
2.8449465e-16  -0.26  14.0278116836
2.8449465e-16  -0.24  18.0777298095
2.8449465e-16  -0.22  23.2968849624
2.8449465e-16  -0.2  21.6633007762
2.8449465e-16  -0.18  21.8664021662
2.8449465e-16  -0.16  22.7462546985
2.8449465e-16  -0.14  24.1462481659
2.8449465e-16  -0.12  25.8528946042
2.8449465e-16  -0.1  27.6524239234
2.8449465e-16  -0.08  29.3606189977
2.8449465e-16  -0.06  30.8314581089
2.8449465e-16  -0.04  31.9562119543
2.8449465e-16  -0.02  32.6601359387
2.8449465e-16  6.17561557e-16  32.8995643341
2.8449465e-16  0.02  32.6601359387
2.8449465e-16  0.04  31.9562119543
2.8449465e-16  0.06  30.8314581089
2.8449465e-16  0.08  29.3606189977
2.8449465e-16  0.1  27.6524239234
2.8449465e-16  0.12  25.8528946042
2.8449465e-16  0.14  24.1462481659
2.8449465e-16  0.16  22.7462546985
2.8449465e-16  0.18  21.8664021662
2.8449465e-16  0.2  30.0228432811
2.8449465e-16  0.22  23.2968849624
2.8449465e-16  0.24  18.0777298095
2.8449465e-16  0.26  14.0278116836
2.8449465e-16  0.28  10.8851887214
2.8449465e-16  0.3  8.44660137818
2.8449465e-16  0.32  6.55432594402
2.8449465e-16  0.34  5.08597324024
2.8449465e-16  0.36  3.94657269434
2.8449465e-16  0.38  3.06242980369
2.8449465e-16  0.4  2.37635969964
2.8449465e-16  0.42  1.84398852678
2.8449465e-16  0.44  1.43088341694
2.8449465e-16  0.46  1.11032542944
2.8449465e-16  0.48  0.861581415133
2.8449465e-16  0.5  0.66856303136
2.8449465e-16  0.52  0.518786175109
2.8449465e-16  0.54  0.402563532321
2.8449465e-16  0.56  0.312378018788
2.8449465e-16  0.58  0.242396587836
2.8449465e-16  0.6  0.188092958725
2.8449465e-16  0.62  0.145954864455
2.8449465e-16  0.64  0.113256884269
2.8449465e-16  0.66  0.0878841680418
2.8449465e-16  0.68  0.0681956513483
2.8449465e-16  0.7  0.0529179141869
2.8449465e-16  0.72  0.0410628183253
2.8449465e-16  0.74  0.031863596189
2.8449465e-16  0.76  0.0247252576297
2.8449465e-16  0.78  0.0191861069677
2.8449465e-16  0.8  0.0148878812948
2.8449465e-16  0.82  0.0115525786352
2.8449465e-16  0.84  0.00896447724701
2.8449465e-16  0.86  0.00695618310417
2.8449465e-16  0.88  0.00539780313403
2.8449465e-16  0.9  0.00418854395253
2.8449465e-16  0.92  0.00325019271854
2.8449465e-16  0.94  0.0025220584593
2.8449465e-16  0.96  0.00195704668091
2.8449465e-16  0.98  0.00151861337596
0.02  -1  0.00147078266027
0.02  -0.98  0.0018954069345
0.02  -0.96  0.0024426229275
0.02  -0.94  0.00314782364533
0.02  -0.92  0.00405662027919
0.02  -0.9  0.0052277922602
0.02  -0.88  0.00673708901373
0.02  -0.86  0.00868212930427
0.02  -0.84  0.0111887150522
0.02  -0.82  0.0144189679896
0.02  -0.8  0.0185818154198
0.02  -0.78  0.0239465032827
0.02  -0.76  0.030860010527
0.02  -0.74  0.0397694911231
0.02  -0.72  0.0512511952257
0.02  -0.7  0.0660477400613
0.02  -0.68  0.0851161411551
0.02  -0.66  0.109689710479
0.02  -0.64  0.141357824988
0.02  -0.62  0.182168724832
0.02  -0.6  0.234761990077
0.02  -0.58  0.302539264276
0.02  -0.56  0.389884267035
0.02  -0.54  0.502446325587
0.02  -0.52  0.647505763737
0.02  -0.5  0.834444780909
0.02  -0.48  1.07535427695
0.02  -0.46  1.38581587113
0.02  -0.44  1.7859096949
0.02  -0.42  2.30151314095
0.02  -0.4  2.96597456921
0.02  -0.38  3.82227022244
0.02  -0.36  4.92578385701
0.02  -0.34  6.34788887074
0.02  -0.32  8.18056461368
0.02  -0.3  10.5423454571
0.02  -0.28  13.5859873964
0.02  -0.26  17.5083480508
0.02  -0.24  22.5631190818
0.02  -0.22  29.077234541
0.02  -0.2  27.0383306016
0.02  -0.18  27.2918248676
0.02  -0.16  28.3899836337
0.02  -0.14  30.1373390622
0.02  -0.12  32.2674332291
0.02  -0.1  34.5134560842
0.02  -0.08  36.6454831298
0.02  -0.06  38.4812621997
0.02  -0.04  39.8850864197
0.02  -0.02  40.7636658019
0.02  6.17561557e-16  41.0625004151
0.02  0.02  40.7636658019
0.02  0.04  39.8850864197
0.02  0.06  38.4812621997
0.02  0.08  36.6454831298
0.02  0.1  34.5134560842
0.02  0.12  32.2674332291
0.02  0.14  30.1373390622
0.02  0.16  28.3899836337
0.02  0.18  27.2918248676
0.02  0.2  37.4720164126
0.02  0.22  29.077234541
0.02  0.24  22.5631190818
0.02  0.26  17.5083480508
0.02  0.28  13.5859873964
0.02  0.3  10.5423454571
0.02  0.32  8.18056461368
0.02  0.34  6.34788887074
0.02  0.36  4.92578385701
0.02  0.38  3.82227022244
0.02  0.4  2.96597456921
0.02  0.42  2.30151314095
0.02  0.44  1.7859096949
0.02  0.46  1.38581587113
0.02  0.48  1.07535427695
0.02  0.5  0.834444780909
0.02  0.52  0.647505763737
0.02  0.54  0.502446325586
0.02  0.56  0.389884267035
0.02  0.58  0.302539264276
0.02  0.6  0.234761990077
0.02  0.62  0.182168724832
0.02  0.64  0.141357824988
0.02  0.66  0.109689710479
0.02  0.68  0.0851161411551
0.02  0.7  0.0660477400613
0.02  0.72  0.0512511952257
0.02  0.74  0.0397694911231
0.02  0.76  0.030860010527
0.02  0.78  0.0239465032827
0.02  0.8  0.0185818154198
0.02  0.82  0.0144189679896
0.02  0.84  0.0111887150522
0.02  0.86  0.00868212930427
0.02  0.88  0.00673708901373
0.02  0.9  0.0052277922602
0.02  0.92  0.00405662027919
0.02  0.94  0.00314782364533
0.02  0.96  0.0024426229275
0.02  0.98  0.0018954069345
0.04  -1  0.00173281508019
0.04  -0.98  0.00223308977452
0.04  -0.96  0.0028777969433
0.04  -0.94  0.00370863515715
0.04  -0.92  0.00477934162827
0.04  -0.9  0.00615916784258
0.04  -0.88  0.00793735862878
0.04  -0.86  0.0102289243632
0.04  -0.84  0.0131820796465
0.04  -0.82  0.0169878295741
0.04  -0.8  0.0218923236223
0.04  -0.78  0.0282127761816
0.04  -0.76  0.0363579834469
0.04  -0.74  0.046854763665
0.04  -0.72  0.0603820308491
0.04  -0.7  0.0778147057904
0.04  -0.68  0.100280304456
0.04  -0.66  0.129231863819
0.04  -0.64  0.166541921834
0.04  -0.62  0.214623630027
0.04  -0.6  0.276586832065
0.04  -0.58  0.356439203186
0.04  -0.56  0.459345459867
0.04  -0.54  0.591961404958
0.04  -0.52  0.762864413771
0.04  -0.5  0.983108204225
0.04  -0.48  1.26693777265
0.04  -0.46  1.63271073607
0.04  -0.44  2.1040846719
0.04  -0.42  2.71154725006
0.04  -0.4  3.49438812397
0.04  -0.38  4.50324011896
0.04  -0.36  5.80335407789
0.04  -0.34  7.47881917547
0.04  -0.32  9.63800166398
0.04  -0.3  12.4205538195
0.04  -0.28  16.006446415
0.04  -0.26  20.6276089263
0.04  -0.24  26.5829303385
0.04  -0.22  34.2575907806
0.04  -0.2  31.8554387914
0.04  -0.18  32.1540952133
0.04  -0.16  33.4479002885
0.04  -0.14  35.506561924
0.04  -0.12  38.0161504543
0.04  -0.1  40.6623213528
0.04  -0.08  43.1741871204
0.04  -0.06  45.33702582
0.04  -0.04  46.9909532453
0.04  -0.02  48.0260590047
0.04  6.17561557e-16  48.3781335418
0.04  0.02  48.0260590047
0.04  0.04  46.9909532453
0.04  0.06  45.33702582
0.04  0.08  43.1741871204
0.04  0.1  40.6623213528
0.04  0.12  38.0161504543
0.04  0.14  35.506561924
0.04  0.16  33.4479002885
0.04  0.18  32.1540952133
0.04  0.2  44.147974326
0.04  0.22  34.2575907806
0.04  0.24  26.5829303384
0.04  0.26  20.6276089263
0.04  0.28  16.006446415
0.04  0.3  12.4205538195
0.04  0.32  9.63800166398
0.04  0.34  7.47881917547
0.04  0.36  5.80335407789
0.04  0.38  4.50324011895
0.04  0.4  3.49438812397
0.04  0.42  2.71154725006
0.04  0.44  2.1040846719
0.04  0.46  1.63271073607
0.04  0.48  1.26693777265
0.04  0.5  0.983108204225
0.04  0.52  0.762864413771
0.04  0.54  0.591961404958
0.04  0.56  0.459345459867
0.04  0.58  0.356439203186
0.04  0.6  0.276586832065
0.04  0.62  0.214623630027
0.04  0.64  0.166541921834
0.04  0.66  0.129231863819
0.04  0.68  0.100280304456
0.04  0.7  0.0778147057903
0.04  0.72  0.0603820308491
0.04  0.74  0.046854763665
0.04  0.76  0.0363579834468
0.04  0.78  0.0282127761816
0.04  0.8  0.0218923236223
0.04  0.82  0.016987829574
0.04  0.84  0.0131820796465
0.04  0.86  0.0102289243632
0.04  0.88  0.00793735862878
0.04  0.9  0.00615916784258
0.04  0.92  0.00477934162827
0.04  0.94  0.00370863515714
0.04  0.96  0.0028777969433
0.04  0.98  0.00223308977452
0.06  -1  0.00195909177842
0.06  -0.98  0.00252469398942
0.06  -0.96  0.0032535891429
0.06  -0.94  0.00419292094614
0.06  -0.92  0.00540344379342
0.06  -0.9  0.00696345225768
0.06  -0.88  0.0089738450512
0.06  -0.86  0.0115646509839
0.06  -0.84  0.014903439007
0.06  -0.82  0.0192061562899
0.06  -0.8  0.0247510953184
0.06  -0.78  0.0318968933821
0.06  -0.76  0.041105728629
0.06  -0.74  0.0529732129672
0.06  -0.72  0.068266915237
0.06  -0.7  0.0879760062667
0.06  -0.68  0.113375236771
0.06  -0.66  0.146107386075
0.06  -0.64  0.188289514303
0.06  -0.62  0.242649890255
0.06  -0.6  0.312704451221
0.06  -0.58  0.402984207866
0.06  -0.56  0.519328302348
0.06  -0.54  0.669261674169
0.06  -0.52  0.862481760548
0.06  -0.5  1.11148571028
0.06  -0.48  1.43237867822
0.06  -0.46  1.84591547946
0.06  -0.44  2.37884297577
0.06  -0.42  3.06563001737
0.06  -0.4  3.95069682999
0.06  -0.38  5.09128803999
0.06  -0.36  6.56117516013
0.06  -0.34  8.45542800639
0.06  -0.32  10.8965636531
0.06  -0.3  14.0424706302
0.06  -0.28  18.0966208869
0.06  -0.26  23.3212300135
0.06  -0.24  30.0542169027
0.06  -0.22  38.7310597732
0.06  -0.2  36.0152268684
0.06  -0.18  36.3528828292
0.06  -0.16  37.8156372308
0.06  -0.14  40.1431256806
0.06  -0.12  42.9804245436
0.06  -0.1  45.9721411502
0.06  -0.08  48.8120146197
0.06  -0.06  51.2572839176
0.06  -0.04  53.1271866313
0.06  -0.02  54.2974599088
0.06  6.17561557e-16  54.6955094981
0.06  0.02  54.2974599088
0.06  0.04  53.1271866313
0.06  0.06  51.2572839176
0.06  0.08  48.8120146197
0.06  0.1  45.9721411502
0.06  0.12  42.9804245436
0.06  0.14  40.1431256806
0.06  0.16  37.8156372308
0.06  0.18  36.3528828292
0.06  0.2  49.9129621647
0.06  0.22  38.7310597732
0.06  0.24  30.0542169027
0.06  0.26  23.3212300134
0.06  0.28  18.0966208869
0.06  0.3  14.0424706302
0.06  0.32  10.8965636531
0.06  0.34  8.45542800639
0.06  0.36  6.56117516013
0.06  0.38  5.09128803999
0.06  0.4  3.95069682999
0.06  0.42  3.06563001737
0.06  0.44  2.37884297577
0.06  0.46  1.84591547946
0.06  0.48  1.43237867822
0.06  0.5  1.11148571028
0.06  0.52  0.862481760548
0.06  0.54  0.669261674169
0.06  0.56  0.519328302348
0.06  0.58  0.402984207866
0.06  0.6  0.31270445122
0.06  0.62  0.242649890255
0.06  0.64  0.188289514303
0.06  0.66  0.146107386075
0.06  0.68  0.113375236771
0.06  0.7  0.0879760062667
0.06  0.72  0.068266915237
0.06  0.74  0.0529732129672
0.06  0.76  0.041105728629
0.06  0.78  0.0318968933821
0.06  0.8  0.0247510953184
0.06  0.82  0.0192061562899
0.06  0.84  0.014903439007
0.06  0.86  0.0115646509839
0.06  0.88  0.0089738450512
0.06  0.9  0.00696345225768
0.06  0.92  0.00540344379342
0.06  0.94  0.00419292094614
0.06  0.96  0.0032535891429
0.06  0.98  0.00252469398942
0.08  -1  0.00214494365509
0.08  -0.98  0.00276420248062
0.08  -0.96  0.00356224525326
0.08  -0.94  0.00459068803147
0.08  -0.92  0.0059160487569
0.08  -0.9  0.00762404952245
0.08  -0.88  0.00982516093244
0.08  -0.86  0.0126617471547
0.08  -0.84  0.0163172737946
0.08  -0.82  0.02102817414
0.08  -0.8  0.0270991412678
0.08  -0.78  0.0349228350764
0.08  -0.76  0.0450052788656
0.08  -0.74  0.0579985880681
0.08  -0.72  0.0747431479748
0.08  -0.7  0.0963219684352
0.08  -0.68  0.124130731105
0.08  -0.66  0.15996805978
0.08  -0.64  0.206151852341
0.08  -0.62  0.265669198476
0.08  -0.6  0.342369579595
0.08  -0.58  0.441213846787
0.08  -0.56  0.568595080284
0.08  -0.54  0.732752083094
0.08  -0.52  0.944302252862
0.08  -0.5  1.21692829722
0.08  -0.48  1.56826320818
0.08  -0.46  2.02103073431
0.08  -0.44  2.60451511438
0.08  -0.42  3.35645513246
0.08  -0.4  4.32548499874
0.08  -0.38  5.57427992805
0.08  -0.36  7.18360986695
0.08  -0.34  9.25756355738
0.08  -0.32  11.9302808207
0.08  -0.3  15.3746284946
0.08  -0.28  19.8133811686
0.08  -0.26  25.5336298674
0.08  -0.24  32.9053506143
0.08  -0.22  42.4053338546
0.08  -0.2  39.4318598083
0.08  -0.18  39.801547956
0.08  -0.16  41.4030685214
0.08  -0.14  43.9513572936
0.08  -0.12  47.0578203297
0.08  -0.1  50.3333501562
0.08  -0.08  53.4426320423
0.08  -0.06  56.1198751011
0.08  -0.04  58.167168651
0.08  -0.02  59.448461477
0.08  6.17561557e-16  59.884272576
0.08  0.02  59.448461477
0.08  0.04  58.167168651
0.08  0.06  56.1198751011
0.08  0.08  53.4426320423
0.08  0.1  50.3333501562
0.08  0.12  47.0578203297
0.08  0.14  43.9513572936
0.08  0.16  41.4030685214
0.08  0.18  39.801547956
0.08  0.2  54.6480224569
0.08  0.22  42.4053338546
0.08  0.24  32.9053506142
0.08  0.26  25.5336298674
0.08  0.28  19.8133811686
0.08  0.3  15.3746284946
0.08  0.32  11.9302808207
0.08  0.34  9.25756355737
0.08  0.36  7.18360986695
0.08  0.38  5.57427992805
0.08  0.4  4.32548499874
0.08  0.42  3.35645513246
0.08  0.44  2.60451511438
0.08  0.46  2.02103073431
0.08  0.48  1.56826320818
0.08  0.5  1.21692829722
0.08  0.52  0.944302252862
0.08  0.54  0.732752083094
0.08  0.56  0.568595080284
0.08  0.58  0.441213846787
0.08  0.6  0.342369579595
0.08  0.62  0.265669198476
0.08  0.64  0.206151852341
0.08  0.66  0.15996805978
0.08  0.68  0.124130731105
0.08  0.7  0.0963219684352
0.08  0.72  0.0747431479748
0.08  0.74  0.0579985880681
0.08  0.76  0.0450052788656
0.08  0.78  0.0349228350764
0.08  0.8  0.0270991412678
0.08  0.82  0.02102817414
0.08  0.84  0.0163172737946
0.08  0.86  0.0126617471547
0.08  0.88  0.00982516093244
0.08  0.9  0.00762404952245
0.08  0.92  0.0059160487569
0.08  0.94  0.00459068803147
0.08  0.96  0.00356224525326
0.08  0.98  0.00276420248062
0.1  -1  0.00228653575515
0.1  -0.98  0.00294667311722
0.1  -0.96  0.00379739631894
0.1  -0.94  0.00489372869995
0.1  -0.92  0.00630657918671
0.1  -0.9  0.00812732856209
0.1  -0.88  0.0104737398201
0.1  -0.86  0.0134975748772
0.1  -0.84  0.0173944102771
0.1  -0.82  0.0224162867507
0.1  -0.8  0.0288880107855
0.1  -0.78  0.0372281625598
0.1  -0.76  0.0479761690021
0.1  -0.74  0.0618271930133
0.1  -0.72  0.0796770954291
0.1  -0.7  0.102680377786
0.1  -0.68  0.132324853528
0.1  -0.66  0.170527877271
0.1  -0.64  0.219760356058
0.1  -0.62  0.283206563452
0.1  -0.6  0.364970092973
0.1  -0.58  0.470339271594
0.1  -0.56  0.606129199798
0.1  -0.54  0.781122540761
0.1  -0.52  1.00663756818
0.1  -0.5  1.29726021307
0.1  -0.48  1.6717874572
0.1  -0.46  2.15444309005
0.1  -0.44  2.77644446264
0.1  -0.42  3.57802157307
0.1  -0.4  4.61101907479
0.1  -0.38  5.94224950126
0.1  -0.36  7.65781458773
0.1  -0.34  9.86867418604
0.1  -0.32  12.7178229604
0.1  -0.3  16.3895390406
0.1  -0.28  21.1213028206
0.1  -0.26  27.2191567886
0.1  -0.24  35.0774998386
0.1  -0.22  45.2045963247
0.1  -0.2  42.0348371995
0.1  -0.18  42.4289292148
0.1  -0.16  44.1361694152
0.1  -0.14  46.8526759203
0.1  -0.12  50.1642029094
0.1  -0.1  53.6559571322
0.1  -0.08  56.9704890494
0.1  -0.06  59.8244623763
0.1  -0.04  62.0069019438
0.1  -0.02  63.3727755193
0.1  6.17561557e-16  63.8373553968
0.1  0.02  63.3727755193
0.1  0.04  62.0069019438
0.1  0.06  59.8244623763
0.1  0.08  56.9704890494
0.1  0.1  53.6559571322
0.1  0.12  50.1642029094
0.1  0.14  46.8526759203
0.1  0.16  44.1361694152
0.1  0.18  42.4289292148
0.1  0.2  58.2554497407
0.1  0.22  45.2045963247
0.1  0.24  35.0774998386
0.1  0.26  27.2191567886
0.1  0.28  21.1213028206
0.1  0.3  16.3895390406
0.1  0.32  12.7178229604
0.1  0.34  9.86867418604
0.1  0.36  7.65781458773
0.1  0.38  5.94224950126
0.1  0.4  4.61101907479
0.1  0.42  3.57802157307
0.1  0.44  2.77644446264
0.1  0.46  2.15444309005
0.1  0.48  1.6717874572
0.1  0.5  1.29726021307
0.1  0.52  1.00663756818
0.1  0.54  0.781122540761
0.1  0.56  0.606129199798
0.1  0.58  0.470339271594
0.1  0.6  0.364970092973
0.1  0.62  0.283206563452
0.1  0.64  0.219760356058
0.1  0.66  0.170527877271
0.1  0.68  0.132324853528
0.1  0.7  0.102680377786
0.1  0.72  0.0796770954291
0.1  0.74  0.0618271930133
0.1  0.76  0.0479761690021
0.1  0.78  0.0372281625598
0.1  0.8  0.0288880107855
0.1  0.82  0.0224162867507
0.1  0.84  0.0173944102771
0.1  0.86  0.0134975748772
0.1  0.88  0.0104737398201
0.1  0.9  0.00812732856209
0.1  0.92  0.00630657918671
0.1  0.94  0.00489372869995
0.1  0.96  0.00379739631894
0.1  0.98  0.00294667311722
0.12  -1  0.00238094640057
0.12  -0.98  0.00306834071425
0.12  -0.96  0.00395419012223
0.12  -0.94  0.00509578986783
0.12  -0.92  0.0065669766942
0.12  -0.9  0.00846290448011
0.12  -0.88  0.0109061986321
0.12  -0.86  0.0140548872887
0.12  -0.84  0.0181126223135
0.12  -0.82  0.0233418511533
0.12  -0.8  0.0300807914963
0.12  -0.78  0.0387653066203
0.12  -0.76  0.0499570962936
0.12  -0.74  0.0643800265668
0.12  -0.72  0.0829669482066
0.12  -0.7  0.106920031907
0.12  -0.68  0.137788522661
0.12  -0.66  0.177568942306
0.12  -0.64  0.228834221186
0.12  -0.62  0.294900110943
0.12  -0.6  0.380039641726
0.12  -0.58  0.489759494566
0.12  -0.56  0.631156164206
0.12  -0.54  0.813374948388
0.12  -0.52  1.04820145027
0.12  -0.5  1.35082385131
0.12  -0.48  1.74081525722
0.12  -0.46  2.24339965336
0.12  -0.44  2.89108334949
0.12  -0.42  3.725757433
0.12  -0.4  4.80140721367
0.12  -0.38  6.18760390231
0.12  -0.36  7.97400435915
0.12  -0.34  10.2761499481
0.12  -0.32  13.2429395571
0.12  -0.3  17.0662601265
0.12  -0.28  21.9933975722
0.12  -0.26  28.3430308214
0.12  -0.24  36.5258434265
0.12  -0.22  47.0710858845
0.12  -0.2  43.7704479816
0.12  -0.18  44.1808119846
0.12  -0.16  45.9585438222
0.12  -0.14  48.7872143868
0.12  -0.12  52.2354737229
0.12  -0.1  55.8714018425
0.12  -0.08  59.3227901797
0.12  -0.06  62.2946035461
0.12  -0.04  64.5671556464
0.12  -0.02  65.9894258934
0.12  6.17561557e-16  66.4731881895
0.12  0.02  65.9894258934
0.12  0.04  64.5671556464
0.12  0.06  62.2946035461
0.12  0.08  59.3227901797
0.12  0.1  55.8714018425
0.12  0.12  52.2354737229
0.12  0.14  48.7872143868
0.12  0.16  45.9585438222
0.12  0.18  44.1808119846
0.12  0.2  60.6608066642
0.12  0.22  47.0710858845
0.12  0.24  36.5258434265
0.12  0.26  28.3430308214
0.12  0.28  21.9933975722
0.12  0.3  17.0662601265
0.12  0.32  13.2429395571
0.12  0.34  10.2761499481
0.12  0.36  7.97400435915
0.12  0.38  6.18760390231
0.12  0.4  4.80140721367
0.12  0.42  3.725757433
0.12  0.44  2.89108334949
0.12  0.46  2.24339965336
0.12  0.48  1.74081525722
0.12  0.5  1.35082385131
0.12  0.52  1.04820145027
0.12  0.54  0.813374948388
0.12  0.56  0.631156164206
0.12  0.58  0.489759494566
0.12  0.6  0.380039641726
0.12  0.62  0.294900110943
0.12  0.64  0.228834221186
0.12  0.66  0.177568942306
0.12  0.68  0.137788522661
0.12  0.7  0.106920031907
0.12  0.72  0.0829669482066
0.12  0.74  0.0643800265668
0.12  0.76  0.0499570962936
0.12  0.78  0.0387653066203
0.12  0.8  0.0300807914963
0.12  0.82  0.0233418511533
0.12  0.84  0.0181126223135
0.12  0.86  0.0140548872887
0.12  0.88  0.0109061986321
0.12  0.9  0.00846290448011
0.12  0.92  0.0065669766942
0.12  0.94  0.00509578986783
0.12  0.96  0.00395419012223
0.12  0.98  0.00306834071425
0.14  -1  0.00242622747768
0.14  -0.98  0.00312669472526
0.14  -0.96  0.004029391306
0.14  -0.94  0.00519270210991
0.14  -0.92  0.00669186811468
0.14  -0.9  0.00862385284511
0.14  -0.88  0.01111361381
0.14  -0.86  0.0143221845429
0.14  -0.84  0.0184570899787
0.14  -0.82  0.0237857688163
0.14  -0.8  0.0306528710017
0.14  -0.78  0.0395025491041
0.14  -0.76  0.0509071853543
0.14  -0.74  0.06560441236
0.14  -0.72  0.0845448219371
0.14  -0.7  0.108953447783
0.14  -0.68  0.140408998585
0.14  -0.66  0.180945966235
0.14  -0.64  0.233186213324
0.14  -0.62  0.300508550789
0.14  -0.6  0.387267273695
0.14  -0.58  0.499073789686
0.14  -0.56  0.64315955535
0.14  -0.54  0.82884379462
0.14  -0.52  1.06813625043
0.14  -0.5  1.3765139546
0.14  -0.48  1.77392225613
0.14  -0.46  2.28606485265
0.14  -0.44  2.94606626218
0.14  -0.42  3.79661426101
0.14  -0.4  4.89272085694
0.14  -0.38  6.30528037304
0.14  -0.36  8.12565477268
0.14  -0.34  10.471582797
0.14  -0.32  13.494795108
0.14  -0.3  17.3908279708
0.14  -0.28  22.41167021
0.14  -0.26  28.8820614202
0.14  -0.24  37.220495575
0.14  -0.22  47.9662885102
0.14  -0.2  44.6028787451
0.14  -0.18  45.0210470918
0.14  -0.16  46.8325880116
0.14  -0.14  49.7150545163
0.14  -0.12  53.2288931938
0.14  -0.1  56.9339697585
0.14  -0.08  60.4509969447
0.14  -0.06  63.4793285554
0.14  -0.04  65.7951002792
0.14  -0.02  67.2444194042
0.14  6.17561557e-16  67.7373819401
0.14  0.02  67.2444194042
0.14  0.04  65.7951002792
0.14  0.06  63.4793285554
0.14  0.08  60.4509969447
0.14  0.1  56.9339697585
0.14  0.12  53.2288931938
0.14  0.14  49.7150545163
0.14  0.16  46.8325880116
0.14  0.18  45.0210470918
0.14  0.2  61.8144599608
0.14  0.22  47.9662885102
0.14  0.24  37.220495575
0.14  0.26  28.8820614202
0.14  0.28  22.41167021
0.14  0.3  17.3908279708
0.14  0.32  13.494795108
0.14  0.34  10.471582797
0.14  0.36  8.12565477268
0.14  0.38  6.30528037304
0.14  0.4  4.89272085694
0.14  0.42  3.79661426101
0.14  0.44  2.94606626218
0.14  0.46  2.28606485265
0.14  0.48  1.77392225613
0.14  0.5  1.3765139546
0.14  0.52  1.06813625043
0.14  0.54  0.828843794619
0.14  0.56  0.64315955535
0.14  0.58  0.499073789686
0.14  0.6  0.387267273695
0.14  0.62  0.300508550789
0.14  0.64  0.233186213324
0.14  0.66  0.180945966235
0.14  0.68  0.140408998585
0.14  0.7  0.108953447783
0.14  0.72  0.0845448219371
0.14  0.74  0.06560441236
0.14  0.76  0.0509071853543
0.14  0.78  0.0395025491041
0.14  0.8  0.0306528710017
0.14  0.82  0.0237857688163
0.14  0.84  0.0184570899787
0.14  0.86  0.0143221845429
0.14  0.88  0.01111361381
0.14  0.9  0.00862385284511
0.14  0.92  0.00669186811468
0.14  0.94  0.0051927021099
0.14  0.96  0.004029391306
0.14  0.98  0.00312669472526
0.16  -1  0.00242144463543
0.16  -0.98  0.00312053104613
0.16  -0.96  0.00402144813365
0.16  -0.94  0.00518246569337
0.16  -0.92  0.00667867637982
0.16  -0.9  0.0086068525728
0.16  -0.88  0.0110917054514
0.16  -0.86  0.0142939511022
0.16  -0.84  0.0184207053648
0.16  -0.82  0.0237388797339
0.16  -0.8  0.030592444744
0.16  -0.78  0.039424677403
0.16  -0.76  0.0508068315996
0.16  -0.74  0.0654750858403
0.16  -0.72  0.0843781580317
0.16  -0.7  0.108738666952
0.16  -0.68  0.140132209167
0.16  -0.66  0.180589265958
0.16  -0.64  0.232726531416
0.16  -0.62  0.299916155802
0.16  -0.6  0.386503850521
0.16  -0.58  0.498089961404
0.16  -0.56  0.641891689609
0.16  -0.54  0.827209888005
0.16  -0.52  1.06603062462
0.16  -0.5  1.37380042128
0.16  -0.48  1.77042530854
0.16  -0.46  2.28155831413
0.16  -0.44  2.94025865744
0.16  -0.42  3.78912996398
0.16  -0.4  4.88307579592
0.16  -0.38  6.29285072179
0.16  -0.36  8.10963660235
0.16  -0.34  10.4509400794
0.16  -0.32  13.468192707
0.16  -0.3  17.3565452881
0.16  -0.28  22.3674898995
0.16  -0.26  28.8251259741
0.16  -0.24  37.1471225048
0.16  -0.22  47.8717321697
0.16  -0.2  44.514952722
0.16  -0.18  44.93229673
0.16  -0.16  46.7402665442
0.16  -0.14  49.6170508189
0.16  -0.12  53.1239626372
0.16  -0.1  56.8217353539
0.16  -0.08  60.3318293954
0.16  -0.06  63.354191231
0.16  -0.04  65.6653978548
0.16  -0.02  67.1118599251
0.16  6.17561557e-16  67.6038506798
0.16  0.02  67.1118599251
0.16  0.04  65.6653978548
0.16  0.06  63.354191231
0.16  0.08  60.3318293954
0.16  0.1  56.8217353539
0.16  0.12  53.1239626372
0.16  0.14  49.6170508189
0.16  0.16  46.7402665442
0.16  0.18  44.93229673
0.16  0.2  61.6926046056
0.16  0.22  47.8717321697
0.16  0.24  37.1471225048
0.16  0.26  28.8251259741
0.16  0.28  22.3674898995
0.16  0.3  17.3565452881
0.16  0.32  13.468192707
0.16  0.34  10.4509400794
0.16  0.36  8.10963660235
0.16  0.38  6.29285072178
0.16  0.4  4.88307579592
0.16  0.42  3.78912996398
0.16  0.44  2.94025865744
0.16  0.46  2.28155831413
0.16  0.48  1.77042530854
0.16  0.5  1.37380042128
0.16  0.52  1.06603062462
0.16  0.54  0.827209888005
0.16  0.56  0.641891689609
0.16  0.58  0.498089961404
0.16  0.6  0.386503850521
0.16  0.62  0.299916155802
0.16  0.64  0.232726531416
0.16  0.66  0.180589265958
0.16  0.68  0.140132209167
0.16  0.7  0.108738666952
0.16  0.72  0.0843781580317
0.16  0.74  0.0654750858403
0.16  0.76  0.0508068315996
0.16  0.78  0.039424677403
0.16  0.8  0.030592444744
0.16  0.82  0.0237388797339
0.16  0.84  0.0184207053648
0.16  0.86  0.0142939511022
0.16  0.88  0.0110917054514
0.16  0.9  0.0086068525728
0.16  0.92  0.00667867637982
0.16  0.94  0.00518246569337
0.16  0.96  0.00402144813365
0.16  0.98  0.00312053104613
0.18  -1  0.00236669656522
0.18  -0.98  0.00304997686113
0.18  -0.96  0.00393052450834
0.18  -0.94  0.00506529184125
0.18  -0.92  0.00652767369409
0.18  -0.9  0.00841225445481
0.18  -0.88  0.0108409256235
0.18  -0.86  0.013970769549
0.18  -0.84  0.0180042192492
0.18  -0.82  0.0232021514374
0.18  -0.8  0.0299007595871
0.18  -0.78  0.0385332983581
0.18  -0.76  0.0496581057759
0.18  -0.74  0.063994715592
0.18  -0.72  0.0824703955117
0.18  -0.7  0.106280121303
0.18  -0.68  0.13696386581
0.18  -0.66  0.176506201796
0.18  -0.64  0.227464660757
0.18  -0.62  0.293135149739
0.18  -0.6  0.377765125038
0.18  -0.58  0.486828310497
0.18  -0.56  0.627378728721
0.18  -0.54  0.808506943341
0.18  -0.52  1.04192802131
0.18  -0.5  1.34273924366
0.18  -0.48  1.73039657212
0.18  -0.46  2.22997302784
0.18  -0.44  2.8737803721
0.18  -0.42  3.7034589764
0.18  -0.4  4.77267105135
0.18  -0.38  6.15057142782
0.18  -0.36  7.92628037461
0.18  -0.34  10.2146477468
0.18  -0.32  13.1636812806
0.18  -0.3  16.9641194832
0.18  -0.28  21.861768278
0.18  -0.26  28.1733993158
0.18  -0.24  36.3072382304
0.18  -0.22  46.7893679829
0.18  -0.2  43.5084842192
0.18  -0.18  43.9163922159
0.18  -0.16  45.6834844247
0.18  -0.14  48.495225549
0.18  -0.12  51.9228472397
0.18  -0.1  55.5370145262
0.18  -0.08  58.9677464909
0.18  -0.06  61.9217737152
0.18  -0.04  64.1807247142
0.18  -0.02  65.5944827507
0.18  6.17561557e-16  66.0753497557
0.18  0.02  65.5944827507
0.18  0.04  64.1807247142
0.18  0.06  61.9217737152
0.18  0.08  58.9677464909
0.18  0.1  55.5370145262
0.18  0.12  51.9228472397
0.18  0.14  48.495225549
0.18  0.16  45.6834844247
0.18  0.18  43.9163922159
0.18  0.2  60.2977550193
0.18  0.22  46.7893679829
0.18  0.24  36.3072382304
0.18  0.26  28.1733993158
0.18  0.28  21.861768278
0.18  0.3  16.9641194832
0.18  0.32  13.1636812806
0.18  0.34  10.2146477468
0.18  0.36  7.92628037461
0.18  0.38  6.15057142782
0.18  0.4  4.77267105134
0.18  0.42  3.7034589764
0.18  0.44  2.8737803721
0.18  0.46  2.22997302784
0.18  0.48  1.73039657212
0.18  0.5  1.34273924366
0.18  0.52  1.04192802131
0.18  0.54  0.808506943341
0.18  0.56  0.627378728721
0.18  0.58  0.486828310497
0.18  0.6  0.377765125038
0.18  0.62  0.293135149739
0.18  0.64  0.227464660757
