0.1  0.94  0.0361610383155
0.1  0.96  0.029457650291
0.1  0.98  0.0239969094111
0.12  -1  0.0202787436853
0.12  -0.98  0.0248933781258
0.12  -0.96  0.0305581195824
0.12  -0.94  0.0375119305903
0.12  -0.92  0.0460481520407
0.12  -0.9  0.0565268775293
0.12  -0.88  0.0693901436129
0.12  -0.86  0.085180576764
0.12  -0.84  0.10456428363
0.12  -0.82  0.128358950202
0.12  -0.8  0.157568335238
0.12  -0.78  0.193424613015
0.12  -0.76  0.237440351599
0.12  -0.74  0.291472319312
0.12  -0.72  0.357799810998
0.12  -0.7  0.439220798229
0.12  -0.68  0.539169959477
0.12  -0.66  0.661863569246
0.12  -0.64  0.812477358197
0.12  -0.62  0.997364847161
0.12  -0.6  1.22432536528
0.12  -0.58  1.50293305837
0.12  -0.56  1.84494076658
0.12  -0.54  2.26477580835
0.12  -0.52  2.78014858526
0.12  -0.5  3.41279968094
0.12  -0.48  4.18941697
0.12  -0.46  5.14276142446
0.12  -0.44  6.31304910881
0.12  -0.42  7.74964766218
0.12  -0.4  9.51315883227
0.12  -0.38  11.677974911
0.12  -0.36  14.3354169131
0.12  -0.34  17.5975868796
0.12  -0.32  21.6020968111
0.12  -0.3  26.5178737191
0.12  -0.28  32.5522856755
0.12  -0.26  39.9598894664
0.12  -0.24  49.0531688645
0.12  -0.22  60.2157165043
0.12  -0.2  53.9523036994
0.12  -0.18  54.0299309991
0.12  -0.16  54.6614248389
0.12  -0.14  55.7631854679
0.12  -0.12  57.1961461268
0.12  -0.1  58.7912857032
0.12  -0.08  60.3745574525
0.12  -0.06  61.7862087238
0.12  -0.04  62.8934859418
0.12  -0.02  63.5980037297
0.12  6.17561557e-16  63.8395841941
0.12  0.02  63.5980037297
0.12  0.04  62.8934859418
0.12  0.06  61.7862087238
0.12  0.08  60.3745574525
0.12  0.1  58.7912857032
0.12  0.12  57.1961461268
0.12  0.14  55.7631854679
0.12  0.16  54.6614248389
0.12  0.18  54.0299309991
0.12  0.2  73.9184154267
0.12  0.22  60.2157165043
0.12  0.24  49.0531688645
0.12  0.26  39.9598894664
0.12  0.28  32.5522856755
0.12  0.3  26.5178737191
0.12  0.32  21.6020968111
0.12  0.34  17.5975868796
0.12  0.36  14.3354169131
0.12  0.38  11.677974911
0.12  0.4  9.51315883227
0.12  0.42  7.74964766219
0.12  0.44  6.31304910881
0.12  0.46  5.14276142446
0.12  0.48  4.18941697001
0.12  0.5  3.41279968094
0.12  0.52  2.78014858527
0.12  0.54  2.26477580835
0.12  0.56  1.84494076658
0.12  0.58  1.50293305837
0.12  0.6  1.22432536528
0.12  0.62  0.997364847162
0.12  0.64  0.812477358197
0.12  0.66  0.661863569247
0.12  0.68  0.539169959478
0.12  0.7  0.439220798229
0.12  0.72  0.357799810998
0.12  0.74  0.291472319313
0.12  0.76  0.237440351599
0.12  0.78  0.193424613015
0.12  0.8  0.157568335238
0.12  0.82  0.128358950202
0.12  0.84  0.10456428363
0.12  0.86  0.0851805767641
0.12  0.88  0.0693901436129
0.12  0.9  0.0565268775293
0.12  0.92  0.0460481520407
0.12  0.94  0.0375119305903
0.12  0.96  0.0305581195824
0.12  0.98  0.0248933781258
0.14  -1  0.020625367298
0.14  -0.98  0.0253188794681
0.14  -0.96  0.0310804480842
0.14  -0.94  0.0381531202568
0.14  -0.92  0.0468352509393
0.14  -0.9  0.0574930887901
0.14  -0.88  0.0705762260763
0.14  -0.86  0.0866365643592
0.14  -0.84  0.106351596015
0.14  -0.82  0.130552983705
0.14  -0.8  0.160261643387
0.14  -0.78  0.196730810834
0.14  -0.76  0.241498908369
0.14  -0.74  0.296454441967
0.14  -0.72  0.363915666351
0.14  -0.7  0.44672837869
0.14  -0.68  0.548385966254
0.14  -0.66  0.673176772128
0.14  -0.64  0.826364995495
0.14  -0.62  1.01441275762
0.14  -0.6  1.2452527012
0.14  -0.58  1.5286226225
0.14  -0.56  1.87647625239
0.14  -0.54  2.3034875148
0.14  -0.52  2.82766953437
0.14  -0.5  3.47113450549
0.14  -0.48  4.26102647737
0.14  -0.46  5.23066640378
0.14  -0.44  6.42095776052
0.14  -0.42  7.88211202544
0.14  -0.4  9.67576680907
0.14  -0.38  11.8775859873
0.14  -0.36  14.5804515207
0.14  -0.34  17.898381605
0.14  -0.32  21.9713404366
0.14  -0.3  26.9711424883
0.14  -0.28  33.1087003646
0.14  -0.26  40.642921979
0.14  -0.24  49.8916323744
0.14  -0.22  61.2449809164
0.14  -0.2  54.8745078907
0.14  -0.18  54.9534620703
0.14  -0.16  55.5957500046
0.14  -0.14  56.7163429762
0.14  -0.12  58.1737971644
0.14  -0.1  59.7962023865
0.14  -0.08  61.4065369255
0.14  -0.06  62.8423174856
0.14  -0.04  63.968521341
0.14  -0.02  64.6850814184
0.14  6.17561557e-16  64.9307912063
0.14  0.02  64.6850814184
0.14  0.04  63.968521341
0.14  0.06  62.8423174856
0.14  0.08  61.4065369255
0.14  0.1  59.7962023865
0.14  0.12  58.1737971644
0.14  0.14  56.7163429762
0.14  0.16  55.5957500046
0.14  0.18  54.9534620703
0.14  0.2  75.1818994275
0.14  0.22  61.2449809164
0.14  0.24  49.8916323745
0.14  0.26  40.642921979
0.14  0.28  33.1087003646
0.14  0.3  26.9711424883
0.14  0.32  21.9713404366
0.14  0.34  17.898381605
0.14  0.36  14.5804515207
0.14  0.38  11.8775859873
0.14  0.4  9.67576680908
0.14  0.42  7.88211202545
0.14  0.44  6.42095776052
0.14  0.46  5.23066640378
0.14  0.48  4.26102647737
0.14  0.5  3.47113450549
0.14  0.52  2.82766953437
0.14  0.54  2.3034875148
0.14  0.56  1.87647625239
0.14  0.58  1.5286226225
0.14  0.6  1.2452527012
0.14  0.62  1.01441275762
0.14  0.64  0.826364995495
0.14  0.66  0.673176772128
0.14  0.68  0.548385966254
0.14  0.7  0.44672837869
0.14  0.72  0.363915666351
0.14  0.74  0.296454441967
0.14  0.76  0.241498908369
0.14  0.78  0.196730810834
0.14  0.8  0.160261643387
0.14  0.82  0.130552983705
0.14  0.84  0.106351596016
0.14  0.86  0.0866365643592
0.14  0.88  0.0705762260764
0.14  0.9  0.0574930887902
0.14  0.92  0.0468352509393
0.14  0.94  0.0381531202568
0.14  0.96  0.0310804480842
0.14  0.98  0.0253188794682
0.16  -1  0.0205817716728
0.16  -0.98  0.0252653632149
0.16  -0.96  0.0310147536631
0.16  -0.94  0.0380724764017
0.16  -0.92  0.0467362557545
0.16  -0.9  0.0573715662439
0.16  -0.88  0.0704270498384
0.16  -0.86  0.0864534415506
0.16  -0.84  0.106126801749
0.16  -0.82  0.130277035216
0.16  -0.8  0.159922900011
0.16  -0.78  0.196314982957
0.16  -0.76  0.240988454628
0.16  -0.74  0.295827829284
0.16  -0.72  0.363146461576
0.16  -0.7  0.445784133543
0.16  -0.68  0.547226848518
0.16  -0.66  0.671753885358
0.16  -0.64  0.824618316364
0.16  -0.62  1.01226860388
0.16  -0.6  1.24262062347
0.16  -0.58  1.5253915887
0.16  -0.56  1.87250996397
0.16  -0.54  2.2986186571
0.16  -0.52  2.82169271856
0.16  -0.5  3.46379760444
0.16  -0.48  4.25201998985
0.16  -0.46  5.21961039839
0.16  -0.44  6.40738584861
0.16  -0.42  7.86545168691
0.16  -0.4  9.655315241
0.16  -0.38  11.8524804568
0.16  -0.36  14.5496329713
0.16  -0.34  17.8605499812
0.16  -0.32  21.9248998419
0.16  -0.3  26.9141338638
0.16  -0.28  33.0387188476
0.16  -0.26  40.5570154558
0.16  -0.24  49.7861769479
0.16  -0.22  61.1155280346
0.16  -0.2  54.7585202119
0.16  -0.18  54.8373075068
0.16  -0.16  55.4782378437
0.16  -0.14  56.5964622296
0.16  -0.12  58.0508358119
0.16  -0.1  59.669811773
0.16  -0.08  61.2767425645
0.16  -0.06  62.7094883301
0.16  -0.04  63.8333117401
0.16  -0.02  64.5483572319
0.16  6.17561557e-16  64.7935476655
0.16  0.02  64.5483572319
0.16  0.04  63.8333117401
0.16  0.06  62.7094883301
0.16  0.08  61.2767425645
0.16  0.1  59.669811773
0.16  0.12  58.0508358119
0.16  0.14  56.5964622296
0.16  0.16  55.4782378437
0.16  0.18  54.8373075068
0.16  0.2  75.0229882255
0.16  0.22  61.1155280347
0.16  0.24  49.7861769479
0.16  0.26  40.5570154558
0.16  0.28  33.0387188477
0.16  0.3  26.9141338638
0.16  0.32  21.9248998419
0.16  0.34  17.8605499813
0.16  0.36  14.5496329713
0.16  0.38  11.8524804568
0.16  0.4  9.655315241
0.16  0.42  7.86545168691
0.16  0.44  6.40738584862
0.16  0.46  5.21961039839
0.16  0.48  4.25201998985
0.16  0.5  3.46379760444
0.16  0.52  2.82169271856
0.16  0.54  2.2986186571
0.16  0.56  1.87250996397
0.16  0.58  1.5253915887
0.16  0.6  1.24262062347
0.16  0.62  1.01226860388
0.16  0.64  0.824618316364
0.16  0.66  0.671753885359
0.16  0.68  0.547226848518
0.16  0.7  0.445784133543
0.16  0.72  0.363146461577
0.16  0.74  0.295827829284
0.16  0.76  0.240988454629
0.16  0.78  0.196314982957
0.16  0.8  0.159922900012
0.16  0.82  0.130277035216
0.16  0.84  0.106126801749
0.16  0.86  0.0864534415506
0.16  0.88  0.0704270498384
0.16  0.9  0.057371566244
0.16  0.92  0.0467362557545
0.16  0.94  0.0380724764017
0.16  0.96  0.0310147536631
0.16  0.98  0.0252653632149
0.18  -1  0.020148781612
0.18  -0.98  0.0247338418606
0.18  -0.96  0.0303622792169
0.18  -0.94  0.0372715247571
0.18  -0.92  0.0457530394143
0.18  -0.9  0.0561646090223
0.18  -0.88  0.0689454372215
0.18  -0.86  0.0846346729089
0.18  -0.84  0.103894153798
0.18  -0.82  0.12753632551
0.18  -0.8  0.156558513928
0.18  -0.78  0.192184996591
0.18  -0.76  0.235918647846
0.18  -0.74  0.289604336389
0.18  -0.72  0.355506749555
0.18  -0.7  0.436405927326
0.18  -0.68  0.535714536062
0.18  -0.66  0.657621829078
0.18  -0.64  0.807270366898
0.18  -0.62  0.990972952016
0.18  -0.6  1.21647892936
0.18  -0.58  1.49330108613
0.18  -0.56  1.83311694106
0.18  -0.54  2.25026135104
0.18  -0.52  2.76233121553
0.18  -0.5  3.39092778745
0.18  -0.48  4.16256790462
0.18  -0.46  5.10980258109
0.18  -0.44  6.27259014531
0.18  -0.42  7.69998184991
0.18  -0.4  9.45219105911
0.18  -0.38  11.6031333008
0.18  -0.36  14.2435443331
0.18  -0.34  17.4848077592
0.18  -0.32  21.4636536544
0.18  -0.3  26.3479264137
0.18  -0.28  32.3436651317
0.18  -0.26  39.7037951954
0.18  -0.24  48.7387977366
0.18  -0.22  59.8298070278
0.18  -0.2  53.6065350781
0.18  -0.18  53.6836648813
0.18  -0.16  54.311111614
0.18  -0.14  55.4058112979
0.18  -0.12  56.8295884225
0.18  -0.1  58.414505095
0.18  -0.08  59.9876299989
0.18  -0.06  61.3902343031
0.18  -0.04  62.4904152214
0.18  -0.02  63.1904179075
0.18  6.17561557e-16  63.4304501351
0.18  0.02  63.1904179075
0.18  0.04  62.4904152214
0.18  0.06  61.3902343031
0.18  0.08  59.9876299989
0.18  0.1  58.414505095
0.18  0.12  56.8295884225
0.18  0.14  55.4058112979
0.18  0.16  54.311111614
0.18  0.18  53.6836648813
0.18  0.2  73.4446883227
0.18  0.22  59.8298070279
0.18  0.24  48.7387977367
0.18  0.26  39.7037951954
0.18  0.28  32.3436651317
0.18  0.3  26.3479264137
0.18  0.32  21.4636536545
0.18  0.34  17.4848077592
0.18  0.36  14.2435443331
0.18  0.38  11.6031333008
0.18  0.4  9.45219105912
0.18  0.42  7.69998184991
0.18  0.44  6.27259014531
0.18  0.46  5.10980258109
0.18  0.48  4.16256790462
0.18  0.5  3.39092778745
0.18  0.52  2.76233121553
0.18  0.54  2.25026135105
0.18  0.56  1.83311694106
0.18  0.58  1.49330108614
0.18  0.6  1.21647892936
0.18  0.62  0.990972952017
0.18  0.64  0.807270366898
0.18  0.66  0.657621829078
0.18  0.68  0.535714536062
0.18  0.7  0.436405927326
0.18  0.72  0.355506749556
0.18  0.74  0.289604336389
0.18  0.76  0.235918647847
0.18  0.78  0.192184996591
0.18  0.8  0.156558513928
0.18  0.82  0.12753632551
0.18  0.84  0.103894153799
0.18  0.86  0.0846346729089
0.18  0.88  0.0689454372215
0.18  0.9  0.0561646090224
0.18  0.92  0.0457530394144
0.18  0.94  0.0372715247571
0.18  0.96  0.0303622792169
0.18  0.98  0.0247338418606
0.2  -1  0.0193345890208
0.2  -0.98  0.0237343714617
0.2  -0.96  0.0291353691602
0.2  -0.94  0.0357654188344
0.2  -0.92  0.0439042037659
0.2  -0.9  0.0538950520122
0.2  -0.88  0.0661594194232
0.2  -0.86  0.0812146684158
0.2  -0.84  0.0996958924881
0.2  -0.82  0.122382707125
0.2  -0.8  0.150232137247
0.2  -0.78  0.184418988533
0.2  -0.76  0.226385405643
0.2  -0.74  0.277901707932
0.2  -0.72  0.341141068931
0.2  -0.7  0.418771189919
0.2  -0.68  0.514066834744
0.2  -0.66  0.631047973081
0.2  -0.64  0.774649359609
0.2  -0.62  0.950928702634
0.2  -0.6  1.16732220362
0.2  -0.58  1.43295824734
0.2  -0.56  1.75904247537
0.2  -0.54  2.15933048705
0.2  -0.52  2.65070810831
0.2  -0.5  3.25390370654
0.2  -0.48  3.99436260002
0.2  -0.46  4.90332044811
0.2  -0.44  6.01912090224
0.2  -0.42  7.38883310179
0.2  -0.4  9.07023724775
0.2  -0.38  11.1342620136
0.2  -0.36  13.6679766143
0.2  -0.34  16.7782637502
0.2  -0.32  20.5963283679
0.2  -0.3  25.2832324341
0.2  -0.28  31.0366892048
0.2  -0.26  38.0994035992
0.2  -0.24  46.7693105098
0.2  -0.22  57.412142945
0.2  -0.2  51.4403473382
0.2  -0.18  51.5143604014
0.2  -0.16  52.1164526242
0.2  -0.14  53.1669165628
0.2  -0.12  54.5331602441
0.2  -0.1  56.0540319814
0.2  -0.08  57.5635884439
0.2  -0.06  58.9095148777
0.2  -0.04  59.9652385594
0.2  -0.02  60.6369548204
0.2  6.17561557e-16  60.86728758
0.2  0.02  60.6369548204
0.2  0.04  59.9652385594
0.2  0.06  58.9095148777
0.2  0.08  57.5635884439
0.2  0.1  56.0540319814
0.2  0.12  54.5331602441
0.2  0.14  53.1669165628
0.2  0.16  52.1164526242
0.2  0.18  51.5143604014
0.2  0.2  70.4768601807
0.2  0.22  57.4121429451
0.2  0.24  46.7693105098
0.2  0.26  38.0994035992
0.2  0.28  31.0366892049
0.2  0.3  25.2832324341
0.2  0.32  20.5963283679
0.2  0.34  16.7782637502
0.2  0.36  13.6679766143
0.2  0.38  11.1342620136
0.2  0.4  9.07023724775
0.2  0.42  7.3888331018
0.2  0.44  6.01912090224
0.2  0.46  4.90332044812
0.2  0.48  3.99436260002
0.2  0.5  3.25390370654
0.2  0.52  2.65070810831
0.2  0.54  2.15933048706
0.2  0.56  1.75904247537
0.2  0.58  1.43295824734
0.2  0.6  1.16732220362
0.2  0.62  0.950928702634
0.2  0.64  0.774649359609
0.2  0.66  0.631047973082
0.2  0.68  0.514066834744
0.2  0.7  0.418771189919
0.2  0.72  0.341141068931
0.2  0.74  0.277901707932
0.2  0.76  0.226385405643
0.2  0.78  0.184418988533
0.2  0.8  0.150232137247
0.2  0.82  0.122382707125
0.2  0.84  0.0996958924881
0.2  0.86  0.0812146684159
0.2  0.88  0.0661594194233
0.2  0.9  0.0538950520122
0.2  0.92  0.0439042037659
0.2  0.94  0.0357654188345
0.2  0.96  0.0291353691602
0.2  0.98  0.0237343714617
0.22  -1  0.0181545979212
0.22  -0.98  0.0222858613822
0.22  -0.96  0.027357235875
0.22  -0.94  0.0335826532296
0.22  -0.92  0.0412247276403
0.22  -0.9  0.0506058338333
0.22  -0.88  0.0621217061834
0.22  -0.86  0.0762581324488
0.22  -0.84  0.0936114463341
0.22  -0.82  0.114913683346
0.22  -0.8  0.141063461118
0.22  -0.78  0.173163886868
0.22  -0.76  0.212569091086
0.22  -0.74  0.260941350431
0.22  -0.72  0.320321209526
0.22  -0.7  0.393213559687
0.22  -0.68  0.48269330573
0.22  -0.66  0.592535078348
0.22  -0.64  0.72737246385
0.22  -0.62  0.892893468252
0.22  -0.6  1.09608046121
0.22  -0.58  1.34550472163
0.22  -0.56  1.65168801014
0.22  -0.54  2.02754642104
0.22  -0.52  2.48893523731
0.22  -0.5  3.05531777287
0.22  -0.48  3.75058641675
0.22  -0.46  4.60407051417
0.22  -0.44  5.65177360126
0.22  -0.42  6.93789218511
0.22  -0.4  8.51668013762
0.22  -0.38  10.4547373512
0.22  -0.36  12.8338192015
0.22  -0.34  15.7542853315
0.22  -0.32  19.339333242
0.22  -0.3  23.7401952787
0.22  -0.28  29.142518246
0.22  -0.26  35.7741947675
0.22  -0.24  43.9149767519
0.22  -0.22  53.9082765007
0.22  -0.2  48.3009399293
0.22  -0.18  48.3704359709
0.22  -0.16  48.9357824701
0.22  -0.14  49.922136533
0.22  -0.12  51.2049982824
0.22  -0.1  52.6330511286
0.22  -0.08  54.0504792719
0.22  -0.06  55.3142637367
0.22  -0.04  56.3055565402
0.22  -0.02  56.9362779185
0.22  6.17561557e-16  57.1525534563
0.22  0.02  56.9362779185
0.22  0.04  56.3055565402
0.22  0.06  55.3142637367
0.22  0.08  54.0504792719
0.22  0.1  52.6330511286
0.22  0.12  51.2049982824
0.22  0.14  49.922136533
0.22  0.16  48.9357824701
0.22  0.18  48.3704359709
0.22  0.2  66.1756532787
0.22  0.22  53.9082765007
0.22  0.24  43.9149767519
0.22  0.26  35.7741947675
0.22  0.28  29.142518246
0.22  0.3  23.7401952787
0.22  0.32  19.339333242
0.22  0.34  15.7542853315
0.22  0.36  12.8338192015
0.22  0.38  10.4547373512
0.22  0.4  8.51668013762
0.22  0.42  6.93789218511
0.22  0.44  5.65177360126
0.22  0.46  4.60407051417
0.22  0.48  3.75058641675
0.22  0.5  3.05531777287
0.22  0.52  2.48893523731
0.22  0.54  2.02754642104
0.22  0.56  1.65168801014
0.22  0.58  1.34550472163
0.22  0.6  1.09608046121
0.22  0.62  0.892893468253
0.22  0.64  0.72737246385
0.22  0.66  0.592535078348
0.22  0.68  0.48269330573
0.22  0.7  0.393213559687
0.22  0.72  0.320321209526
0.22  0.74  0.260941350431
0.22  0.76  0.212569091086
0.22  0.78  0.173163886868
0.22  0.8  0.141063461118
0.22  0.82  0.114913683346
0.22  0.84  0.0936114463342
0.22  0.86  0.0762581324488
0.22  0.88  0.0621217061834
0.22  0.9  0.0506058338333
0.22  0.92  0.0412247276403
0.22  0.94  0.0335826532296
0.22  0.96  0.027357235875
0.22  0.98  0.0222858613822
0.24  -1  0.0166311330175
0.24  -0.98  0.02041571654
0.24  -0.96  0.0250615205472
0.24  -0.94  0.0307645245225
0.24  -0.92  0.0377653050744
0.24  -0.9  0.0463591844665
0.24  -0.88  0.056908688548
0.24  -0.86  0.0698588396134
0.24  -0.84  0.085755929308
0.24  -0.82  0.105270563499
0.24  -0.8  0.129225951241
0.24  -0.78  0.158632631184
0.24  -0.76  0.194731100331
0.24  -0.74  0.239044143397
0.24  -0.72  0.293441070251
0.24  -0.7  0.360216571242
0.24  -0.68  0.442187516854
0.24  -0.66  0.54281178511
0.24  -0.64  0.666334129353
0.24  -0.62  0.817965239739
0.24  -0.6  1.00410155198
0.24  -0.58  1.23259507582
0.24  -0.56  1.51308462568
0.24  -0.54  1.85740242631
0.24  -0.52  2.28007324554
0.24  -0.5  2.79892710992
0.24  -0.48  3.43585144994
0.24  -0.46  4.21771440356
0.24  -0.44  5.17749822692
0.24  -0.42  6.35569062408
0.24  -0.4  7.80199268809
0.24  -0.38  9.57741550138
0.24  -0.36  11.7568538389
0.24  -0.34  14.4322455436
0.24  -0.32  17.71644985
0.24  -0.3  21.7480082597
0.24  -0.28  26.6969888025
0.24  -0.26  32.7721602184
0.24  -0.24  40.2297986985
0.24  -0.22  49.3844986884
0.24  -0.2  44.2477085046
0.24  -0.18  44.3113727024
0.24  -0.16  44.8292774706
0.24  -0.14  45.7328604469
0.24  -0.12  46.9080693108
0.24  -0.1  48.2162853861
0.24  -0.08  49.5147683432
0.24  -0.06  50.6725008157
0.24  -0.04  51.5806080923
0.24  -0.02  52.1584017281
0.24  6.17561557e-16  52.3565282442
0.24  0.02  52.1584017281
0.24  0.04  51.5806080923
0.24  0.06  50.6725008157
0.24  0.08  49.5147683432
0.24  0.1  48.2162853861
0.24  0.12  46.9080693108
0.24  0.14  45.7328604469
0.24  0.16  44.8292774706
0.24  0.18  44.3113727024
0.24  0.2  60.6224438006
0.24  0.22  49.3844986884
0.24  0.24  40.2297986985
0.24  0.26  32.7721602184
0.24  0.28  26.6969888025
0.24  0.3  21.7480082598
0.24  0.32  17.7164498501
0.24  0.34  14.4322455436
0.24  0.36  11.7568538389
0.24  0.38  9.57741550138
0.24  0.4  7.8019926881
0.24  0.42  6.35569062409
0.24  0.44  5.17749822693
0.24  0.46  4.21771440357
0.24  0.48  3.43585144994
0.24  0.5  2.79892710993
0.24  0.52  2.28007324554
0.24  0.54  1.85740242631
0.24  0.56  1.51308462568
0.24  0.58  1.23259507582
0.24  0.6  1.00410155198
0.24  0.62  0.81796523974
0.24  0.64  0.666334129353
0.24  0.66  0.54281178511
0.24  0.68  0.442187516855
0.24  0.7  0.360216571242
0.24  0.72  0.293441070251
0.24  0.74  0.239044143397
0.24  0.76  0.194731100331
0.24  0.78  0.158632631184
0.24  0.8  0.129225951241
0.24  0.82  0.105270563499
0.24  0.84  0.0857559293081
0.24  0.86  0.0698588396135
0.24  0.88  0.056908688548
0.24  0.9  0.0463591844665
0.24  0.92  0.0377653050744
0.24  0.94  0.0307645245225
0.24  0.96  0.0250615205472
0.24  0.98  0.02041571654
0.26  -1  0.0147930173269
0.26  -0.98  0.0181593189231
0.26  -0.96  0.0222916566961
0.26  -0.94  0.0273643499715
0.26  -0.92  0.0335913862111
0.26  -0.9  0.0412354479007
0.26  -0.88  0.050618993598
0.26  -0.86  0.0621378605865
0.26  -0.84  0.0762779629506
0.26  -0.82  0.0936357894684
0.26  -0.8  0.114943566008
0.26  -0.78  0.141100143884
0.26  -0.76  0.173208917171
0.26  -0.74  0.212624368492
0.26  -0.72  0.261009206773
0.26  -0.7  0.320404507269
0.26  -0.68  0.393315812679
0.26  -0.66  0.482818827431
0.26  -0.64  0.592689163789
0.26  -0.62  0.727561613001
0.26  -0.6  0.893125660216
0.26  -0.58  1.09636549082
0.26  -0.56  1.34585461262
0.26  -0.54  1.65211752239
0.26  -0.52  2.02807367317
0.26  -0.5  2.48958247103
0.26  -0.48  3.05611229121
0.26  -0.46  3.75156173582
0.26  -0.44  4.60526777701
0.26  -0.42  5.65324331345
0.26  -0.4  6.93969634526
0.26  -0.38  8.51889485277
0.26  -0.36  10.4574560473
0.26  -0.34  12.8371565646
0.26  -0.32  15.7583821455
0.26  -0.3  19.3443623277
0.26  -0.28  23.746368784
0.26  -0.26  29.1500965953
0.26  -0.24  35.7834976473
0.26  -0.22  43.9263965965
0.26  -0.2  39.3573377048
0.26  -0.18  39.4139655713
0.26  -0.16  39.8746301696
0.26  -0.14  40.6783468262
0.26  -0.12  41.7236685771
0.26  -0.1  42.8872972396
0.26  -0.08  44.0422685133
0.26  -0.06  45.0720454087
0.26  -0.04  45.8797863282
0.26  -0.02  46.3937207221
0.26  6.17561557e-16  46.5699497849
0.26  0.02  46.3937207221
0.26  0.04  45.8797863282
0.26  0.06  45.0720454087
0.26  0.08  44.0422685133
0.26  0.1  42.8872972396
0.26  0.12  41.7236685771
0.26  0.14  40.6783468262
0.26  0.16  39.8746301696
0.26  0.18  39.4139655713
0.26  0.2  53.9222950472
0.26  0.22  43.9263965965
0.26  0.24  35.7834976473
0.26  0.26  29.1500965953
0.26  0.28  23.7463687841
0.26  0.3  19.3443623277
0.26  0.32  15.7583821455
0.26  0.34  12.8371565646
0.26  0.36  10.4574560474
0.26  0.38  8.51889485277
0.26  0.4  6.93969634526
0.26  0.42  5.65324331345
0.26  0.44  4.60526777702
0.26  0.46  3.75156173582
0.26  0.48  3.05611229121
0.26  0.5  2.48958247103
0.26  0.52  2.02807367317
0.26  0.54  1.65211752239
0.26  0.56  1.34585461262
0.26  0.58  1.09636549082
0.26  0.6  0.893125660217
0.26  0.62  0.727561613001
0.26  0.64  0.592689163789
0.26  0.66  0.482818827431
0.26  0.68  0.393315812679
0.26  0.7  0.32040450727
0.26  0.72  0.261009206773
0.26  0.74  0.212624368492
0.26  0.76  0.173208917171
0.26  0.78  0.141100143884
0.26  0.8  0.114943566008
0.26  0.82  0.0936357894685
0.26  0.84  0.0762779629506
0.26  0.86  0.0621378605865
0.26  0.88  0.050618993598
0.26  0.9  0.0412354479007
0.26  0.92  0.0335913862112
0.26  0.94  0.0273643499715
0.26  0.96  0.0222916566961
0.26  0.98  0.0181593189231
0.28  -1  0.0126750268653
0.28  -0.98  0.0155593581836
0.28  -0.96  0.0191000484385
0.28  -0.94  0.0234464587837
0.28  -0.92  0.0287819390231
0.28  -0.9  0.0353315620739
0.28  -0.88  0.0433716184854
0.28  -0.86  0.0532412715326
0.28  -0.84  0.065356864544
0.28  -0.82  0.0802294840087
0.28  -0.8  0.0984865193459
0.28  -0.78  0.12089812882
0.28  -0.76  0.148409728045
0.28  -0.74  0.182181871575
0.28  -0.72  0.223639209962
0.28  -0.7  0.274530587484
0.28  -0.68  0.337002815727
0.28  -0.66  0.413691235097
0.28  -0.64  0.507830884518
0.28  -0.62  0.623392968938
0.28  -0.6  0.765252381391
0.28  -0.58  0.939393346418
0.28  -0.56  1.15316185974
0.28  -0.54  1.41557557314
0.28  -0.52  1.7377041968
0.28  -0.5  2.13313646611
0.28  -0.48  2.6185533714
0.28  -0.46  3.2144318321
0.28  -0.44  3.94590849897
0.28  -0.42  4.8438401234
0.28  -0.4  5.94610522449
0.28  -0.38  7.29920196371
0.28  -0.36  8.96020963229
0.28  -0.34  10.9991964949
0.28  -0.32  13.5021755626
0.28  -0.3  16.5747329824
0.28  -0.28  20.3464821031
0.28  -0.26  24.9765311098
0.28  -0.24  30.6601948738
0.28  -0.22  37.6372341528
0.28  -0.2  33.7223503314
0.28  -0.18  33.7708705023
0.28  -0.16  34.1655794404
0.28  -0.14  34.8542239535
0.28  -0.12  35.7498817482
0.28  -0.1  36.7469078608
0.28  -0.08  37.7365161062
0.28  -0.06  38.6188546803
0.28  -0.04  39.3109472824
0.28  -0.02  39.7512991123
0.28  6.17561557e-16  39.9022965766
0.28  0.02  39.7512991123
0.28  0.04  39.3109472824
0.28  0.06  38.6188546803
0.28  0.08  37.7365161062
0.28  0.1  36.7469078608
0.28  0.12  35.7498817482
0.28  0.14  34.8542239535
0.28  0.16  34.1655794404
0.28  0.18  33.7708705023
0.28  0.2  46.2019697037
0.28  0.22  37.6372341528
0.28  0.24  30.6601948738
0.28  0.26  24.9765311098
0.28  0.28  20.3464821031
0.28  0.3  16.5747329824
0.28  0.32  13.5021755626
0.28  0.34  10.9991964949
0.28  0.36  8.9602096323
0.28  0.38  7.29920196372
0.28  0.4  5.94610522449
0.28  0.42  4.84384012341
0.28  0.44  3.94590849898
0.28  0.46  3.2144318321
0.28  0.48  2.6185533714
0.28  0.5  2.13313646611
0.28  0.52  1.7377041968
0.28  0.54  1.41557557314
0.28  0.56  1.15316185974
0.28  0.58  0.939393346418
0.28  0.6  0.765252381391
0.28  0.62  0.623392968938
0.28  0.64  0.507830884519
0.28  0.66  0.413691235097
0.28  0.68  0.337002815727
0.28  0.7  0.274530587484
0.28  0.72  0.223639209962
0.28  0.74  0.182181871576
0.28  0.76  0.148409728045
0.28  0.78  0.12089812882
0.28  0.8  0.0984865193459
0.28  0.82  0.0802294840087
0.28  0.84  0.0653568645441
0.28  0.86  0.0532412715326
0.28  0.88  0.0433716184854
0.28  0.9  0.0353315620739
0.28  0.92  0.0287819390231
0.28  0.94  0.0234464587837
0.28  0.96  0.0191000484385
0.28  0.98  0.0155593581836
0.3  -1  0.010317232707
0.3  -0.98  0.0126650239766
0.3  -0.96  0.0155470790358
0.3  -0.94  0.0190849750456
0.3  -0.92  0.0234279552869
0.3  -0.9  0.0287592248674
0.3  -0.88  0.0353036790809
0.3  -0.86  0.0433373904338
0.3  -0.84  0.0531992545396
0.3  -0.82  0.0653052861568
0.3  -0.8  0.0801661684347
0.3  -0.78  0.0984087956688
0.3  -0.76  0.12080271833
0.3  -0.74  0.148292605927
0.3  -0.72  0.182038097127
0.3  -0.7  0.223462718176
0.3  -0.68  0.274313933196
0.3  -0.66  0.336736859552
0.3  -0.64  0.413364757888
0.3  -0.62  0.507430114099
0.3  -0.6  0.622900999132
0.3  -0.58  0.76464845885
0.3  -0.56  0.938651995159
0.3  -0.54  1.15225180646
0.3  -0.52  1.41445842797
0.3  -0.5  1.73633283389
0.3  -0.48  2.13145303561
0.3  -0.46  2.61648685917
0.3  -0.44  3.21189506399
0.3  -0.42  3.94279446347
0.3  -0.4  4.84001745744
0.3  -0.38  5.94141267199
0.3  -0.36  7.29344157315
0.3  -0.34  8.95313840626
0.3  -0.32  10.9905161394
0.3  -0.3  13.4915199039
0.3  -0.28  16.5616525202
0.3  -0.26  20.3304250486
0.3  -0.24  24.9568201092
0.3  -0.22  30.6359984345
0.3  -0.2  27.4493568727
0.3  -0.18  27.4888513764
0.3  -0.16  27.8101370043
0.3  -0.14  28.3706806441
0.3  -0.12  29.0997291891
0.3  -0.1  29.9112896322
0.3  -0.08  30.7168120713
0.3  -0.06  31.4350190221
0.3  -0.04  31.9983693413
0.3  -0.02  32.356807422
0.3  6.17561557e-16  32.4797165088
0.3  0.02  32.356807422
0.3  0.04  31.9983693413
0.3  0.06  31.4350190221
0.3  0.08  30.7168120713
0.3  0.1  29.9112896322
0.3  0.12  29.0997291891
0.3  0.14  28.3706806441
0.3  0.16  27.8101370043
0.3  0.18  27.4888513764
0.3  0.2  37.6075315676
0.3  0.22  30.6359984346
0.3  0.24  24.9568201092
0.3  0.26  20.3304250486
0.3  0.28  16.5616525202
0.3  0.3  13.4915199039
0.3  0.32  10.9905161394
0.3  0.34  8.95313840626
0.3  0.36  7.29344157316
0.3  0.38  5.94141267199
0.3  0.4  4.84001745744
0.3  0.42  3.94279446347
0.3  0.44  3.21189506399
0.3  0.46  2.61648685917
0.3  0.48  2.13145303562
0.3  0.5  1.73633283389
0.3  0.52  1.41445842797
0.3  0.54  1.15225180646
0.3  0.56  0.938651995159
0.3  0.58  0.76464845885
0.3  0.6  0.622900999132
0.3  0.62  0.507430114099
0.3  0.64  0.413364757888
0.3  0.66  0.336736859552
0.3  0.68  0.274313933196
0.3  0.7  0.223462718176
0.3  0.72  0.182038097128
0.3  0.74  0.148292605927
0.3  0.76  0.12080271833
0.3  0.78  0.0984087956688
0.3  0.8  0.0801661684347
0.3  0.82  0.0653052861568
0.3  0.84  0.0531992545396
0.3  0.86  0.0433373904338
0.3  0.88  0.035303679081
0.3  0.9  0.0287592248674
0.3  0.92  0.0234279552869
0.3  0.94  0.0190849750457
0.3  0.96  0.0155470790358
0.3  0.98  0.0126650239766
0.32  -1  0.00812603326359
0.32  -0.98  0.0099751948066
0.32  -0.96  0.012245151872
0.32  -0.94  0.0150316607621
0.32  -0.92  0.0184522680999
0.32  -0.9  0.0226512694385
0.32  -0.88  0.0278057962522
0.32  -0.86  0.0341332880843
0.32  -0.84  0.0419006650583
0.32  -0.82  0.0514355876877
0.32  -0.8  0.0631402789693
0.32  -0.78  0.0775084918351
0.32  -0.76  0.0951463377199
0.32  -0.74  0.116797854882
0.32  -0.72  0.143376395057
0.32  -0.7  0.176003152457
0.32  -0.68  0.216054460446
0.32  -0.66  0.265219851048
0.32  -0.64  0.325573326489
0.32  -0.62  0.399660849299
0.32  -0.6  0.490607741688
0.32  -0.58  0.602250524729
0.32  -0.56  0.739298758899
0.32  -0.54  0.907533713078
0.32  -0.52  1.11405224269
0.32  -0.5  1.36756616483
0.32  -0.48  1.6787697592
0.32  -0.46  2.06079089763
0.32  -0.44  2.52974483277
0.32  -0.42  3.10541400697
0.32  -0.4  3.8120825586
0.32  -0.38  4.67956072875
0.32  -0.36  5.74444238221
0.32  -0.34  7.05164868997
0.32  -0.32  8.65632309252
0.32  -0.3  10.6261574812
0.32  -0.28  13.0442477261
0.32  -0.26  16.0125990078
0.32  -0.24  19.6564288234
0.32  -0.22  24.1294491858
0.32  -0.2  21.6195944538
0.32  -0.18  21.6507010169
0.32  -0.16  21.9037512072
0.32  -0.14  22.3452452
0.32  -0.12  22.9194566088
0.32  -0.1  23.5586558343
0.32  -0.08  24.1930994221
0.32  -0.06  24.7587718013
0.32  -0.04  25.2024763841
0.32  -0.02  25.4847884971
0.32  6.17561557e-16  25.5815938476
0.32  0.02  25.4847884971
0.32  0.04  25.2024763841
0.32  0.06  24.7587718013
0.32  0.08  24.1930994221
0.32  0.1  23.5586558343
0.32  0.12  22.9194566088
0.32  0.14  22.3452452
0.32  0.16  21.9037512072
0.32  0.18  21.6507010169
0.32  0.2  29.6203508399
0.32  0.22  24.1294491858
0.32  0.24  19.6564288234
0.32  0.26  16.0125990078
0.32  0.28  13.0442477261
0.32  0.3  10.6261574812
0.32  0.32  8.65632309252
0.32  0.34  7.05164868997
0.32  0.36  5.74444238221
0.32  0.38  4.67956072875
0.32  0.4  3.8120825586
0.32  0.42  3.10541400697
0.32  0.44  2.52974483277
0.32  0.46  2.06079089763
0.32  0.48  1.6787697592
0.32  0.5  1.36756616483
0.32  0.52  1.11405224269
0.32  0.54  0.907533713078
0.32  0.56  0.7392987589
0.32  0.58  0.602250524729
0.32  0.6  0.490607741688
0.32  0.62  0.399660849299
0.32  0.64  0.325573326489
0.32  0.66  0.265219851049
0.32  0.68  0.216054460446
0.32  0.7  0.176003152457
0.32  0.72  0.143376395057
0.32  0.74  0.116797854882
0.32  0.76  0.0951463377199
0.32  0.78  0.0775084918351
0.32  0.8  0.0631402789694
0.32  0.82  0.0514355876878
0.32  0.84  0.0419006650583
0.32  0.86  0.0341332880843
0.32  0.88  0.0278057962522
0.32  0.9  0.0226512694385
0.32  0.92  0.0184522680999
0.32  0.94  0.0150316607621
0.32  0.96  0.012245151872
0.32  0.98  0.0099751948066
0.34  -1  0.00640020618667
0.34  -0.98  0.00785663821984
0.34  -0.96  0.00964449617983
0.34  -0.94  0.0118391994082
0.34  -0.92  0.014533329685
0.34  -0.9  0.0178405367162
0.34  -0.88  0.0219003323548
0.34  -0.86  0.0268839757951
0.34  -0.84  0.0330016980036
0.34  -0.82  0.040511570142
0.34  -0.8  0.0497303900906
0.34  -0.78  0.0610470463104
0.34  -0.76  0.0749389227881
0.34  -0.74  0.0919920370936
0.34  -0.72  0.112925761057
0.34  -0.7  0.138623166887
0.34  -0.68  0.170168278858
0.34  -0.66  0.208891801996
0.34  -0.64  0.256427256795
0.34  -0.62  0.314779887958
0.34  -0.6  0.386411254018
0.34  -0.58  0.4743430662
0.34  -0.56  0.582284656858
0.34  -0.54  0.714789454663
0.34  -0.52  0.877447067306
0.34  -0.5  1.07711907458
0.34  -0.48  1.32222847856
0.34  -0.46  1.62311502114
0.34  -0.44  1.9924713577
0.34  -0.42  2.44587848645
0.34  -0.4  3.0024630203
0.34  -0.38  3.68570402748
0.34  -0.36  4.52442347712
0.34  -0.34  5.5540020706
0.34  -0.32  6.81787174793
0.34  -0.3  8.36934782887
0.34  -0.28  10.2738780767
0.34  -0.26  12.611803559
0.34  -0.24  15.4817477707
0.34  -0.22  19.0047769865
0.34  -0.2  17.0279714208
0.34  -0.18  17.0524714949
0.34  -0.16  17.2517782589
0.34  -0.14  17.5995066637
0.34  -0.12  18.0517656309
0.34  -0.1  18.5552101412
0.34  -0.08  19.054909028
0.34  -0.06  19.5004425058
0.34  -0.04  19.84991201
0.34  -0.02  20.072265977
0.34  6.17561557e-16  20.1485115673
0.34  0.02  20.072265977
0.34  0.04  19.84991201
0.34  0.06  19.5004425058
0.34  0.08  19.054909028
0.34  0.1  18.5552101412
0.34  0.12  18.0517656309
0.34  0.14  17.5995066637
0.34  0.16  17.2517782589
0.34  0.18  17.0524714949
0.34  0.2  23.3295073435
0.34  0.22  19.0047769865
0.34  0.24  15.4817477707
0.34  0.26  12.611803559
0.34  0.28  10.2738780767
0.34  0.3  8.36934782888
0.34  0.32  6.81787174793
0.34  0.34  5.55400207061
0.34  0.36  4.52442347712
0.34  0.38  3.68570402748
0.34  0.4  3.0024630203
0.34  0.42  2.44587848645
0.34  0.44  1.9924713577
0.34  0.46  1.62311502114
0.34  0.48  1.32222847856
0.34  0.5  1.07711907458
0.34  0.52  0.877447067306
0.34  0.54  0.714789454663
0.34  0.56  0.582284656858
0.34  0.58  0.4743430662
0.34  0.6  0.386411254019
0.34  0.62  0.314779887958
0.34  0.64  0.256427256795
0.34  0.66  0.208891801996
0.34  0.68  0.170168278858
0.34  0.7  0.138623166887
0.34  0.72  0.112925761057
0.34  0.74  0.0919920370937
0.34  0.76  0.0749389227882
0.34  0.78  0.0610470463104
0.34  0.8  0.0497303900907
0.34  0.82  0.040511570142
0.34  0.84  0.0330016980036
0.34  0.86  0.0268839757951
0.34  0.88  0.0219003323548
0.34  0.9  0.0178405367162
0.34  0.92  0.014533329685
0.34  0.94  0.0118391994082
0.34  0.96  0.00964449617984
0.34  0.98  0.00785663821985
0.36  -1  0.00504091454011
0.36  -0.98  0.00618802592975
0.36  -0.96  0.00759617418674
0.36  -0.94  0.00932476090606
0.36  -0.92  0.0114467051199
0.36  -0.9  0.0140515193282
0.36  -0.88  0.0172490855108
0.36  -0.86  0.0211742904102
0.36  -0.84  0.0259927156193
0.36  -0.82  0.0319076225071
0.36  -0.8  0.0391685266352
0.36  -0.78  0.0480817233698
0.36  -0.76  0.0590232087038
0.36  -0.74  0.0724545403437
0.36  -0.72  0.088942308148
0.36  -0.7  0.109182035262
0.36  -0.68  0.134027518199
0.36  -0.66  0.164526843555
0.36  -0.64  0.201966600694
0.36  -0.62  0.24792615548
0.36  -0.6  0.304344274549
0.36  -0.58  0.373600910607
0.36  -0.56  0.458617598814
0.36  -0.54  0.562980699378
0.36  -0.52  0.69109268526
0.36  -0.5  0.848357856935
0.36  -0.48  1.04141031843
0.36  -0.46  1.27839383165
0.36  -0.44  1.56930535437
0.36  -0.42  1.92641675379
0.36  -0.4  2.36479248539
0.36  -0.38  2.90292507473
0.36  -0.36  3.5635152097
0.36  -0.34  4.37442935071
0.36  -0.32  5.3698752547
0.36  -0.3  6.59184500176
0.36  -0.28  8.09188639704
0.36  -0.26  9.93327747316
0.36  -0.24  12.1936958229
0.36  -0.22  14.9684953655
0.36  -0.2  13.4115286633
0.36  -0.18  13.430825351
0.36  -0.16  13.5878028506
0.36  -0.14  13.8616798354
0.36  -0.12  14.2178869226
0.36  -0.1  14.6144086406
0.36  -0.08  15.0079802398
0.36  -0.06  15.3588902137
0.36  -0.04  15.6341385188
0.36  -0.02  15.8092683994
0.36  6.17561557e-16  15.8693207624
0.36  0.02  15.8092683994
0.36  0.04  15.6341385188
0.36  0.06  15.3588902137
0.36  0.08  15.0079802398
0.36  0.1  14.6144086406
0.36  0.12  14.2178869226
0.36  0.14  13.8616798354
0.36  0.16  13.5878028506
0.36  0.18  13.430825351
0.36  0.2  18.3747287746
0.36  0.22  14.9684953655
0.36  0.24  12.1936958229
0.36  0.26  9.93327747316
0.36  0.28  8.09188639704
0.36  0.3  6.59184500177
0.36  0.32  5.3698752547
0.36  0.34  4.37442935071
0.36  0.36  3.5635152097
0.36  0.38  2.90292507473
0.36  0.4  2.36479248539
0.36  0.42  1.92641675379
0.36  0.44  1.56930535437
0.36  0.46  1.27839383165
0.36  0.48  1.04141031843
0.36  0.5  0.848357856936
0.36  0.52  0.69109268526
0.36  0.54  0.562980699378
0.36  0.56  0.458617598814
0.36  0.58  0.373600910607
0.36  0.6  0.304344274549
0.36  0.62  0.24792615548
0.36  0.64  0.201966600694
0.36  0.66  0.164526843555
0.36  0.68  0.134027518199
0.36  0.7  0.109182035262
0.36  0.72  0.0889423081481
0.36  0.74  0.0724545403438
0.36  0.76  0.0590232087038
0.36  0.78  0.0480817233698
0.36  0.8  0.0391685266352
0.36  0.82  0.0319076225071
0.36  0.84  0.0259927156193
0.36  0.86  0.0211742904102
0.36  0.88  0.0172490855108
0.36  0.9  0.0140515193282
0.36  0.92  0.0114467051199
0.36  0.94  0.00932476090606
0.36  0.96  0.00759617418675
0.36  0.98  0.00618802592975
0.38  -1  0.00397031262113
0.38  -0.98  0.00487379765184
0.38  -0.96  0.0059828798933
0.38  -0.94  0.00734434508256
0.38  -0.92  0.00901562552712
0.38  -0.9  0.0110672228404
0.38  -0.88  0.0135856819951
0.38  -0.86  0.0166772421532
0.38  -0.84  0.0204723182786
0.38  -0.82  0.0251310025873
0.38  -0.8  0.0308498179077
0.38  -0.78  0.0378700078372
0.38  -0.76  0.0464877134082
0.38  -0.74  0.0570664655581
0.38  -0.72  0.0700525203873
0.38  -0.7  0.0859936841125
0.38  -0.68  0.105562421828
0.38  -0.66  0.129584224902
0.38  -0.64  0.159072433662
0.38  -0.62  0.195270984338
0.38  -0.6  0.239706883502
0.38  -0.58  0.294254623609
0.38  -0.56  0.361215256944
0.38  -0.54  0.443413463649
0.38  -0.52  0.54431670857
0.38  -0.5  0.668181513457
0.38  -0.48  0.820233014892
0.38  -0.46  1.00688538244
0.38  -0.44  1.23601239522
0.38  -0.42  1.51727959089
0.38  -0.4  1.86255199852
0.38  -0.38  2.28639465531
0.38  -0.36  2.80668702079
0.38  -0.34  3.44537720747
0.38  -0.32  4.22940784414
0.38  -0.3  5.19185262887
0.38  -0.28  6.37331151624
0.38  -0.26  7.82362339353
0.38  -0.24  9.6039684939
0.38  -0.22  11.789449235
0.38  -0.2  10.5631549785
0.38  -0.18  10.5783533879
0.38  -0.16  10.7019916172
0.38  -0.14  10.9177019294
0.38  -0.12  11.1982568729
0.38  -0.1  11.510564326
0.38  -0.08  11.8205482139
0.38  -0.06  12.0969310582
0.38  -0.04  12.3137214463
0.38  -0.02  12.451656809
0.38  6.17561557e-16  12.4989551023
0.38  0.02  12.451656809
0.38  0.04  12.3137214463
0.38  0.06  12.0969310582
0.38  0.08  11.8205482139
0.38  0.1  11.510564326
0.38  0.12  11.1982568729
0.38  0.14  10.9177019294
0.38  0.16  10.7019916172
0.38  0.18  10.5783533879
0.38  0.2  14.4722583538
0.38  0.22  11.789449235
0.38  0.24  9.60396849391
0.38  0.26  7.82362339353
0.38  0.28  6.37331151624
0.38  0.3  5.19185262888
0.38  0.32  4.22940784414
0.38  0.34  3.44537720748
0.38  0.36  2.80668702079
0.38  0.38  2.28639465531
0.38  0.4  1.86255199853
0.38  0.42  1.51727959089
0.38  0.44  1.23601239522
0.38  0.46  1.00688538244
0.38  0.48  0.820233014892
0.38  0.5  0.668181513458
0.38  0.52  0.54431670857
0.38  0.54  0.443413463649
0.38  0.56  0.361215256944
0.38  0.58  0.294254623609
0.38  0.6  0.239706883502
0.38  0.62  0.195270984338
0.38  0.64  0.159072433663
0.38  0.66  0.129584224902
0.38  0.68  0.105562421828
0.38  0.7  0.0859936841126
0.38  0.72  0.0700525203874
0.38  0.74  0.0570664655581
0.38  0.76  0.0464877134082
0.38  0.78  0.0378700078372
0.38  0.8  0.0308498179077
0.38  0.82  0.0251310025873
0.38  0.84  0.0204723182786
0.38  0.86  0.0166772421532
0.38  0.88  0.0135856819951
0.38  0.9  0.0110672228404
0.38  0.92  0.00901562552713
0.38  0.94  0.00734434508257
0.38  0.96  0.00598287989331
0.38  0.98  0.00487379765184
0.4  -1  0.00312708779013
0.4  -0.98  0.00383868843162
0.4  -0.96  0.00471222103887
0.4  -0.94  0.00578453487818
0.4  -0.92  0.00710086464129
0.4  -0.9  0.00871673863428
0.4  -0.88  0.0107003211942
0.4  -0.86  0.0131352881465
0.4  -0.84  0.0161243566021
0.4  -0.82  0.0197936179953
0.4  -0.8  0.0242978571495
0.4  -0.78  0.0298270817491
0.4  -0.76  0.0366145376604
0.4  -0.74  0.0449465482196
0.4  -0.72  0.0551745925511
0.4  -0.7  0.0677301324298
0.4  -0.68  0.0831428131474
0.4  -0.66  0.10206280617
0.4  -0.64  0.125288236096
0.4  -0.62  0.153798848897
0.4  -0.6  0.188797341705
0.4  -0.58  0.231760097626
0.4  -0.56  0.284499465757
0.4  -0.54  0.349240213674
0.4  -0.52  0.428713377449
0.4  -0.5  0.526271468197
0.4  -0.48  0.646029895047
0.4  -0.46  0.793040570342
0.4  -0.44  0.973505020481
0.4  -0.42  1.19503599229
0.4  -0.4  1.46697859057
0.4  -0.38  1.80080449383
0.4  -0.36  2.2105958777
0.4  -0.34  2.71363946017
0.4  -0.32  3.33115572777
0.4  -0.3  4.08919410464
0.4  -0.28  5.01973182642
0.4  -0.26  6.16202287404
0.4  -0.24  7.56425387116
0.4  -0.22  9.28557679791
0.4  -0.2  8.31972595375
0.4  -0.18  8.33169648728
0.4  -0.16  8.42907612315
0.4  -0.14  8.59897334479
0.4  -0.12  8.81994333435
0.4  -0.1  9.06592215681
0.4  -0.08  9.3100708986
0.4  -0.06  9.5277548697
0.4  -0.04  9.69850277807
0.4  -0.02  9.8071430867
0.4  6.17561557e-16  9.8443960513
0.4  0.02  9.8071430867
0.4  0.04  9.69850277807
0.4  0.06  9.5277548697
0.4  0.08  9.3100708986
0.4  0.1  9.06592215681
0.4  0.12  8.81994333435
0.4  0.14  8.59897334479
0.4  0.16  8.42907612315
0.4  0.18  8.33169648728
0.4  0.2  11.3986042693
0.4  0.22  9.28557679791
0.4  0.24  7.56425387116
0.4  0.26  6.16202287404
0.4  0.28  5.01973182642
0.4  0.3  4.08919410464
0.4  0.32  3.33115572777
0.4  0.34  2.71363946017
0.4  0.36  2.2105958777
0.4  0.38  1.80080449383
0.4  0.4  1.46697859057
0.4  0.42  1.19503599229
0.4  0.44  0.973505020482
0.4  0.46  0.793040570343
0.4  0.48  0.646029895047
0.4  0.5  0.526271468197
0.4  0.52  0.428713377449
0.4  0.54  0.349240213674
0.4  0.56  0.284499465757
0.4  0.58  0.231760097626
0.4  0.6  0.188797341705
0.4  0.62  0.153798848897
0.4  0.64  0.125288236096
0.4  0.66  0.10206280617
0.4  0.68  0.0831428131474
0.4  0.7  0.0677301324298
0.4  0.72  0.0551745925511
0.4  0.74  0.0449465482196
0.4  0.76  0.0366145376604
0.4  0.78  0.0298270817491
0.4  0.8  0.0242978571495
0.4  0.82  0.0197936179953
0.4  0.84  0.0161243566021
0.4  0.86  0.0131352881465
0.4  0.88  0.0107003211942
0.4  0.9  0.00871673863429
0.4  0.92  0.0071008646413
0.4  0.94  0.00578453487818
0.4  0.96  0.00471222103887
0.4  0.98  0.00383868843162
0.42  -1  0.00246294913784
0.42  -0.98  0.00302341827209
0.42  -0.96  0.00371142786002
0.42  -0.94  0.00455600102946
0.42  -0.92  0.00559276541625
0.42  -0.9  0.00686545608725
0.42  -0.88  0.00842776046873
0.42  -0.86  0.010345583107
0.42  -0.84  0.0126998257985
0.42  -0.82  0.0155898003664
0.42  -0.8  0.0191374180497
0.42  -0.78  0.0234923322301
0.42  -0.76  0.0288382514389
0.42  -0.74  0.0354006889528
0.42  -0.72  0.043456475889
0.42  -0.7  0.0533454391017
0.42  -0.68  0.0654847365033
0.42  -0.66  0.0803864545332
0.42  -0.64  0.0986792101103
0.42  -0.62  0.121134668329
0.42  -0.6  0.148700094525
0.42  -0.58  0.182538313902
0.42  -0.56  0.224076764367
0.42  -0.54  0.275067711845
0.42  -0.52  0.337662168201
0.42  -0.5  0.414500629934
0.42  -0.48  0.508824465386
0.42  -0.46  0.62461264924
0.42  -0.44  0.766749612355
0.42  -0.42  0.941231287521
0.42  -0.4  1.15541804304
0.42  -0.38  1.4183451739
0.42  -0.36  1.7411040484
0.42  -0.34  2.13730998852
0.42  -0.32  2.6236766213
0.42  -0.3  3.22072092964
0.42  -0.28  3.95362874465
0.42  -0.26  4.85331718953
0.42  -0.24  5.95773889342
0.42  -0.22  7.31348299238
0.42  -0.2  6.55276194342
0.42  -0.18  6.56219014538
0.42  -0.16  6.63888805292
0.42  -0.14  6.77270208171
0.42  -0.12  6.94674191743
0.42  -0.1  7.14047914816
0.42  -0.08  7.33277497528
0.42  -0.06  7.50422668529
0.42  -0.04  7.63871072985
0.42  -0.02  7.72427774057
0.42  6.17561557e-16  7.75361882825
0.42  0.02  7.72427774057
0.42  0.04  7.63871072985
0.42  0.06  7.50422668529
0.42  0.08  7.33277497528
0.42  0.1  7.14047914816
0.42  0.12  6.94674191743
0.42  0.14  6.77270208171
0.42  0.16  6.63888805292
0.42  0.18  6.56219014538
0.42  0.2  8.97774045433
0.42  0.22  7.31348299238
0.42  0.24  5.95773889343
0.42  0.26  4.85331718953
0.42  0.28  3.95362874465
0.42  0.3  3.22072092965
0.42  0.32  2.62367662131
0.42  0.34  2.13730998853
0.42  0.36  1.7411040484
0.42  0.38  1.4183451739
0.42  0.4  1.15541804304
0.42  0.42  0.941231287521
0.42  0.44  0.766749612355
0.42  0.46  0.624612649241
0.42  0.48  0.508824465386
0.42  0.5  0.414500629934
0.42  0.52  0.337662168201
0.42  0.54  0.275067711845
0.42  0.56  0.224076764367
0.42  0.58  0.182538313902
0.42  0.6  0.148700094525
0.42  0.62  0.121134668329
0.42  0.64  0.0986792101103
0.42  0.66  0.0803864545333
0.42  0.68  0.0654847365033
0.42  0.7  0.0533454391017
0.42  0.72  0.043456475889
0.42  0.74  0.0354006889529
0.42  0.76  0.0288382514389
0.42  0.78  0.0234923322301
0.42  0.8  0.0191374180497
0.42  0.82  0.0155898003664
0.42  0.84  0.0126998257985
0.42  0.86  0.010345583107
0.42  0.88  0.00842776046874
0.42  0.9  0.00686545608726
0.42  0.92  0.00559276541625
0.42  0.94  0.00455600102946
0.42  0.96  0.00371142786002
0.42  0.98  0.00302341827209
0.44  -1  0.00193986189795
0.44  -0.98  0.00238129720889
0.44  -0.96  0.00292318561598
0.44  -0.94  0.00358838624325
0.44  -0.92  0.00440496004097
0.44  -0.9  0.00540735351415
0.44  -0.88  0.00663785182045
0.44  -0.86  0.00814836253539
0.44  -0.84  0.0100026053314
0.44  -0.82  0.0122787999406
0.44  -0.8  0.015072965791
0.44  -0.78  0.0185029725084
0.44  -0.76  0.022713512151
0.44  -0.74  0.0278822029272
0.44  -0.72  0.0342270818755
0.44  -0.7  0.042015802581
0.44  -0.68  0.0515769259251
0.44  -0.66  0.0633137801605
0.44  -0.64  0.0777214749875
0.44  -0.62  0.0954077873555
0.44  -0.6  0.117118800043
0.44  -0.58  0.143770374553
0.44  -0.56  0.176486785996
0.44  -0.54  0.216648149718
0.44  -0.52  0.265948640354
0.44  -0.5  0.326467959216
0.44  -0.48  0.400759064805
0.44  -0.46  0.491955867305
0.44  -0.44  0.603905430047
0.44  -0.42  0.741330254759
0.44  -0.4  0.910027496489
0.44  -0.38  1.11711351189
0.44  -0.36  1.37132405698
0.44  -0.34  1.68338279794
0.44  -0.32  2.06645368026
0.44  -0.3  2.53669623921
0.44  -0.28  3.11394727667
0.44  -0.26  3.82255766063
0.44  -0.24  4.69241954683
0.44  -0.22  5.76022735517
0.44  -0.2  5.16107012729
0.44  -0.18  5.16849594436
0.44  -0.16  5.22890456028
0.44  -0.14  5.3342988341
0.44  -0.12  5.47137565832
0.44  -0.1  5.623966496
0.44  -0.08  5.77542205895
0.44  -0.06  5.91046043
0.44  -0.04  6.01638242
0.44  -0.02  6.08377649699
0.44  6.17561557e-16  6.10688605177
0.44  0.02  6.08377649699
0.44  0.04  6.01638242
0.44  0.06  5.91046043
0.44  0.08  5.77542205895
0.44  0.1  5.623966496
0.44  0.12  5.47137565832
0.44  0.14  5.3342988341
0.44  0.16  5.22890456028
0.44  0.18  5.16849594436
0.44  0.2  7.07102569412
0.44  0.22  5.76022735517
0.44  0.24  4.69241954683
0.44  0.26  3.82255766063
0.44  0.28  3.11394727667
0.44  0.3  2.53669623921
0.44  0.32  2.06645368027
0.44  0.34  1.68338279794
0.44  0.36  1.37132405698
0.44  0.38  1.11711351189
0.44  0.4  0.910027496489
0.44  0.42  0.74133025476
0.44  0.44  0.603905430047
0.44  0.46  0.491955867306
0.44  0.48  0.400759064805
0.44  0.5  0.326467959216
0.44  0.52  0.265948640354
0.44  0.54  0.216648149718
0.44  0.56  0.176486785996
0.44  0.58  0.143770374554
0.44  0.6  0.117118800043
0.44  0.62  0.0954077873556
0.44  0.64  0.0777214749875
0.44  0.66  0.0633137801606
0.44  0.68  0.0515769259251
0.44  0.7  0.042015802581
0.44  0.72  0.0342270818755
0.44  0.74  0.0278822029272
0.44  0.76  0.022713512151
0.44  0.78  0.0185029725084
0.44  0.8  0.015072965791
0.44  0.82  0.0122787999406
0.44  0.84  0.0100026053314
0.44  0.86  0.00814836253539
0.44  0.88  0.00663785182046
0.44  0.9  0.00540735351415
0.44  0.92  0.00440496004097
0.44  0.94  0.00358838624325
0.44  0.96  0.00292318561598
0.44  0.98  0.00238129720889
0.46  -1  0.00152786922202
0.46  -0.98  0.00187555140796
0.46  -0.96  0.00230235221261
0.46  -0.94  0.00282627588261
0.46  -0.92  0.0034694237141
0.46  -0.9  0.004258926378
0.46  -0.88  0.00522808840543
0.46  -0.86  0.00641779311241
0.46  -0.84  0.00787822722946
0.46  -0.82  0.00967099798824
0.46  -0.8  0.0118717319727
0.46  -0.78  0.0145732653656
0.46  -0.76  0.0178895601672
0.46  -0.74  0.0219605115908
0.46  -0.72  0.0269578494285
0.46  -0.7  0.0330923823339
0.46  -0.68  0.0406228906143
0.46  -0.66  0.049867042669
0.46  -0.64  0.0612147955733
0.46  -0.62  0.0751448451024
0.46  -0.6  0.0922448191256
0.46  -0.58  0.113236066212
0.46  -0.56  0.139004085137
0.46  -0.54  0.170635878931
0.46  -0.52  0.209465809223
0.46  -0.5  0.257131885207
0.46  -0.48  0.315644861734
0.46  -0.46  0.387473061377
0.46  -0.44  0.475646498627
0.46  -0.42  0.583884698594
0.46  -0.4  0.716753602175
0.46  -0.38  0.879858176567
0.46  -0.36  1.08007885628
0.46  -0.34  1.3258617887
0.46  -0.32  1.62757512797
0.46  -0.3  1.99794640722
0.46  -0.28  2.45259943919
0.46  -0.26  3.01071339421
0.46  -0.24  3.69583185792
0.46  -0.22  4.53685599841
0.46  -0.2  4.06494926701
0.46  -0.18  4.07079797065
0.46  -0.16  4.11837685506
0.46  -0.14  4.20138723189
0.46  -0.12  4.30935134057
0.46  -0.1  4.4295345581
0.46  -0.08  4.54882361335
0.46  -0.06  4.65518220061
0.46  -0.04  4.73860821594
0.46  -0.02  4.79168897189
0.46  6.17561557e-16  4.80989046217
0.46  0.02  4.79168897189
0.46  0.04  4.73860821594
0.46  0.06  4.65518220061
0.46  0.08  4.54882361335
0.46  0.1  4.4295345581
0.46  0.12  4.30935134057
0.46  0.14  4.20138723189
0.46  0.16  4.11837685506
0.46  0.18  4.07079797065
0.46  0.2  5.56926373861
0.46  0.22  4.53685599841
0.46  0.24  3.69583185792
0.46  0.26  3.01071339421
0.46  0.28  2.45259943919
0.46  0.3  1.99794640722
0.46  0.32  1.62757512797
0.46  0.34  1.3258617887
0.46  0.36  1.08007885628
0.46  0.38  0.879858176567
0.46  0.4  0.716753602175
0.46  0.42  0.583884698594
0.46  0.44  0.475646498627
0.46  0.46  0.387473061378
0.46  0.48  0.315644861734
0.46  0.5  0.257131885207
0.46  0.52  0.209465809223
0.46  0.54  0.170635878931
0.46  0.56  0.139004085137
0.46  0.58  0.113236066212
0.46  0.6  0.0922448191256
0.46  0.62  0.0751448451024
0.46  0.64  0.0612147955733
0.46  0.66  0.049867042669
