-0.6  -0.14  0.0165268814098
-0.6  -0.12  0.0174302297794
-0.6  -0.1  0.0184000950348
-0.6  -0.08  0.0193339535536
-0.6  -0.06  0.0201467004233
-0.6  -0.04  0.0207729136441
-0.6  -0.02  0.021166704719
-0.6  6.17561557e-16  0.0213009565364
-0.6  0.02  0.021166704719
-0.6  0.04  0.0207729136441
-0.6  0.06  0.0201467004233
-0.6  0.08  0.0193339535536
-0.6  0.1  0.0184000950348
-0.6  0.12  0.0174302297794
-0.6  0.14  0.0165268814098
-0.6  0.16  0.0158020641934
-0.6  0.18  0.0153601584652
-0.6  0.2  0.0210890398738
-0.6  0.22  0.016661383477
-0.6  0.24  0.01316331616
-0.6  0.26  0.0103996701454
-0.6  0.28  0.00821625324647
-0.6  0.3  0.00649124601704
-0.6  0.32  0.00512840507587
-0.6  0.34  0.00405169339648
-0.6  0.36  0.00320103797111
-0.6  0.38  0.0025289781555
-0.6  0.4  0.00199801769573
-0.6  0.42  0.00157853269859
-0.6  0.44  0.00124711882474
-0.6  0.46  0.000985285489749
-0.6  0.48  0.00077842421833
-0.6  0.5  0.000614993593215
-0.6  0.52  0.00048587532452
-0.6  0.54  0.000383865512717
-0.6  0.56  0.000303272721246
-0.6  0.58  0.00023960043402
-0.6  0.6  0.000189296181161
-0.6  0.62  0.000149553335948
-0.6  0.64  0.000118154524598
-0.6  0.66  0.0000933479122641
-0.6  0.68  0.0000737494628642
-0.6  0.7  0.0000582657195094
-0.6  0.72  0.0000460327972313
-0.6  0.74  0.0000363681842218
-0.6  0.76  0.0000287326624309
-0.6  0.78  0.0000227002229567
-0.6  0.8  0.0000179342977186
-0.6  0.82  0.0000141689813035
-0.6  0.84  0.0000111941952972
-0.6  0.86  0.00000884396737262
-0.6  0.88  0.00000698717119109
-0.6  0.9  0.00000552021046625
-0.6  0.92  0.00000436123901338
-0.6  0.94  0.00000344559430263
-0.6  0.96  0.00000272218974055
-0.6  0.98  0.00000215066439421
-0.58  -1  0.00000217149616464
-0.58  -0.98  0.00000274855742111
-0.58  -0.96  0.00000347896902613
-0.58  -0.94  0.0000044034828568
-0.58  -0.92  0.00000557368034164
-0.58  -0.9  0.00000705485034483
-0.58  -0.88  0.00000892963182984
-0.58  -0.86  0.0000113026245376
-0.58  -0.84  0.000014306224923
-0.58  -0.82  0.0000181080129546
-0.58  -0.8  0.0000229201019088
-0.58  -0.78  0.0000290109728121
-0.58  -0.76  0.000036720453812
-0.58  -0.74  0.0000464786802183
-0.58  -0.72  0.0000588300930564
-0.58  -0.7  0.000074463815082
-0.58  -0.68  0.0000942520990277
-0.58  -0.66  0.000119298993227
-0.58  -0.64  0.000151001939817
-0.58  -0.62  0.000191129742269
-0.58  -0.6  0.000241921252298
-0.58  -0.58  0.00030621028218
-0.58  -0.56  0.000387583711734
-0.58  -0.54  0.000490581611212
-0.58  -0.52  0.00062095054558
-0.58  -0.5  0.000785964192794
-0.58  -0.48  0.000994829164338
-0.58  -0.46  0.00125919866998
-0.58  -0.44  0.00159382268566
-0.58  -0.42  0.00201737089936
-0.58  -0.4  0.00255347434956
-0.58  -0.38  0.0032320438725
-0.58  -0.36  0.00409093891842
-0.58  -0.34  0.00517807984497
-0.58  -0.32  0.00655412153922
-0.58  -0.3  0.00829583753766
-0.58  -0.28  0.0105004034544
-0.58  -0.26  0.0132908187034
-0.58  -0.24  0.0168227690082
-0.58  -0.22  0.0212933125805
-0.58  -0.2  0.0195182311058
-0.58  -0.18  0.0196303419784
-0.58  -0.16  0.0201950992096
-0.58  -0.14  0.0211214184179
-0.58  -0.12  0.0222759011312
-0.58  -0.1  0.023515392682
-0.58  -0.08  0.024708867484
-0.58  -0.06  0.0257475611297
-0.58  -0.04  0.0265478640499
-0.58  -0.02  0.0270511305681
-0.58  6.17561557e-16  0.0272227049104
-0.58  0.02  0.0270511305681
-0.58  0.04  0.0265478640499
-0.58  0.06  0.0257475611297
-0.58  0.08  0.024708867484
-0.58  0.1  0.023515392682
-0.58  0.12  0.0222759011312
-0.58  0.14  0.0211214184179
-0.58  0.16  0.0201950992096
-0.58  0.18  0.0196303419784
-0.58  0.2  0.0269518745952
-0.58  0.22  0.0212933125805
-0.58  0.24  0.0168227690082
-0.58  0.26  0.0132908187034
-0.58  0.28  0.0105004034544
-0.58  0.3  0.00829583753765
-0.58  0.32  0.00655412153922
-0.58  0.34  0.00517807984497
-0.58  0.36  0.00409093891842
-0.58  0.38  0.0032320438725
-0.58  0.4  0.00255347434955
-0.58  0.42  0.00201737089936
-0.58  0.44  0.00159382268566
-0.58  0.46  0.00125919866998
-0.58  0.48  0.000994829164338
-0.58  0.5  0.000785964192793
-0.58  0.52  0.000620950545579
-0.58  0.54  0.000490581611211
-0.58  0.56  0.000387583711734
-0.58  0.58  0.00030621028218
-0.58  0.6  0.000241921252297
-0.58  0.62  0.000191129742269
-0.58  0.64  0.000151001939817
-0.58  0.66  0.000119298993227
-0.58  0.68  0.0000942520990276
-0.58  0.7  0.0000744638150819
-0.58  0.72  0.0000588300930564
-0.58  0.74  0.0000464786802182
-0.58  0.76  0.0000367204538119
-0.58  0.78  0.0000290109728121
-0.58  0.8  0.0000229201019088
-0.58  0.82  0.0000181080129546
-0.58  0.84  0.000014306224923
-0.58  0.86  0.0000113026245376
-0.58  0.88  0.00000892963182983
-0.58  0.9  0.00000705485034483
-0.58  0.92  0.00000557368034163
-0.58  0.94  0.00000440348285679
-0.58  0.96  0.00000347896902613
-0.58  0.98  0.00000274855742111
-0.56  -1  0.00000277518050436
-0.56  -0.98  0.00000351266702395
-0.56  -0.96  0.00000444613588262
-0.56  -0.94  0.00000562766813705
-0.56  -0.92  0.00000712318505255
-0.56  -0.9  0.00000901612605031
-0.56  -0.88  0.0000114121040455
-0.56  -0.86  0.0000144447979119
-0.56  -0.84  0.0000182834108316
-0.56  -0.82  0.0000231421106529
-0.56  -0.8  0.000029291978964
-0.56  -0.78  0.0000370761355565
-0.56  -0.76  0.000046928882118
-0.56  -0.74  0.0000593999332398
-0.56  -0.72  0.0000751850866597
-0.56  -0.7  0.0000951650439272
-0.56  -0.68  0.000120454547411
-0.56  -0.66  0.000152464575155
-0.56  -0.64  0.000192981063621
-0.56  -0.62  0.000244264550491
-0.56  -0.6  0.000309176296923
-0.56  -0.58  0.000391337925978
-0.56  -0.56  0.000495333483948
-0.56  -0.54  0.000626965198189
-0.56  -0.52  0.000793577200975
-0.56  -0.5  0.00100446528089
-0.56  -0.48  0.00127139552305
-0.56  -0.46  0.00160926077464
-0.56  -0.44  0.00203691156203
-0.56  -0.42  0.0025782078187
-0.56  -0.4  0.00326335010333
-0.56  -0.38  0.00413056458043
-0.56  -0.36  0.00522823577393
-0.56  -0.34  0.00661760608643
-0.56  -0.32  0.00837619269839
-0.56  -0.3  0.0106021124866
-0.56  -0.28  0.0134195562623
-0.56  -0.26  0.0169857177522
-0.56  -0.24  0.0214995639141
-0.56  -0.22  0.0272129359052
-0.56  -0.2  0.024944374909
-0.56  -0.18  0.0250876530382
-0.56  -0.16  0.0258094149659
-0.56  -0.14  0.0269932545
-0.56  -0.12  0.0284686878766
-0.56  -0.1  0.0300527628767
-0.56  -0.08  0.0315780282935
-0.56  -0.06  0.0329054827936
-0.56  -0.04  0.0339282730236
-0.56  -0.02  0.034571449582
-0.56  6.17561557e-16  0.0347907222557
-0.56  0.02  0.034571449582
-0.56  0.04  0.0339282730236
-0.56  0.06  0.0329054827936
-0.56  0.08  0.0315780282935
-0.56  0.1  0.0300527628767
-0.56  0.12  0.0284686878766
-0.56  0.14  0.0269932545
-0.56  0.16  0.0258094149659
-0.56  0.18  0.0250876530382
-0.56  0.2  0.0344446000644
-0.56  0.22  0.0272129359052
-0.56  0.24  0.0214995639141
-0.56  0.26  0.0169857177522
-0.56  0.28  0.0134195562622
-0.56  0.3  0.0106021124866
-0.56  0.32  0.00837619269839
-0.56  0.34  0.00661760608642
-0.56  0.36  0.00522823577393
-0.56  0.38  0.00413056458043
-0.56  0.4  0.00326335010333
-0.56  0.42  0.0025782078187
-0.56  0.44  0.00203691156202
-0.56  0.46  0.00160926077464
-0.56  0.48  0.00127139552305
-0.56  0.5  0.00100446528089
-0.56  0.52  0.000793577200974
-0.56  0.54  0.000626965198189
-0.56  0.56  0.000495333483948
-0.56  0.58  0.000391337925978
-0.56  0.6  0.000309176296923
-0.56  0.62  0.000244264550491
-0.56  0.64  0.00019298106362
-0.56  0.66  0.000152464575155
-0.56  0.68  0.000120454547411
-0.56  0.7  0.0000951650439271
-0.56  0.72  0.0000751850866597
-0.56  0.74  0.0000593999332397
-0.56  0.76  0.000046928882118
-0.56  0.78  0.0000370761355565
-0.56  0.8  0.000029291978964
-0.56  0.82  0.0000231421106528
-0.56  0.84  0.0000182834108316
-0.56  0.86  0.0000144447979119
-0.56  0.88  0.0000114121040455
-0.56  0.9  0.0000090161260503
-0.56  0.92  0.00000712318505255
-0.56  0.94  0.00000562766813704
-0.56  0.96  0.00000444613588262
-0.56  0.98  0.00000351266702395
-0.54  -1  0.0000035466914274
-0.54  -0.98  0.00000448920205429
-0.54  -0.96  0.00000568217886916
-0.54  -0.94  0.00000719218166407
-0.54  -0.92  0.00000910345807129
-0.54  -0.9  0.0000115226439941
-0.54  -0.88  0.0000145847131468
-0.54  -0.86  0.0000184605076478
-0.54  -0.84  0.0000233662698186
-0.54  -0.82  0.0000295757069984
-0.54  -0.8  0.0000374352625065
-0.54  -0.78  0.0000473834447645
-0.54  -0.76  0.0000599752930104
-0.54  -0.74  0.0000759133446199
-0.54  -0.72  0.0000960868317956
-0.54  -0.7  0.000121621294527
-0.54  -0.68  0.000153941377876
-0.54  -0.66  0.000194850317245
-0.54  -0.64  0.000246630546344
-0.54  -0.62  0.000312171041085
-0.54  -0.6  0.000395128504302
-0.54  -0.58  0.000500131384285
-0.54  -0.56  0.000633038109941
-0.54  -0.54  0.000801263950293
-0.54  -0.52  0.00101419473482
-0.54  -0.5  0.0012837105173
-0.54  -0.48  0.00162484840008
-0.54  -0.46  0.00205664149951
-0.54  -0.44  0.00260318086124
-0.54  -0.42  0.00329495957265
-0.54  -0.4  0.00417057406462
-0.54  -0.38  0.00527887752337
-0.54  -0.36  0.0066817055578
-0.54  -0.34  0.00845732619547
-0.54  -0.32  0.0107048066931
-0.54  -0.3  0.0135495407991
-0.54  -0.28  0.0171502448508
-0.54  -0.26  0.0217078130398
-0.54  -0.24  0.0274765259079
-0.54  -0.22  0.0347782374292
-0.54  -0.2  0.0318790076944
-0.54  -0.18  0.0320621176981
-0.54  -0.16  0.0329845322357
-0.54  -0.14  0.034497483743
-0.54  -0.12  0.0363830933097
-0.54  -0.1  0.0384075472918
-0.54  -0.08  0.0403568423989
-0.54  -0.06  0.0420533343886
-0.54  -0.04  0.0433604642619
-0.54  -0.02  0.0441824463933
-0.54  6.17561557e-16  0.044462677719
-0.54  0.02  0.0441824463933
-0.54  0.04  0.0433604642619
-0.54  0.06  0.0420533343886
-0.54  0.08  0.0403568423989
-0.54  0.1  0.0384075472918
-0.54  0.12  0.0363830933097
-0.54  0.14  0.034497483743
-0.54  0.16  0.0329845322357
-0.54  0.18  0.0320621176981
-0.54  0.2  0.0440203322187
-0.54  0.22  0.0347782374292
-0.54  0.24  0.0274765259078
-0.54  0.26  0.0217078130397
-0.54  0.28  0.0171502448508
-0.54  0.3  0.0135495407991
-0.54  0.32  0.0107048066931
-0.54  0.34  0.00845732619546
-0.54  0.36  0.00668170555779
-0.54  0.38  0.00527887752337
-0.54  0.4  0.00417057406461
-0.54  0.42  0.00329495957264
-0.54  0.44  0.00260318086123
-0.54  0.46  0.0020566414995
-0.54  0.48  0.00162484840008
-0.54  0.5  0.0012837105173
-0.54  0.52  0.00101419473481
-0.54  0.54  0.000801263950293
-0.54  0.56  0.000633038109941
-0.54  0.58  0.000500131384285
-0.54  0.6  0.000395128504301
-0.54  0.62  0.000312171041085
-0.54  0.64  0.000246630546344
-0.54  0.66  0.000194850317245
-0.54  0.68  0.000153941377876
-0.54  0.7  0.000121621294526
-0.54  0.72  0.0000960868317955
-0.54  0.74  0.0000759133446199
-0.54  0.76  0.0000599752930103
-0.54  0.78  0.0000473834447644
-0.54  0.8  0.0000374352625064
-0.54  0.82  0.0000295757069984
-0.54  0.84  0.0000233662698185
-0.54  0.86  0.0000184605076478
-0.54  0.88  0.0000145847131468
-0.54  0.9  0.0000115226439941
-0.54  0.92  0.00000910345807129
-0.54  0.94  0.00000719218166407
-0.54  0.96  0.00000568217886916
-0.54  0.98  0.00000448920205428
-0.52  -1  0.0000045326853736
-0.52  -0.98  0.00000573721760326
-0.52  -0.96  0.00000726184659073
-0.52  -0.94  0.00000919163600791
-0.52  -0.92  0.000011634254655
-0.52  -0.9  0.000014725983629
-0.52  -0.88  0.0000186393198597
-0.52  -0.86  0.0000235926002353
-0.52  -0.84  0.0000298621832799
-0.52  -0.82  0.0000377978680327
-0.52  -0.8  0.0000478424103967
-0.52  -0.78  0.0000605562258322
-0.52  -0.76  0.0000766486566341
-0.52  -0.74  0.0000970175482879
-0.52  -0.72  0.000122799342991
-0.52  -0.7  0.000155432485206
-0.52  -0.68  0.000196737676838
-0.52  -0.66  0.000249019459713
-0.52  -0.64  0.000315194792945
-0.52  -0.62  0.000398955798933
-0.52  -0.6  0.000504975758056
-0.52  -0.58  0.000639169845145
-0.52  -0.56  0.000809025155021
-0.52  -0.54  0.0010240184302
-0.52  -0.52  0.00129614479708
-0.52  -0.5  0.00164058701041
-0.52  -0.48  0.00207656254515
-0.52  -0.46  0.00262839579771
-0.52  -0.44  0.00332687521768
-0.52  -0.42  0.00421097108876
-0.52  -0.4  0.00533000979904
-0.52  -0.38  0.00674642590962
-0.52  -0.36  0.00853924556801
-0.52  -0.34  0.0108084956165
-0.52  -0.32  0.0136807843925
-0.52  -0.3  0.0173163655921
-0.52  -0.28  0.0219180793086
-0.52  -0.26  0.0277426690966
-0.52  -0.24  0.035115106473
-0.52  -0.22  0.0444467220625
-0.52  -0.2  0.0407414952384
-0.52  -0.18  0.0409755105319
-0.52  -0.16  0.0421543598816
-0.52  -0.14  0.0440879177646
-0.52  -0.12  0.0464977340902
-0.52  -0.1  0.0490849941161
-0.52  -0.08  0.0515762008088
-0.52  -0.06  0.0537443241388
-0.52  -0.04  0.0554148411768
-0.52  -0.02  0.0564653375227
-0.52  6.17561557e-16  0.0568234742417
-0.52  0.02  0.0564653375227
-0.52  0.04  0.0554148411768
-0.52  0.06  0.0537443241388
-0.52  0.08  0.0515762008088
-0.52  0.1  0.0490849941161
-0.52  0.12  0.0464977340902
-0.52  0.14  0.0440879177646
-0.52  0.16  0.0421543598816
-0.52  0.18  0.0409755105319
-0.52  0.2  0.05625815498
-0.52  0.22  0.0444467220624
-0.52  0.24  0.0351151064729
-0.52  0.26  0.0277426690966
-0.52  0.28  0.0219180793086
-0.52  0.3  0.0173163655921
-0.52  0.32  0.0136807843925
-0.52  0.34  0.0108084956164
-0.52  0.36  0.00853924556801
-0.52  0.38  0.00674642590961
-0.52  0.4  0.00533000979904
-0.52  0.42  0.00421097108876
-0.52  0.44  0.00332687521767
-0.52  0.46  0.00262839579771
-0.52  0.48  0.00207656254515
-0.52  0.5  0.00164058701041
-0.52  0.52  0.00129614479708
-0.52  0.54  0.0010240184302
-0.52  0.56  0.00080902515502
-0.52  0.58  0.000639169845145
-0.52  0.6  0.000504975758055
-0.52  0.62  0.000398955798933
-0.52  0.64  0.000315194792945
-0.52  0.66  0.000249019459712
-0.52  0.68  0.000196737676838
-0.52  0.7  0.000155432485206
-0.52  0.72  0.000122799342991
-0.52  0.74  0.0000970175482878
-0.52  0.76  0.000076648656634
-0.52  0.78  0.0000605562258321
-0.52  0.8  0.0000478424103966
-0.52  0.82  0.0000377978680327
-0.52  0.84  0.0000298621832799
-0.52  0.86  0.0000235926002353
-0.52  0.88  0.0000186393198597
-0.52  0.9  0.000014725983629
-0.52  0.92  0.000011634254655
-0.52  0.94  0.0000091916360079
-0.52  0.96  0.00000726184659073
-0.52  0.98  0.00000573721760325
-0.5  -1  0.00000579278945367
-0.5  -0.98  0.00000733218630596
-0.5  -0.96  0.00000928066805385
-0.5  -0.94  0.0000117469463993
-0.5  -0.92  0.0000148686224857
-0.5  -0.9  0.0000188198640828
-0.5  -0.88  0.0000238211229342
-0.5  -0.86  0.0000301514344286
-0.5  -0.84  0.0000381639858294
-0.5  -0.82  0.0000483058216628
-0.5  -0.8  0.0000611427856868
-0.5  -0.78  0.0000773910910291
-0.5  -0.76  0.0000979572798883
-0.5  -0.74  0.000123988802271
-0.5  -0.72  0.000156938035703
-0.5  -0.7  0.000198643317778
-0.5  -0.68  0.000251431512579
-0.5  -0.66  0.000318247833477
-0.5  -0.64  0.000402820165515
-0.5  -0.62  0.000509867055411
-0.5  -0.6  0.000645360973577
-0.5  -0.58  0.000816861536347
-0.5  -0.56  0.00103393727989
-0.5  -0.54  0.00130869951781
-0.5  -0.52  0.0016564780681
-0.5  -0.5  0.00209667655008
-0.5  -0.48  0.00265385497116
-0.5  -0.46  0.0033591000041
-0.5  -0.44  0.00425175940666
-0.5  -0.42  0.00538163735228
-0.5  -0.4  0.00681177315586
-0.5  -0.38  0.00862195842817
-0.5  -0.36  0.0109131888917
-0.5  -0.34  0.013813299238
-0.5  -0.32  0.0174840954125
-0.5  -0.3  0.0221303822591
-0.5  -0.28  0.0280113902022
-0.5  -0.26  0.0354552384985
-0.5  -0.24  0.0448772420044
-0.5  -0.22  0.0568030828509
-0.5  -0.2  0.0520677886266
-0.5  -0.18  0.0523668610776
-0.5  -0.16  0.0538734351099
-0.5  -0.14  0.0563445295693
-0.5  -0.12  0.0594242841619
-0.5  -0.1  0.0627308124903
-0.5  -0.08  0.0659145842872
-0.5  -0.06  0.0686854542958
-0.5  -0.04  0.070820381537
-0.5  -0.02  0.0721629199335
-0.5  6.17561557e-16  0.0726206200469
-0.5  0.02  0.0721629199335
-0.5  0.04  0.070820381537
-0.5  0.06  0.0686854542958
-0.5  0.08  0.0659145842872
-0.5  0.1  0.0627308124903
-0.5  0.12  0.0594242841619
-0.5  0.14  0.0563445295693
-0.5  0.16  0.0538734351099
-0.5  0.18  0.0523668610776
-0.5  0.2  0.071898139842
-0.5  0.22  0.0568030828508
-0.5  0.24  0.0448772420044
-0.5  0.26  0.0354552384984
-0.5  0.28  0.0280113902021
-0.5  0.3  0.022130382259
-0.5  0.32  0.0174840954125
-0.5  0.34  0.0138132992379
-0.5  0.36  0.0109131888917
-0.5  0.38  0.00862195842817
-0.5  0.4  0.00681177315585
-0.5  0.42  0.00538163735227
-0.5  0.44  0.00425175940665
-0.5  0.46  0.0033591000041
-0.5  0.48  0.00265385497116
-0.5  0.5  0.00209667655008
-0.5  0.52  0.0016564780681
-0.5  0.54  0.00130869951781
-0.5  0.56  0.00103393727988
-0.5  0.58  0.000816861536347
-0.5  0.6  0.000645360973576
-0.5  0.62  0.00050986705541
-0.5  0.64  0.000402820165515
-0.5  0.66  0.000318247833477
-0.5  0.68  0.000251431512579
-0.5  0.7  0.000198643317778
-0.5  0.72  0.000156938035703
-0.5  0.74  0.000123988802271
-0.5  0.76  0.0000979572798882
-0.5  0.78  0.000077391091029
-0.5  0.8  0.0000611427856868
-0.5  0.82  0.0000483058216628
-0.5  0.84  0.0000381639858294
-0.5  0.86  0.0000301514344286
-0.5  0.88  0.0000238211229342
-0.5  0.9  0.0000188198640828
-0.5  0.92  0.0000148686224857
-0.5  0.94  0.0000117469463993
-0.5  0.96  0.00000928066805385
-0.5  0.98  0.00000733218630596
-0.48  -1  0.00000740320734591
-0.48  -0.98  0.00000937056248221
-0.48  -0.96  0.0000118607296987
-0.48  -0.94  0.0000150126429712
-0.48  -0.92  0.0000190021570938
-0.48  -0.9  0.0000240518591502
-0.48  -0.88  0.0000304434873225
-0.48  -0.86  0.0000385336499172
-0.48  -0.84  0.0000487737216243
-0.48  -0.82  0.0000617350270789
-0.48  -0.8  0.0000781407167939
-0.48  -0.78  0.0000989061139192
-0.48  -0.76  0.000125189782894
-0.48  -0.74  0.000158458169268
-0.48  -0.72  0.000200567417142
-0.48  -0.7  0.000253866929077
-0.48  -0.68  0.000321330446377
-0.48  -0.66  0.000406721963133
-0.48  -0.64  0.000514805730861
-0.48  -0.62  0.000651612070531
-0.48  -0.6  0.000824773822449
-0.48  -0.58  0.00104395220556
-0.48  -0.56  0.00132137584611
-0.48  -0.54  0.00167252304979
-0.48  -0.52  0.00211698538332
-0.48  -0.5  0.00267956074732
-0.48  -0.48  0.00339163692632
-0.48  -0.46  0.00429294280845
-0.48  -0.44  0.00543376498044
-0.48  -0.42  0.00687775336874
-0.48  -0.4  0.00870547246183
-0.48  -0.38  0.0110188962472
-0.48  -0.36  0.013947097649
-0.48  -0.34  0.0176534498979
-0.48  -0.32  0.0223447416189
-0.48  -0.3  0.0282827141947
-0.48  -0.28  0.0357986651116
-0.48  -0.26  0.0453119320497
-0.48  -0.24  0.0573532890033
-0.48  -0.22  0.0725945597704
-0.48  -0.2  0.0665428354213
-0.48  -0.18  0.0669250511714
-0.48  -0.16  0.0688504586167
-0.48  -0.14  0.0720085269015
-0.48  -0.12  0.0759444651927
-0.48  -0.1  0.0801702211961
-0.48  -0.08  0.084239093877
-0.48  -0.06  0.0877802764742
-0.48  -0.04  0.0905087217528
-0.48  -0.02  0.0922244910206
-0.48  6.17561557e-16  0.0928094335372
-0.48  0.02  0.0922244910206
-0.48  0.04  0.0905087217528
-0.48  0.06  0.0877802764742
-0.48  0.08  0.084239093877
-0.48  0.1  0.0801702211961
-0.48  0.12  0.0759444651927
-0.48  0.14  0.0720085269015
-0.48  0.16  0.0688504586167
-0.48  0.18  0.0669250511714
-0.48  0.2  0.0918861010387
-0.48  0.22  0.0725945597704
-0.48  0.24  0.0573532890032
-0.48  0.26  0.0453119320496
-0.48  0.28  0.0357986651115
-0.48  0.3  0.0282827141947
-0.48  0.32  0.0223447416188
-0.48  0.34  0.0176534498979
-0.48  0.36  0.0139470976489
-0.48  0.38  0.0110188962471
-0.48  0.4  0.00870547246182
-0.48  0.42  0.00687775336874
-0.48  0.44  0.00543376498043
-0.48  0.46  0.00429294280845
-0.48  0.48  0.00339163692632
-0.48  0.5  0.00267956074732
-0.48  0.52  0.00211698538332
-0.48  0.54  0.00167252304979
-0.48  0.56  0.0013213758461
-0.48  0.58  0.00104395220555
-0.48  0.6  0.000824773822448
-0.48  0.62  0.00065161207053
-0.48  0.64  0.000514805730861
-0.48  0.66  0.000406721963133
-0.48  0.68  0.000321330446377
-0.48  0.7  0.000253866929077
-0.48  0.72  0.000200567417142
-0.48  0.74  0.000158458169267
-0.48  0.76  0.000125189782894
-0.48  0.78  0.0000989061139191
-0.48  0.8  0.0000781407167939
-0.48  0.82  0.0000617350270788
-0.48  0.84  0.0000487737216242
-0.48  0.86  0.0000385336499171
-0.48  0.88  0.0000304434873224
-0.48  0.9  0.0000240518591502
-0.48  0.92  0.0000190021570938
-0.48  0.94  0.0000150126429712
-0.48  0.96  0.0000118607296987
-0.48  0.98  0.0000093705624822
-0.46  -1  0.00000946132764618
-0.46  -0.98  0.0000119756151261
-0.46  -0.96  0.0000151580584682
-0.46  -0.94  0.0000191862158317
-0.46  -0.92  0.0000242848303239
-0.46  -0.9  0.0000307383690997
-0.46  -0.88  0.0000389068946461
-0.46  -0.86  0.0000492461537594
-0.46  -0.84  0.0000623330050409
-0.46  -0.82  0.0000788976035856
-0.46  -0.8  0.0000998641385485
-0.46  -0.78  0.000126402396458
-0.46  -0.76  0.000159993027153
-0.46  -0.74  0.000202510153722
-0.46  -0.72  0.000256325935512
-0.46  -0.7  0.00032444291809
-0.46  -0.68  0.000410661554353
-0.46  -0.66  0.000519792243322
-0.46  -0.64  0.000657923716874
-0.46  -0.62  0.000832762748554
-0.46  -0.6  0.00105406413782
-0.46  -0.58  0.00133417495988
-0.46  -0.56  0.00168872344642
-0.46  -0.54  0.00213749093204
-0.46  -0.52  0.00270551551482
-0.46  -0.5  0.00342448900776
-0.46  -0.48  0.004334525121
-0.46  -0.46  0.00548639752735
-0.46  -0.44  0.00694437267932
-0.46  -0.42  0.00878979542931
-0.46  -0.4  0.0111256275055
-0.46  -0.38  0.0140821920584
-0.46  -0.36  0.0178244447851
-0.46  -0.34  0.0225611773068
-0.46  -0.32  0.0285566662863
-0.46  -0.3  0.0361454182243
-0.46  -0.28  0.0457508325906
-0.46  -0.26  0.0579088245638
-0.46  -0.24  0.0732977253631
-0.46  -0.22  0.092776128403
-0.46  -0.2  0.0850420012584
-0.46  -0.18  0.0855304744666
-0.46  -0.16  0.087991152635
-0.46  -0.14  0.092027176128
-0.46  -0.12  0.0970573205003
-0.46  -0.1  0.102457853031
-0.46  -0.08  0.107657888068
-0.46  -0.06  0.112183533135
-0.46  -0.04  0.115670496763
-0.46  -0.02  0.117863256529
-0.46  6.17561557e-16  0.11861081533
-0.46  0.02  0.117863256529
-0.46  0.04  0.115670496763
-0.46  0.06  0.112183533135
-0.46  0.08  0.107657888068
-0.46  0.1  0.102457853031
-0.46  0.12  0.0970573205003
-0.46  0.14  0.092027176128
-0.46  0.16  0.087991152635
-0.46  0.18  0.0855304744666
-0.46  0.2  0.117430792822
-0.46  0.22  0.092776128403
-0.46  0.24  0.073297725363
-0.46  0.26  0.0579088245637
-0.46  0.28  0.0457508325906
-0.46  0.3  0.0361454182243
-0.46  0.32  0.0285566662863
-0.46  0.34  0.0225611773068
-0.46  0.36  0.0178244447851
-0.46  0.38  0.0140821920584
-0.46  0.4  0.0111256275054
-0.46  0.42  0.0087897954293
-0.46  0.44  0.00694437267932
-0.46  0.46  0.00548639752735
-0.46  0.48  0.004334525121
-0.46  0.5  0.00342448900776
-0.46  0.52  0.00270551551482
-0.46  0.54  0.00213749093203
-0.46  0.56  0.00168872344642
-0.46  0.58  0.00133417495988
-0.46  0.6  0.00105406413782
-0.46  0.62  0.000832762748554
-0.46  0.64  0.000657923716874
-0.46  0.66  0.000519792243321
-0.46  0.68  0.000410661554353
-0.46  0.7  0.000324442918089
-0.46  0.72  0.000256325935512
-0.46  0.74  0.000202510153722
-0.46  0.76  0.000159993027153
-0.46  0.78  0.000126402396458
-0.46  0.8  0.0000998641385484
-0.46  0.82  0.0000788976035855
-0.46  0.84  0.0000623330050408
-0.46  0.86  0.0000492461537594
-0.46  0.88  0.000038906894646
-0.46  0.9  0.0000307383690997
-0.46  0.92  0.0000242848303239
-0.46  0.94  0.0000191862158317
-0.46  0.96  0.0000151580584682
-0.46  0.98  0.0000119756151261
-0.44  -1  0.000012091613357
-0.44  -0.98  0.0000153048824892
-0.44  -0.96  0.0000193720573999
-0.44  -0.94  0.0000245200581036
-0.44  -0.92  0.0000310361071616
-0.44  -0.9  0.0000392837546989
-0.44  -0.88  0.0000497231619678
-0.44  -0.86  0.0000629367751384
-0.44  -0.84  0.0000796618217358
-0.44  -0.82  0.000100831442798
-0.44  -0.8  0.000127626755643
-0.44  -0.78  0.000161542751982
-0.44  -0.76  0.000204471708041
-0.44  -0.74  0.000258808760381
-0.44  -0.72  0.000327585537833
-0.44  -0.7  0.00041463930525
-0.44  -0.68  0.00052482705615
-0.44  -0.66  0.000664296499102
-0.44  -0.64  0.000840829057014
-0.44  -0.62  0.00106427401631
-0.44  -0.6  0.00134709804846
-0.44  -0.58  0.00170508076337
-0.44  -0.56  0.00215819510164
-0.44  -0.54  0.00273172168546
-0.44  -0.52  0.0034576593011
-0.44  -0.5  0.00437651020825
-0.44  -0.48  0.00553953988376
-0.44  -0.46  0.00701163727802
-0.44  -0.44  0.00887493516612
-0.44  -0.42  0.0112333925843
-0.44  -0.4  0.0142185950197
-0.44  -0.38  0.0179970959634
-0.44  -0.36  0.0227797094346
-0.44  -0.34  0.0288332719333
-0.44  -0.32  0.0364955300579
-0.44  -0.3  0.046193984411
-0.44  -0.28  0.0584697411541
-0.44  -0.26  0.0740077019599
-0.44  -0.24  0.0936747767524
-0.44  -0.22  0.118568251239
-0.44  -0.2  0.108684006809
-0.44  -0.18  0.10930827746
-0.44  -0.16  0.112453033685
-0.44  -0.14  0.117611087332
-0.44  -0.12  0.124039631312
-0.44  -0.1  0.130941532792
-0.44  -0.08  0.137587197699
-0.44  -0.06  0.143370989613
-0.44  -0.04  0.147827342628
-0.44  -0.02  0.150629698097
-0.44  6.17561557e-16  0.151585081138
-0.44  0.02  0.150629698097
-0.44  0.04  0.147827342628
-0.44  0.06  0.143370989613
-0.44  0.08  0.137587197699
-0.44  0.1  0.130941532792
-0.44  0.12  0.124039631312
-0.44  0.14  0.117611087332
-0.44  0.16  0.112453033685
-0.44  0.18  0.10930827746
-0.44  0.2  0.150077007806
-0.44  0.22  0.118568251239
-0.44  0.24  0.0936747767523
-0.44  0.26  0.0740077019598
-0.44  0.28  0.0584697411541
-0.44  0.3  0.046193984411
-0.44  0.32  0.0364955300578
-0.44  0.34  0.0288332719332
-0.44  0.36  0.0227797094345
-0.44  0.38  0.0179970959634
-0.44  0.4  0.0142185950197
-0.44  0.42  0.0112333925843
-0.44  0.44  0.00887493516611
-0.44  0.46  0.00701163727801
-0.44  0.48  0.00553953988376
-0.44  0.5  0.00437651020825
-0.44  0.52  0.0034576593011
-0.44  0.54  0.00273172168545
-0.44  0.56  0.00215819510164
-0.44  0.58  0.00170508076337
-0.44  0.6  0.00134709804846
-0.44  0.62  0.00106427401631
-0.44  0.64  0.000840829057014
-0.44  0.66  0.000664296499101
-0.44  0.68  0.00052482705615
-0.44  0.7  0.00041463930525
-0.44  0.72  0.000327585537832
-0.44  0.74  0.000258808760381
-0.44  0.76  0.000204471708041
-0.44  0.78  0.000161542751982
-0.44  0.8  0.000127626755643
-0.44  0.82  0.000100831442798
-0.44  0.84  0.0000796618217357
-0.44  0.86  0.0000629367751383
-0.44  0.88  0.0000497231619678
-0.44  0.9  0.0000392837546989
-0.44  0.92  0.0000310361071615
-0.44  0.94  0.0000245200581035
-0.44  0.96  0.0000193720573999
-0.44  0.98  0.0000153048824892
-0.42  -1  0.0000154531286774
-0.42  -0.98  0.000019559699067
-0.42  -0.96  0.000024757564347
-0.42  -0.94  0.0000313367291745
-0.42  -0.92  0.0000396642650945
-0.42  -0.9  0.0000502047905742
-0.42  -0.88  0.0000635463934752
-0.42  -0.86  0.0000804334422576
-0.42  -0.84  0.000101808116552
-0.42  -0.82  0.000128862974219
-0.42  -0.8  0.00016310748776
-0.42  -0.78  0.000206452262372
-0.42  -0.76  0.000261315634394
-0.42  -0.74  0.000330758597626
-0.42  -0.72  0.000418655585447
-0.42  -0.7  0.000529910637195
-0.42  -0.68  0.000670731009387
-0.42  -0.66  0.00084897349737
-0.42  -0.64  0.00107458278975
-0.42  -0.62  0.00136014631269
-0.42  -0.6  0.0017215965206
-0.42  -0.58  0.00217909981603
-0.42  -0.56  0.00275818169436
-0.42  -0.54  0.00349115088862
-0.42  -0.52  0.00441890197155
-0.42  -0.5  0.00559319698779
-0.42  -0.48  0.00707955341523
-0.42  -0.46  0.00896089958364
-0.42  -0.44  0.0113422014975
-0.42  -0.42  0.0143563192077
-0.42  -0.4  0.0181714194759
-0.42  -0.38  0.0230003583087
-0.42  -0.36  0.0291125568385
-0.42  -0.34  0.0368490331455
-0.42  -0.32  0.0466414286896
-0.42  -0.3  0.0590360908961
-0.42  -0.28  0.0747245555337
-0.42  -0.26  0.0945821295915
-0.42  -0.24  0.119716727308
-0.42  -0.22  0.151530684066
-0.42  -0.2  0.138898581422
-0.42  -0.18  0.139696401731
-0.42  -0.16  0.143715412359
-0.42  -0.14  0.150307424888
-0.42  -0.12  0.158523128979
-0.42  -0.1  0.167343785788
-0.42  -0.08  0.175836971264
-0.42  -0.06  0.183228679721
-0.42  -0.04  0.188923916124
-0.42  -0.02  0.192505337262
-0.42  6.17561557e-16  0.193726320487
-0.42  0.02  0.192505337262
-0.42  0.04  0.188923916124
-0.42  0.06  0.183228679721
-0.42  0.08  0.175836971264
-0.42  0.1  0.167343785788
-0.42  0.12  0.158523128979
-0.42  0.14  0.150307424888
-0.42  0.16  0.143715412359
-0.42  0.18  0.139696401731
-0.42  0.2  0.19179899693
-0.42  0.22  0.151530684066
-0.42  0.24  0.119716727308
-0.42  0.26  0.0945821295914
-0.42  0.28  0.0747245555336
-0.42  0.3  0.059036090896
-0.42  0.32  0.0466414286896
-0.42  0.34  0.0368490331454
-0.42  0.36  0.0291125568385
-0.42  0.38  0.0230003583087
-0.42  0.4  0.0181714194759
-0.42  0.42  0.0143563192076
-0.42  0.44  0.0113422014975
-0.42  0.46  0.00896089958363
-0.42  0.48  0.00707955341522
-0.42  0.5  0.00559319698778
-0.42  0.52  0.00441890197154
-0.42  0.54  0.00349115088861
-0.42  0.56  0.00275818169436
-0.42  0.58  0.00217909981602
-0.42  0.6  0.0017215965206
-0.42  0.62  0.00136014631269
-0.42  0.64  0.00107458278975
-0.42  0.66  0.000848973497369
-0.42  0.68  0.000670731009386
-0.42  0.7  0.000529910637194
-0.42  0.72  0.000418655585446
-0.42  0.74  0.000330758597626
-0.42  0.76  0.000261315634394
-0.42  0.78  0.000206452262372
-0.42  0.8  0.00016310748776
-0.42  0.82  0.000128862974218
-0.42  0.84  0.000101808116552
-0.42  0.86  0.0000804334422575
-0.42  0.88  0.0000635463934751
-0.42  0.9  0.0000502047905741
-0.42  0.92  0.0000396642650944
-0.42  0.94  0.0000313367291744
-0.42  0.96  0.000024757564347
-0.42  0.98  0.000019559699067
-0.4  -1  0.0000197491582694
-0.4  -0.98  0.000024997371124
-0.4  -0.96  0.000031640263073
-0.4  -0.94  0.0000400484611907
-0.4  -0.92  0.0000506910843327
-0.4  -0.9  0.0000641619166986
-0.4  -0.88  0.0000812125368519
-0.4  -0.86  0.000102794250566
-0.4  -0.84  0.000130111167057
-0.4  -0.82  0.000164687379885
-0.4  -0.8  0.000208452000753
-0.4  -0.78  0.000263846790496
-0.4  -0.76  0.000333962392319
-0.4  -0.74  0.000422710768146
-0.4  -0.72  0.000535043458834
-0.4  -0.7  0.00067722784564
-0.4  -0.68  0.000857196826423
-0.4  -0.66  0.00108499141605
-0.4  -0.64  0.00137332096505
-0.4  -0.62  0.0017382722528
-0.4  -0.6  0.0022002070177
-0.4  -0.58  0.00278489800026
-0.4  -0.56  0.00352496688242
-0.4  -0.54  0.00446170435004
-0.4  -0.52  0.00564737382538
-0.4  -0.5  0.00714812740188
-0.4  -0.48  0.0090476966699
-0.4  -0.46  0.0114520643559
-0.4  -0.44  0.01449537742
-0.4  -0.42  0.0183474315213
-0.4  -0.4  0.0232231444325
-0.4  -0.38  0.0293945469539
-0.4  -0.36  0.0372059603355
-0.4  -0.34  0.047093207004
-0.4  -0.32  0.0596079264162
-0.4  -0.3  0.0754483526962
-0.4  -0.28  0.0954982712338
-0.4  -0.26  0.120876327749
-0.4  -0.24  0.152998440928
-0.4  -0.22  0.193656800818
-0.4  -0.2  0.17751292474
-0.4  -0.18  0.178532542182
-0.4  -0.16  0.183668853323
-0.4  -0.14  0.192093470853
-0.4  -0.12  0.202593172485
-0.4  -0.1  0.213866006031
-0.4  -0.08  0.224720329948
-0.4  -0.06  0.234166961969
-0.4  -0.04  0.241445496139
-0.4  -0.02  0.246022566217
-0.4  6.17561557e-16  0.247582987505
-0.4  0.02  0.246022566217
-0.4  0.04  0.241445496139
-0.4  0.06  0.234166961969
-0.4  0.08  0.224720329948
-0.4  0.1  0.213866006031
-0.4  0.12  0.202593172485
-0.4  0.14  0.192093470853
-0.4  0.16  0.183668853323
-0.4  0.18  0.178532542182
-0.4  0.2  0.245119860538
-0.4  0.22  0.193656800818
-0.4  0.24  0.152998440928
-0.4  0.26  0.120876327749
-0.4  0.28  0.0954982712337
-0.4  0.3  0.0754483526962
-0.4  0.32  0.0596079264161
-0.4  0.34  0.047093207004
-0.4  0.36  0.0372059603355
-0.4  0.38  0.0293945469538
-0.4  0.4  0.0232231444325
-0.4  0.42  0.0183474315213
-0.4  0.44  0.0144953774199
-0.4  0.46  0.0114520643559
-0.4  0.48  0.00904769666989
-0.4  0.5  0.00714812740188
-0.4  0.52  0.00564737382538
-0.4  0.54  0.00446170435003
-0.4  0.56  0.00352496688242
-0.4  0.58  0.00278489800026
-0.4  0.6  0.0022002070177
-0.4  0.62  0.0017382722528
-0.4  0.64  0.00137332096505
-0.4  0.66  0.00108499141605
-0.4  0.68  0.000857196826422
-0.4  0.7  0.000677227845639
-0.4  0.72  0.000535043458833
-0.4  0.74  0.000422710768146
-0.4  0.76  0.000333962392319
-0.4  0.78  0.000263846790496
-0.4  0.8  0.000208452000753
-0.4  0.82  0.000164687379885
-0.4  0.84  0.000130111167057
-0.4  0.86  0.000102794250566
-0.4  0.88  0.0000812125368518
-0.4  0.9  0.0000641619166985
-0.4  0.92  0.0000506910843326
-0.4  0.94  0.0000400484611907
-0.4  0.96  0.000031640263073
-0.4  0.98  0.000024997371124
-0.38  -1  0.000025239500718
-0.38  -0.98  0.0000319467370624
-0.38  -0.96  0.0000404363786881
-0.38  -0.94  0.0000511820884309
-0.38  -0.92  0.0000647834020044
-0.38  -0.9  0.0000819991779141
-0.38  -0.88  0.000103789936474
-0.38  -0.86  0.000131371450144
-0.38  -0.84  0.000166282575165
-0.38  -0.82  0.000210471109004
-0.38  -0.8  0.000266402463888
-0.38  -0.78  0.000337197219616
-0.38  -0.76  0.000426805230166
-0.38  -0.74  0.000540225998021
-0.38  -0.72  0.000683787611564
-0.38  -0.7  0.000865499808304
-0.38  -0.68  0.00109550086241
-0.38  -0.66  0.00138662322976
-0.38  -0.64  0.00175510950951
-0.38  -0.62  0.002221518668
-0.38  -0.6  0.00281187308571
-0.38  -0.58  0.00355911042479
-0.38  -0.56  0.00450492132102
-0.38  -0.54  0.00570207543078
-0.38  -0.52  0.00721736561005
-0.38  -0.5  0.00913533449029
-0.38  -0.48  0.0115629913681
-0.38  -0.46  0.0146357825782
-0.38  -0.44  0.0185251484549
-0.38  -0.42  0.0234480885078
-0.38  -0.4  0.0296792684825
-0.38  -0.38  0.0375663447945
-0.38  -0.36  0.0475493613345
-0.38  -0.34  0.0601853008508
-0.38  -0.32  0.0761791607045
-0.38  -0.3  0.0964232868094
-0.38  -0.28  0.122047160314
-0.38  -0.26  0.154480414781
-0.38  -0.24  0.19553259977
-0.38  -0.22  0.247494141098
-0.38  -0.2  0.226862204977
-0.38  -0.18  0.228165280016
-0.38  -0.16  0.234729505537
-0.38  -0.14  0.245496199352
-0.38  -0.12  0.258914858682
-0.38  -0.1  0.273321583592
-0.38  -0.08  0.287193451574
-0.38  -0.06  0.299266283866
-0.38  -0.04  0.308568278711
-0.38  -0.02  0.314417791988
-0.38  6.17561557e-16  0.316412016434
-0.38  0.02  0.314417791988
-0.38  0.04  0.308568278711
-0.38  0.06  0.299266283866
-0.38  0.08  0.287193451574
-0.38  0.1  0.273321583592
-0.38  0.12  0.258914858682
-0.38  0.14  0.245496199352
-0.38  0.16  0.234729505537
-0.38  0.18  0.228165280016
-0.38  0.2  0.313264130637
-0.38  0.22  0.247494141098
-0.38  0.24  0.195532599769
-0.38  0.26  0.15448041478
-0.38  0.28  0.122047160314
-0.38  0.3  0.0964232868093
-0.38  0.32  0.0761791607044
-0.38  0.34  0.0601853008507
-0.38  0.36  0.0475493613345
-0.38  0.38  0.0375663447945
-0.38  0.4  0.0296792684825
-0.38  0.42  0.0234480885078
-0.38  0.44  0.0185251484549
-0.38  0.46  0.0146357825782
-0.38  0.48  0.0115629913681
-0.38  0.5  0.00913533449029
-0.38  0.52  0.00721736561004
-0.38  0.54  0.00570207543078
-0.38  0.56  0.00450492132102
-0.38  0.58  0.00355911042478
-0.38  0.6  0.00281187308571
-0.38  0.62  0.002221518668
-0.38  0.64  0.00175510950951
-0.38  0.66  0.00138662322975
-0.38  0.68  0.00109550086241
-0.38  0.7  0.000865499808303
-0.38  0.72  0.000683787611563
-0.38  0.74  0.000540225998021
-0.38  0.76  0.000426805230165
-0.38  0.78  0.000337197219615
-0.38  0.8  0.000266402463888
-0.38  0.82  0.000210471109004
-0.38  0.84  0.000166282575165
-0.38  0.86  0.000131371450144
-0.38  0.88  0.000103789936474
-0.38  0.9  0.000081999177914
-0.38  0.92  0.0000647834020043
-0.38  0.94  0.0000511820884309
-0.38  0.96  0.000040436378688
-0.38  0.98  0.0000319467370623
-0.36  -1  0.0000322561796207
-0.36  -0.98  0.0000408280536328
-0.36  -0.96  0.0000516778484942
-0.36  -0.94  0.0000654109071426
-0.36  -0.92  0.0000827934385407
-0.36  -0.9  0.000104795266796
-0.36  -0.88  0.000132643940588
-0.36  -0.86  0.000167893221829
-0.36  -0.84  0.000212509774747
-0.36  -0.82  0.00026898289205
-0.36  -0.8  0.000340463380104
-0.36  -0.78  0.000430939351973
-0.36  -0.76  0.000545458736332
-0.36  -0.74  0.000690410916708
-0.36  -0.72  0.000873883214548
-0.36  -0.7  0.0011061121054
-0.36  -0.68  0.00140005434289
-0.36  -0.66  0.0017721098553
-0.36  -0.64  0.00224303674726
-0.36  -0.62  0.00283910945729
-0.36  -0.6  0.00359358468841
-0.36  -0.58  0.00454855690034
-0.36  -0.56  0.005757306887
-0.36  -0.54  0.0072872744735
-0.36  -0.52  0.00922382118835
-0.36  -0.5  0.0116749928418
-0.36  -0.48  0.0147775477293
-0.36  -0.46  0.0187045867907
-0.36  -0.44  0.0236752114369
-0.36  -0.42  0.0299667478815
-0.36  -0.4  0.0379302200103
-0.36  -0.38  0.0480099340682
-0.36  -0.36  0.060768267851
-0.36  -0.34  0.076917047467
-0.36  -0.32  0.0973572622729
-0.36  -0.3  0.123229333801
-0.36  -0.28  0.155976743331
-0.36  -0.26  0.197426568089
-0.36  -0.24  0.24989141942
-0.36  -0.22  0.316298470383
-0.36  -0.2  0.289930776153
-0.36  -0.18  0.291596111097
-0.36  -0.16  0.299985216723
-0.36  -0.14  0.313745093097
-0.36  -0.12  0.330894191665
-0.36  -0.1  0.349306041869
-0.36  -0.08  0.36703434285
-0.36  -0.06  0.382463469252
-0.36  -0.04  0.394351454672
-0.36  -0.02  0.401827155285
-0.36  6.17561557e-16  0.404375781847
-0.36  0.02  0.401827155285
-0.36  0.04  0.394351454672
-0.36  0.06  0.382463469252
-0.36  0.08  0.36703434285
-0.36  0.1  0.349306041869
-0.36  0.12  0.330894191665
-0.36  0.14  0.313745093097
-0.36  0.16  0.299985216723
-0.36  0.18  0.291596111097
-0.36  0.2  0.400352771612
-0.36  0.22  0.316298470383
-0.36  0.24  0.24989141942
-0.36  0.26  0.197426568089
-0.36  0.28  0.155976743331
-0.36  0.3  0.123229333801
-0.36  0.32  0.0973572622729
-0.36  0.34  0.0769170474669
-0.36  0.36  0.060768267851
-0.36  0.38  0.0480099340682
-0.36  0.4  0.0379302200103
-0.36  0.42  0.0299667478815
-0.36  0.44  0.0236752114369
-0.36  0.46  0.0187045867907
-0.36  0.48  0.0147775477292
-0.36  0.5  0.0116749928418
-0.36  0.52  0.00922382118834
-0.36  0.54  0.00728727447349
-0.36  0.56  0.00575730688699
-0.36  0.58  0.00454855690033
-0.36  0.6  0.00359358468841
-0.36  0.62  0.00283910945729
-0.36  0.64  0.00224303674726
-0.36  0.66  0.0017721098553
-0.36  0.68  0.00140005434289
-0.36  0.7  0.0011061121054
-0.36  0.72  0.000873883214547
-0.36  0.74  0.000690410916707
-0.36  0.76  0.000545458736332
-0.36  0.78  0.000430939351972
-0.36  0.8  0.000340463380103
-0.36  0.82  0.00026898289205
-0.36  0.84  0.000212509774747
-0.36  0.86  0.000167893221828
-0.36  0.88  0.000132643940588
-0.36  0.9  0.000104795266796
-0.36  0.92  0.0000827934385407
-0.36  0.94  0.0000654109071426
-0.36  0.96  0.0000516778484941
-0.36  0.98  0.0000408280536327
-0.34  -1  0.0000412235224203
-0.34  -0.98  0.0000521784105897
-0.34  -0.96  0.0000660444904226
-0.34  -0.94  0.0000835953925365
-0.34  -0.92  0.000105810334952
-0.34  -0.9  0.000133928756632
-0.34  -0.88  0.000169519469542
-0.34  -0.86  0.000214568187418
-0.34  -0.84  0.00027158831476
-0.34  -0.82  0.000343761177283
-0.34  -0.8  0.00043511351772
-0.34  -0.78  0.000550742160005
-0.34  -0.76  0.000697098376525
-0.34  -0.74  0.000882347824161
-0.34  -0.72  0.00111682613103
-0.34  -0.7  0.0014136155525
-0.34  -0.68  0.00178927486988
-0.34  -0.66  0.00226476325498
-0.34  -0.64  0.00286660964588
-0.34  -0.62  0.00362839287673
-0.34  -0.6  0.0045926151427
-0.34  -0.58  0.00581307332628
-0.34  -0.56  0.00735786048835
-0.34  -0.54  0.00931316498647
-0.34  -0.52  0.0117880791845
-0.34  -0.5  0.0149206860462
-0.34  -0.48  0.0188857632025
-0.34  -0.46  0.0239045343247
-0.34  -0.44  0.0302570118641
-0.34  -0.42  0.038297619795
-0.34  -0.4  0.0484749680025
-0.34  -0.38  0.0613568815875
-0.34  -0.36  0.07766208155
-0.34  -0.34  0.0983002844118
-0.34  -0.32  0.124422958059
-0.34  -0.3  0.157487565623
-0.34  -0.28  0.19933888177
-0.34  -0.26  0.252311918264
-0.34  -0.24  0.319362201358
-0.34  -0.22  0.404230669554
-0.34  -0.2  0.370532654257
-0.34  -0.18  0.372660958762
-0.34  -0.16  0.383382268227
-0.34  -0.14  0.400967443498
-0.34  -0.12  0.422884057853
-0.34  -0.1  0.446414473686
-0.34  -0.08  0.469071310966
-0.34  -0.06  0.488789794236
-0.34  -0.04  0.503982685621
-0.34  -0.02  0.513536659943
-0.34  6.17561557e-16  0.516793814555
-0.34  0.02  0.513536659943
-0.34  0.04  0.503982685621
-0.34  0.06  0.488789794236
-0.34  0.08  0.469071310966
-0.34  0.1  0.446414473686
-0.34  0.12  0.422884057853
-0.34  0.14  0.400967443498
-0.34  0.16  0.383382268227
-0.34  0.18  0.372660958762
-0.34  0.2  0.511652391902
-0.34  0.22  0.404230669554
-0.34  0.24  0.319362201358
-0.34  0.26  0.252311918264
-0.34  0.28  0.199338881769
-0.34  0.3  0.157487565623
-0.34  0.32  0.124422958059
-0.34  0.34  0.0983002844117
-0.34  0.36  0.0776620815499
-0.34  0.38  0.0613568815875
-0.34  0.4  0.0484749680025
-0.34  0.42  0.038297619795
-0.34  0.44  0.0302570118641
-0.34  0.46  0.0239045343247
-0.34  0.48  0.0188857632025
-0.34  0.5  0.0149206860462
-0.34  0.52  0.0117880791845
-0.34  0.54  0.00931316498646
-0.34  0.56  0.00735786048834
-0.34  0.58  0.00581307332627
-0.34  0.6  0.0045926151427
-0.34  0.62  0.00362839287672
-0.34  0.64  0.00286660964588
-0.34  0.66  0.00226476325498
-0.34  0.68  0.00178927486988
-0.34  0.7  0.0014136155525
-0.34  0.72  0.00111682613103
-0.34  0.74  0.00088234782416
-0.34  0.76  0.000697098376524
-0.34  0.78  0.000550742160004
-0.34  0.8  0.00043511351772
-0.34  0.82  0.000343761177283
-0.34  0.84  0.00027158831476
-0.34  0.86  0.000214568187418
-0.34  0.88  0.000169519469542
-0.34  0.9  0.000133928756632
-0.34  0.92  0.000105810334952
-0.34  0.94  0.0000835953925364
-0.34  0.96  0.0000660444904225
-0.34  0.98  0.0000521784105897
-0.32  -1  0.000052683821231
-0.32  -0.98  0.0000666842107184
-0.32  -0.96  0.0000844051144209
-0.32  -0.94  0.000106835235263
-0.32  -0.92  0.000135226017664
-0.32  -0.9  0.00017116146942
-0.32  -0.88  0.000216646538291
-0.32  -0.86  0.000274218974123
-0.32  -0.84  0.000347090917593
-0.32  -0.82  0.000439328115281
-0.32  -0.8  0.000556076759988
-0.32  -0.78  0.000703850612431
-0.32  -0.76  0.000890894423694
-0.32  -0.74  0.00112764393488
-0.32  -0.72  0.00142730811873
-0.32  -0.7  0.00180660614826
-0.32  -0.68  0.00228670021006
-0.32  -0.66  0.00289437620686
-0.32  -0.64  0.0036635382242
-0.32  -0.62  0.00463710014211
-0.32  -0.6  0.00586937993057
-0.32  -0.58  0.00742913021362
-0.32  -0.56  0.00940337418668
-0.32  -0.54  0.0119022609043
-0.32  -0.52  0.0150652108299
-0.32  -0.5  0.0190686945257
-0.32  -0.48  0.0241360784803
-0.32  -0.46  0.0305500874023
-0.32  -0.44  0.0386685782884
-0.32  -0.42  0.0489445063497
-0.32  -0.4  0.0619511967558
-0.32  -0.38  0.0784143321838
-0.32  -0.36  0.0992524408539
-0.32  -0.34  0.125628144003
-0.32  -0.32  0.159013022045
-0.32  -0.3  0.201269718507
-0.32  -0.28  0.25475586255
-0.32  -0.26  0.322455608251
-0.32  -0.24  0.4081461296
-0.32  -0.22  0.516608360483
-0.32  -0.2  0.473542166487
-0.32  -0.18  0.476262147884
-0.32  -0.16  0.489964022882
-0.32  -0.14  0.512437944951
-0.32  -0.12  0.540447462937
-0.32  -0.1  0.57051942546
-0.32  -0.08  0.599474951209
-0.32  -0.06  0.624675249158
-0.32  -0.04  0.644091823161
-0.32  -0.02  0.656301839328
-0.32  6.17561557e-16  0.660464495531
-0.32  0.02  0.656301839328
-0.32  0.04  0.644091823161
-0.32  0.06  0.624675249158
-0.32  0.08  0.599474951209
-0.32  0.1  0.57051942546
-0.32  0.12  0.540447462937
-0.32  0.14  0.512437944951
-0.32  0.16  0.489964022882
-0.32  0.18  0.476262147884
-0.32  0.2  0.653893737477
-0.32  0.22  0.516608360483
-0.32  0.24  0.408146129599
-0.32  0.26  0.322455608251
-0.32  0.28  0.25475586255
-0.32  0.3  0.201269718507
-0.32  0.32  0.159013022045
-0.32  0.34  0.125628144003
-0.32  0.36  0.0992524408538
-0.32  0.38  0.0784143321837
-0.32  0.4  0.0619511967557
-0.32  0.42  0.0489445063496
-0.32  0.44  0.0386685782884
-0.32  0.46  0.0305500874023
-0.32  0.48  0.0241360784803
-0.32  0.5  0.0190686945256
-0.32  0.52  0.0150652108299
-0.32  0.54  0.0119022609043
-0.32  0.56  0.00940337418668
-0.32  0.58  0.00742913021361
-0.32  0.6  0.00586937993056
-0.32  0.62  0.00463710014211
-0.32  0.64  0.00366353822419
-0.32  0.66  0.00289437620686
-0.32  0.68  0.00228670021006
-0.32  0.7  0.00180660614826
-0.32  0.72  0.00142730811873
-0.32  0.74  0.00112764393488
-0.32  0.76  0.000890894423694
-0.32  0.78  0.00070385061243
-0.32  0.8  0.000556076759987
-0.32  0.82  0.000439328115281
-0.32  0.84  0.000347090917593
-0.32  0.86  0.000274218974122
-0.32  0.88  0.000216646538291
-0.32  0.9  0.00017116146942
-0.32  0.92  0.000135226017664
-0.32  0.94  0.000106835235263
-0.32  0.96  0.0000844051144209
-0.32  0.98  0.0000666842107183
-0.3  -1  0.0000673301274744
-0.3  -0.98  0.0000852226794353
-0.3  -0.96  0.000107870062966
-0.3  -0.94  0.000136535844229
-0.3  -0.92  0.00017281937404
-0.3  -0.9  0.000218745020491
-0.3  -0.88  0.000276875114584
-0.3  -0.86  0.000350452910441
-0.3  -0.84  0.000443583536287
-0.3  -0.82  0.000561463031986
-0.3  -0.8  0.00071066825186
-0.3  -0.78  0.000899523807321
-0.3  -0.76  0.00113856652217
-0.3  -0.74  0.00144113331393
-0.3  -0.72  0.00182410530091
-0.3  -0.7  0.00230884965092
-0.3  -0.68  0.00292241172036
-0.3  -0.66  0.00369902399661
-0.3  -0.64  0.00468201603223
-0.3  -0.62  0.00592623193202
-0.3  -0.6  0.00750109027187
-0.3  -0.58  0.00949445717147
-0.3  -0.56  0.0120175486114
-0.3  -0.54  0.0152111355099
-0.3  -0.52  0.0192533977587
-0.3  -0.5  0.0243698654195
-0.3  -0.48  0.0308460017296
-0.3  -0.46  0.0390431299608
-0.3  -0.44  0.0494185927402
-0.3  -0.42  0.062551268581
-0.3  -0.4  0.0791738692695
-0.3  -0.38  0.100213820076
-0.3  -0.36  0.126845003621
-0.3  -0.34  0.160553254347
-0.3  -0.32  0.20321925772
-0.3  -0.3  0.257223479375
-0.3  -0.28  0.325578978509
-0.3  -0.26  0.412099515584
-0.3  -0.24  0.521612333579
-0.3  -0.22  0.660227484509
-0.3  -0.2  0.605188721872
-0.3  -0.18  0.608664868625
-0.3  -0.16  0.626175917914
-0.3  -0.14  0.654897677315
-0.3  -0.12  0.690693949727
-0.3  -0.1  0.729126034241
-0.3  -0.08  0.766131308236
-0.3  -0.06  0.798337386567
-0.3  -0.04  0.823151843305
-0.3  -0.02  0.838756291232
-0.3  6.17561557e-16  0.844076181973
-0.3  0.02  0.838756291232
-0.3  0.04  0.823151843305
-0.3  0.06  0.798337386567
-0.3  0.08  0.766131308236
-0.3  0.1  0.729126034241
-0.3  0.12  0.690693949727
-0.3  0.14  0.654897677315
-0.3  0.16  0.626175917914
-0.3  0.18  0.608664868625
-0.3  0.2  0.835678727744
-0.3  0.22  0.660227484508
-0.3  0.24  0.521612333578
-0.3  0.26  0.412099515583
-0.3  0.28  0.325578978509
-0.3  0.3  0.257223479375
-0.3  0.32  0.203219257719
-0.3  0.34  0.160553254347
-0.3  0.36  0.126845003621
-0.3  0.38  0.100213820076
-0.3  0.4  0.0791738692694
-0.3  0.42  0.0625512685809
-0.3  0.44  0.0494185927402
-0.3  0.46  0.0390431299608
-0.3  0.48  0.0308460017295
-0.3  0.5  0.0243698654195
-0.3  0.52  0.0192533977586
-0.3  0.54  0.0152111355099
-0.3  0.56  0.0120175486114
-0.3  0.58  0.00949445717146
-0.3  0.6  0.00750109027186
-0.3  0.62  0.00592623193201
-0.3  0.64  0.00468201603222
-0.3  0.66  0.00369902399661
-0.3  0.68  0.00292241172036
-0.3  0.7  0.00230884965092
-0.3  0.72  0.00182410530091
-0.3  0.74  0.00144113331393
-0.3  0.76  0.00113856652217
-0.3  0.78  0.00089952380732
-0.3  0.8  0.000710668251859
-0.3  0.82  0.000561463031985
-0.3  0.84  0.000443583536286
-0.3  0.86  0.000350452910441
-0.3  0.88  0.000276875114583
-0.3  0.9  0.000218745020491
-0.3  0.92  0.00017281937404
-0.3  0.94  0.000136535844229
-0.3  0.96  0.000107870062965
-0.3  0.98  0.0000852226794353
-0.28  -1  0.0000860481635499
-0.28  -0.98  0.000108914914219
-0.28  -0.96  0.000137858358039
-0.28  -0.94  0.000174493337461
-0.28  -0.92  0.000220863829014
-0.28  -0.9  0.000279556982959
-0.28  -0.88  0.000353847468233
-0.28  -0.86  0.000447880176161
-0.28  -0.84  0.000566901476504
-0.28  -0.82  0.000717551928324
-0.28  -0.8  0.000908236776902
-0.28  -0.78  0.00114959490785
-0.28  -0.76  0.00145509242277
-0.28  -0.74  0.00184177395389
-0.28  -0.72  0.00233121363575
-0.28  -0.7  0.00295071879152
-0.28  -0.68  0.0037348534914
-0.28  -0.66  0.00472736698674
-0.28  -0.64  0.00598363461346
-0.28  -0.62  0.0075737473498
-0.28  -0.6  0.00958642240447
-0.28  -0.58  0.0121339530186
-0.28  -0.56  0.0153584736458
-0.28  -0.54  0.0194398900645
-0.28  -0.52  0.0246059168662
-0.28  -0.5  0.0311447823428
-0.28  -0.48  0.0394213096165
-0.28  -0.46  0.0498972712274
-0.28  -0.44  0.0631571528233
-0.28  -0.42  0.079940763385
-0.28  -0.4  0.101184511412
-0.28  -0.38  0.128073649989
-0.28  -0.36  0.16210840565
-0.28  -0.34  0.205187680563
-0.28  -0.32  0.259714998035
-0.28  -0.3  0.328732602364
-0.28  -0.28  0.416091194864
-0.28  -0.26  0.52666477617
-0.28  -0.24  0.666622581496
-0.28  -0.22  0.84377328097
-0.28  -0.2  0.773433529262
