0.2  -0.8  1.15493568649
0.2  -0.78  1.33862596441
0.2  -0.76  1.5515318243
0.2  -0.74  1.79829994771
0.2  -0.72  2.0843160619
0.2  -0.7  2.41582248357
0.2  -0.68  2.80005435779
0.2  -0.66  3.24539756539
0.2  -0.64  3.76157174525
0.2  -0.62  4.35984242595
0.2  -0.6  5.05326689651
0.2  -0.58  5.8569791824
0.2  -0.56  6.78852034647
0.2  -0.54  7.86822132353
0.2  -0.52  9.1196466441
0.2  -0.5  10.5701087315
0.2  -0.48  12.2512639969
0.2  -0.46  14.1998037424
0.2  -0.44  16.45825495
0.2  -0.42  19.0759084361
0.2  -0.4  22.1098946253
0.2  -0.38  25.6264304257
0.2  -0.36  29.7022644156
0.2  -0.34  34.4263518858
0.2  -0.32  39.9017962935
0.2  -0.3  46.2480995004
0.2  -0.28  53.6037699071
0.2  -0.26  62.1293454064
0.2  -0.24  72.0108971314
0.2  -0.22  83.4640904671
0.2  -0.2  72.4682599499
0.2  -0.18  72.594257109
0.2  -0.16  71.9340432209
0.2  -0.14  70.5413484047
0.2  -0.12  68.5338291349
0.2  -0.1  66.0923794242
0.2  -0.08  63.4575599577
0.2  -0.06  60.9188916965
0.2  -0.04  58.7905714254
0.2  -0.02  57.3678496493
0.2  6.17561557e-16  56.8669128335
0.2  0.02  57.3678496493
0.2  0.04  58.7905714254
0.2  0.06  60.9188916965
0.2  0.08  63.4575599577
0.2  0.1  66.0923794242
0.2  0.12  68.5338291349
0.2  0.14  70.5413484047
0.2  0.16  71.9340432209
0.2  0.18  72.594257109
0.2  0.2  96.7388919596
0.2  0.22  83.4640904671
0.2  0.24  72.0108971314
0.2  0.26  62.1293454064
0.2  0.28  53.6037699071
0.2  0.3  46.2480995004
0.2  0.32  39.9017962935
0.2  0.34  34.4263518858
0.2  0.36  29.7022644156
0.2  0.38  25.6264304257
0.2  0.4  22.1098946254
0.2  0.42  19.0759084361
0.2  0.44  16.45825495
0.2  0.46  14.1998037424
0.2  0.48  12.2512639969
0.2  0.5  10.5701087315
0.2  0.52  9.1196466441
0.2  0.54  7.86822132353
0.2  0.56  6.78852034647
0.2  0.58  5.8569791824
0.2  0.6  5.05326689651
0.2  0.62  4.35984242595
0.2  0.64  3.76157174525
0.2  0.66  3.24539756539
0.2  0.68  2.80005435779
0.2  0.7  2.41582248357
0.2  0.72  2.0843160619
0.2  0.74  1.79829994771
0.2  0.76  1.5515318243
0.2  0.78  1.33862596441
0.2  0.8  1.15493568649
0.2  0.82  0.996451940562
0.2  0.84  0.859715810555
0.2  0.86  0.741743023252
0.2  0.88  0.639958816377
0.2  0.9  0.55214174427
0.2  0.92  0.476375194722
0.2  0.94  0.411005558811
0.2  0.96  0.354606140801
0.2  0.98  0.305946020431
0.22  -1  0.249453383514
0.22  -0.98  0.289128459696
0.22  -0.96  0.335113779692
0.22  -0.94  0.388412975524
0.22  -0.92  0.450189304941
0.22  -0.9  0.521791039575
0.22  -0.88  0.604780891045
0.22  -0.86  0.700970117215
0.22  -0.84  0.812458052998
0.22  -0.82  0.941677928445
0.22  -0.8  1.09144997412
0.22  -0.78  1.26504297279
0.22  -0.76  1.46624560076
0.22  -0.74  1.69944911596
0.22  -0.72  1.96974319733
0.22  -0.7  2.28302702741
0.22  -0.68  2.64613804224
0.22  -0.66  3.06700115877
0.22  -0.64  3.55480173662
0.22  -0.62  4.12018604901
0.22  -0.6  4.77549363826
0.22  -0.58  5.53502662689
0.22  -0.56  6.41536186228
0.22  -0.54  7.43571270714
0.22  -0.52  8.61834837225
0.22  -0.5  9.98907994308
0.22  -0.48  11.5778237081
0.22  -0.46  13.4192540835
0.22  -0.44  15.5535603839
0.22  -0.42  18.0273239562
0.22  -0.4  20.8945348204
0.22  -0.38  24.2177700041
0.22  -0.36  28.0695592897
0.22  -0.34  32.5339681806
0.22  -0.32  37.7084326353
0.22  -0.3  43.705885612
0.22  -0.28  50.657221837
0.22  -0.26  58.7141545883
0.22  -0.24  68.0525268463
0.22  -0.22  78.8761490758
0.22  -0.2  68.4847488673
0.22  -0.18  68.6038200828
0.22  -0.16  67.979897522
0.22  -0.14  66.6637578105
0.22  -0.12  64.766589959
0.22  -0.1  62.4593444086
0.22  -0.08  59.9693584534
0.22  -0.06  57.5702383635
0.22  -0.04  55.5589098263
0.22  -0.02  54.2143937084
0.22  6.17561557e-16  53.7409929112
0.22  0.02  54.2143937084
0.22  0.04  55.5589098263
0.22  0.06  57.5702383635
0.22  0.08  59.9693584534
0.22  0.1  62.4593444086
0.22  0.12  64.766589959
0.22  0.14  66.6637578105
0.22  0.16  67.979897522
0.22  0.18  68.6038200828
0.22  0.2  91.4212474002
0.22  0.22  78.8761490758
0.22  0.24  68.0525268463
0.22  0.26  58.7141545883
0.22  0.28  50.657221837
0.22  0.3  43.705885612
0.22  0.32  37.7084326353
0.22  0.34  32.5339681806
0.22  0.36  28.0695592897
0.22  0.38  24.2177700041
0.22  0.4  20.8945348204
0.22  0.42  18.0273239562
0.22  0.44  15.5535603839
0.22  0.46  13.4192540835
0.22  0.48  11.5778237081
0.22  0.5  9.98907994308
0.22  0.52  8.61834837225
0.22  0.54  7.43571270714
0.22  0.56  6.41536186228
0.22  0.58  5.5350266269
0.22  0.6  4.77549363826
0.22  0.62  4.12018604901
0.22  0.64  3.55480173662
0.22  0.66  3.06700115877
0.22  0.68  2.64613804224
0.22  0.7  2.28302702741
0.22  0.72  1.96974319733
0.22  0.74  1.69944911596
0.22  0.76  1.46624560076
0.22  0.78  1.26504297279
0.22  0.8  1.09144997412
0.22  0.82  0.941677928445
0.22  0.84  0.812458052998
0.22  0.86  0.700970117215
0.22  0.88  0.604780891045
0.22  0.9  0.521791039575
0.22  0.92  0.450189304941
0.22  0.94  0.388412975524
0.22  0.96  0.335113779692
0.22  0.98  0.289128459696
0.24  -1  0.230708562023
0.24  -0.98  0.267402310751
0.24  -0.96  0.309932128952
0.24  -0.94  0.359226232139
0.24  -0.92  0.416360466705
0.24  -0.9  0.482581790317
0.24  -0.88  0.55933548684
0.24  -0.86  0.648296709731
0.24  -0.84  0.751407042351
0.24  -0.82  0.870916873123
0.24  -0.8  1.00943451038
0.24  -0.78  1.16998310882
0.24  -0.76  1.35606665004
0.24  -0.74  1.57174641711
0.24  -0.72  1.82172963224
0.24  -0.7  2.11147219225
0.24  -0.68  2.44729774372
0.24  -0.66  2.83653569694
0.24  -0.64  3.28768119068
0.24  -0.62  3.81058049902
0.24  -0.6  4.41664592683
0.24  -0.58  5.11910488388
0.24  -0.56  5.93328857381
0.24  -0.54  6.87696659838
0.24  -0.52  7.97073478003
0.24  -0.5  9.23846466676
0.24  -0.48  10.7078245299
0.24  -0.46  12.4108832256
0.24  -0.44  14.3848100994
0.24  -0.42  16.6726862088
0.24  -0.4  19.3244445701
0.24  -0.38  22.3979599488
0.24  -0.36  25.9603119794
0.24  -0.34  30.089249182
0.24  -0.32  34.8748858278
0.24  -0.3  40.4216686879
0.24  -0.28  46.8506565894
0.24  -0.26  54.3021625308
0.24  -0.24  62.9388160207
0.24  -0.22  72.9491124747
0.24  -0.2  63.3385593295
0.24  -0.18  63.448683107
0.24  -0.16  62.8716443241
0.24  -0.14  61.6544040687
0.24  -0.12  59.8997962107
0.24  -0.1  57.7659253621
0.24  -0.08  55.4630458778
0.24  -0.06  53.244204272
0.24  -0.04  51.3840141714
0.24  -0.02  50.1405298144
0.24  6.17561557e-16  49.7027020502
0.24  0.02  50.1405298144
0.24  0.04  51.3840141714
0.24  0.06  53.244204272
0.24  0.08  55.4630458778
0.24  0.1  57.7659253621
0.24  0.12  59.8997962107
0.24  0.14  61.6544040687
0.24  0.16  62.8716443241
0.24  0.18  63.448683107
0.24  0.2  84.5515271387
0.24  0.22  72.9491124747
0.24  0.24  62.9388160207
0.24  0.26  54.3021625309
0.24  0.28  46.8506565894
0.24  0.3  40.4216686879
0.24  0.32  34.8748858278
0.24  0.34  30.089249182
0.24  0.36  25.9603119794
0.24  0.38  22.3979599488
0.24  0.4  19.3244445701
0.24  0.42  16.6726862088
0.24  0.44  14.3848100994
0.24  0.46  12.4108832256
0.24  0.48  10.7078245299
0.24  0.5  9.23846466676
0.24  0.52  7.97073478003
0.24  0.54  6.87696659838
0.24  0.56  5.93328857381
0.24  0.58  5.11910488388
0.24  0.6  4.41664592683
0.24  0.62  3.81058049902
0.24  0.64  3.28768119068
0.24  0.66  2.83653569694
0.24  0.68  2.44729774372
0.24  0.7  2.11147219225
0.24  0.72  1.82172963224
0.24  0.74  1.57174641711
0.24  0.76  1.35606665004
0.24  0.78  1.16998310882
0.24  0.8  1.00943451038
0.24  0.82  0.870916873123
0.24  0.84  0.751407042351
0.24  0.86  0.648296709731
0.24  0.88  0.55933548684
0.24  0.9  0.482581790317
0.24  0.92  0.416360466705
0.24  0.94  0.359226232139
0.24  0.96  0.309932128952
0.24  0.98  0.267402310751
0.26  -1  0.208046957906
0.26  -0.98  0.241136422511
0.26  -0.96  0.279488702198
0.26  -0.94  0.323940837485
0.26  -0.92  0.375462998559
0.26  -0.9  0.435179659289
0.26  -0.88  0.504394138933
0.26  -0.86  0.584617047142
0.26  -0.84  0.6775992531
0.26  -0.82  0.785370098333
0.26  -0.8  0.910281687199
0.26  -0.78  1.05506022168
0.26  -0.76  1.2228655009
0.26  -0.74  1.41735988388
0.26  -0.72  1.64278822074
0.26  -0.7  1.90407049678
0.26  -0.68  2.20690921138
0.26  -0.66  2.55791383539
0.26  -0.64  2.96474506316
0.26  -0.62  3.4362820076
0.26  -0.6  3.98281598727
0.26  -0.58  4.61627513498
0.26  -0.56  5.35048472989
0.26  -0.54  6.20146893496
0.26  -0.52  7.18780052513
0.26  -0.5  8.33100623916
0.26  -0.48  9.65603660178
0.26  -0.46  11.1918104702
0.26  -0.44  12.9718461898
0.26  -0.42  15.0349931335
0.26  -0.4  17.4262795918
0.26  -0.38  20.1978955172
0.26  -0.36  23.4103315727
0.26  -0.34  27.1336993439
0.26  -0.32  31.4492615279
0.26  -0.3  36.4512054961
0.26  -0.28  42.248698938
0.26  -0.26  48.9682724525
0.26  -0.24  56.7565810844
0.26  -0.22  65.7836050784
0.26  -0.2  57.1170591638
0.26  -0.18  57.2163659112
0.26  -0.16  56.6960074021
0.26  -0.14  55.5983319195
0.26  -0.12  54.0160723623
0.26  -0.1  52.091803342
0.26  -0.08  50.0151267465
0.26  -0.06  48.0142333158
0.26  -0.04  46.3367624488
0.26  -0.02  45.2154207205
0.26  6.17561557e-16  44.8205990735
0.26  0.02  45.2154207205
0.26  0.04  46.3367624488
0.26  0.06  48.0142333158
0.26  0.08  50.0151267465
0.26  0.1  52.091803342
0.26  0.12  54.0160723623
0.26  0.14  55.5983319195
0.26  0.16  56.6960074021
0.26  0.18  57.2163659112
0.26  0.2  76.2463597071
0.26  0.22  65.7836050784
0.26  0.24  56.7565810844
0.26  0.26  48.9682724525
0.26  0.28  42.248698938
0.26  0.3  36.4512054961
0.26  0.32  31.4492615279
0.26  0.34  27.1336993439
0.26  0.36  23.4103315727
0.26  0.38  20.1978955172
0.26  0.4  17.4262795918
0.26  0.42  15.0349931335
0.26  0.44  12.9718461898
0.26  0.46  11.1918104702
0.26  0.48  9.65603660178
0.26  0.5  8.33100623917
0.26  0.52  7.18780052513
0.26  0.54  6.20146893496
0.26  0.56  5.35048472989
0.26  0.58  4.61627513498
0.26  0.6  3.98281598727
0.26  0.62  3.4362820076
0.26  0.64  2.96474506316
0.26  0.66  2.55791383539
0.26  0.68  2.20690921138
0.26  0.7  1.90407049678
0.26  0.72  1.64278822074
0.26  0.74  1.41735988388
0.26  0.76  1.2228655009
0.26  0.78  1.05506022168
0.26  0.8  0.910281687199
0.26  0.82  0.785370098333
0.26  0.84  0.6775992531
0.26  0.86  0.584617047142
0.26  0.88  0.504394138933
0.26  0.9  0.435179659289
0.26  0.92  0.375462998559
0.26  0.94  0.323940837485
0.26  0.96  0.279488702198
0.26  0.98  0.241136422511
0.28  -1  0.181853301476
0.28  -0.98  0.210776715897
0.28  -0.96  0.244300343209
0.28  -0.94  0.283155838339
0.28  -0.92  0.328191224507
0.28  -0.9  0.380389401382
0.28  -0.88  0.440889596914
0.28  -0.86  0.511012231048
0.28  -0.84  0.592287733955
0.28  -0.82  0.686489947753
0.28  -0.8  0.795674840705
0.28  -0.78  0.922225378831
0.28  -0.76  1.06890353427
0.28  -0.74  1.23891056547
0.28  -0.72  1.43595688481
0.28  -0.7  1.66434303855
0.28  -0.68  1.9290535665
0.28  -0.66  2.23586578982
0.28  -0.64  2.5914759014
0.28  -0.62  3.00364511058
0.28  -0.6  3.48136903202
0.28  -0.58  4.03507401536
0.28  -0.56  4.67684470095
0.28  -0.54  5.4206877677
0.28  -0.52  6.28283762958
0.28  -0.5  7.28211075261
0.28  -0.48  8.44031632516
0.28  -0.46  9.78273224466
0.28  -0.44  11.338656809
0.28  -0.42  13.1420481536
0.28  -0.4  15.2322653892
0.28  -0.38  17.6549276166
0.28  -0.36  20.4629095662
0.28  -0.34  23.7174955915
0.28  -0.32  27.4897172034
0.28  -0.3  31.8619033366
0.28  -0.28  36.9294771829
0.28  -0.26  42.8030388078
0.28  -0.24  49.610779002
0.28  -0.22  57.5012770528
0.28  -0.2  49.925871948
0.28  -0.18  50.012675716
0.28  -0.16  49.5578317049
0.28  -0.14  48.598356438
0.28  -0.12  47.2153074996
0.28  -0.1  45.5333089845
0.28  -0.08  43.7180914067
0.28  -0.06  41.969115695
0.28  -0.04  40.5028427998
0.28  -0.02  39.5226809296
0.28  6.17561557e-16  39.1775683611
0.28  0.02  39.5226809296
0.28  0.04  40.5028427998
0.28  0.06  41.969115695
0.28  0.08  43.7180914067
0.28  0.1  45.5333089845
0.28  0.12  47.2153074996
0.28  0.14  48.598356438
0.28  0.16  49.5578317049
0.28  0.18  50.012675716
0.28  0.2  66.6467434943
0.28  0.22  57.5012770528
0.28  0.24  49.610779002
0.28  0.26  42.8030388078
0.28  0.28  36.9294771829
0.28  0.3  31.8619033366
0.28  0.32  27.4897172034
0.28  0.34  23.7174955915
0.28  0.36  20.4629095662
0.28  0.38  17.6549276166
0.28  0.4  15.2322653892
0.28  0.42  13.1420481536
0.28  0.44  11.338656809
0.28  0.46  9.78273224466
0.28  0.48  8.44031632516
0.28  0.5  7.28211075261
0.28  0.52  6.28283762958
0.28  0.54  5.4206877677
0.28  0.56  4.67684470095
0.28  0.58  4.03507401536
0.28  0.6  3.48136903202
0.28  0.62  3.00364511059
0.28  0.64  2.5914759014
0.28  0.66  2.23586578982
0.28  0.68  1.9290535665
0.28  0.7  1.66434303855
0.28  0.72  1.43595688481
0.28  0.74  1.23891056547
0.28  0.76  1.06890353427
0.28  0.78  0.922225378831
0.28  0.8  0.795674840705
0.28  0.82  0.686489947753
0.28  0.84  0.592287733955
0.28  0.86  0.511012231048
0.28  0.88  0.440889596914
0.28  0.9  0.380389401382
0.28  0.92  0.328191224507
0.28  0.94  0.283155838339
0.28  0.96  0.24430034321
0.28  0.98  0.210776715897
0.3  -1  0.152572287364
0.3  -0.98  0.176838613357
0.3  -0.96  0.204964451372
0.3  -0.94  0.237563649299
0.3  -0.92  0.275347686345
0.3  -0.9  0.319141201103
0.3  -0.88  0.369899989332
0.3  -0.86  0.428731864249
0.3  -0.84  0.496920834614
0.3  -0.82  0.575955128285
0.3  -0.8  0.667559672871
0.3  -0.78  0.773733742367
0.3  -0.76  0.896794591416
0.3  -0.74  1.03942802951
0.3  -0.72  1.20474703892
0.3  -0.7  1.39635971571
0.3  -0.68  1.61844801661
0.3  -0.66  1.87585903045
0.3  -0.64  2.17421076612
0.3  -0.62  2.52001476591
0.3  -0.6  2.92081822029
0.3  -0.58  3.38536868568
0.3  -0.56  3.92380500038
0.3  -0.54  4.54787856524
0.3  -0.52  5.27120981856
0.3  -0.5  6.10958550294
0.3  -0.48  7.0813032117
0.3  -0.46  8.20757073486
0.3  -0.44  9.51296892024
0.3  -0.42  11.0259881518
0.3  -0.4  12.7796501537
0.3  -0.38  14.8122286911
0.3  -0.36  17.1680848975
0.3  -0.34  19.8986354581
0.3  -0.32  23.0634747824
0.3  -0.3  26.7316756548
0.3  -0.28  30.9832967519
0.3  -0.26  35.9111299273
0.3  -0.24  41.6227253989
0.3  -0.22  48.2427390377
0.3  -0.2  41.8870838191
0.3  -0.18  41.9599109239
0.3  -0.16  41.5783033831
0.3  -0.14  40.7733175239
0.3  -0.12  39.6129594861
0.3  -0.1  38.2017870811
0.3  -0.08  36.6788458111
0.3  -0.06  35.2114805078
0.3  -0.04  33.9812987751
0.3  -0.02  33.1589571551
0.3  6.17561557e-16  32.8694127062
0.3  0.02  33.1589571551
0.3  0.04  33.9812987751
0.3  0.06  35.2114805078
0.3  0.08  36.6788458111
0.3  0.1  38.2017870811
0.3  0.12  39.6129594861
0.3  0.14  40.7733175239
0.3  0.16  41.5783033831
0.3  0.18  41.9599109239
0.3  0.2  55.915652989
0.3  0.22  48.2427390377
0.3  0.24  41.6227253989
0.3  0.26  35.9111299273
0.3  0.28  30.9832967519
0.3  0.3  26.7316756548
0.3  0.32  23.0634747824
0.3  0.34  19.8986354581
0.3  0.36  17.1680848975
0.3  0.38  14.8122286911
0.3  0.4  12.7796501537
0.3  0.42  11.0259881518
0.3  0.44  9.51296892024
0.3  0.46  8.20757073486
0.3  0.48  7.0813032117
0.3  0.5  6.10958550294
0.3  0.52  5.27120981856
0.3  0.54  4.54787856524
0.3  0.56  3.92380500038
0.3  0.58  3.38536868568
0.3  0.6  2.92081822029
0.3  0.62  2.52001476591
0.3  0.64  2.17421076612
0.3  0.66  1.87585903045
0.3  0.68  1.61844801661
0.3  0.7  1.39635971571
0.3  0.72  1.20474703892
0.3  0.74  1.03942802951
0.3  0.76  0.896794591416
0.3  0.78  0.773733742367
0.3  0.8  0.667559672871
0.3  0.82  0.575955128285
0.3  0.84  0.496920834614
0.3  0.86  0.428731864249
0.3  0.88  0.369899989332
0.3  0.9  0.319141201103
0.3  0.92  0.275347686345
0.3  0.94  0.237563649299
0.3  0.96  0.204964451372
0.3  0.98  0.176838613357
0.32  -1  0.124794108059
0.32  -0.98  0.144642368582
0.32  -0.96  0.167647456393
0.32  -0.94  0.194311458743
0.32  -0.92  0.225216318882
0.32  -0.9  0.261036537006
0.32  -0.88  0.302553891255
0.32  -0.86  0.350674500067
0.32  -0.84  0.406448598254
0.32  -0.82  0.471093458439
0.32  -0.8  0.546019958089
0.32  -0.78  0.632863371993
0.32  -0.76  0.733519062218
0.32  -0.74  0.85018384449
0.32  -0.72  0.985403933807
0.32  -0.7  1.14213051572
0.32  -0.68  1.3237841561
0.32  -0.66  1.53432945519
0.32  -0.64  1.77836157521
0.32  -0.62  2.06120652997
0.32  -0.6  2.38903742548
0.32  -0.58  2.76900918823
0.32  -0.56  3.2094147219
0.32  -0.54  3.71986590038
0.32  -0.52  4.31150334745
0.32  -0.5  4.99723958146
0.32  -0.48  5.7920408317
0.32  -0.46  6.71325367721
0.32  -0.44  7.7809836367
0.32  -0.42  9.0185339726
0.32  -0.4  10.452914286
0.32  -0.38  12.1154300025
0.32  -0.36  14.0423656149
0.32  -0.34  16.2757765941
0.32  -0.32  18.8644072521
0.32  -0.3  21.8647545888
0.32  -0.28  25.3423013424
0.32  -0.26  29.3729451534
0.32  -0.24  34.0446550345
0.32  -0.22  39.4593912994
0.32  -0.2  34.2608828557
0.32  -0.18  34.3204506431
0.32  -0.16  34.0083207438
0.32  -0.14  33.3498951933
0.32  -0.12  32.4007985463
0.32  -0.1  31.2465522239
0.32  -0.08  30.0008863124
0.32  -0.06  28.8006778906
0.32  -0.04  27.7944700482
0.32  -0.02  27.1218486255
0.32  6.17561557e-16  26.8850202875
0.32  0.02  27.1218486255
0.32  0.04  27.7944700482
0.32  0.06  28.8006778906
0.32  0.08  30.0008863124
0.32  0.1  31.2465522239
0.32  0.12  32.4007985463
0.32  0.14  33.3498951933
0.32  0.16  34.0083207438
0.32  0.18  34.3204506431
0.32  0.2  45.7353308511
0.32  0.22  39.4593912994
0.32  0.24  34.0446550345
0.32  0.26  29.3729451534
0.32  0.28  25.3423013424
0.32  0.3  21.8647545888
0.32  0.32  18.8644072521
0.32  0.34  16.2757765941
0.32  0.36  14.0423656149
0.32  0.38  12.1154300025
0.32  0.4  10.452914286
0.32  0.42  9.0185339726
0.32  0.44  7.7809836367
0.32  0.46  6.71325367721
0.32  0.48  5.79204083171
0.32  0.5  4.99723958146
0.32  0.52  4.31150334745
0.32  0.54  3.71986590038
0.32  0.56  3.2094147219
0.32  0.58  2.76900918823
0.32  0.6  2.38903742548
0.32  0.62  2.06120652997
0.32  0.64  1.77836157521
0.32  0.66  1.53432945519
0.32  0.68  1.3237841561
0.32  0.7  1.14213051572
0.32  0.72  0.985403933807
0.32  0.74  0.85018384449
0.32  0.76  0.733519062219
0.32  0.78  0.632863371993
0.32  0.8  0.546019958089
0.32  0.82  0.471093458439
0.32  0.84  0.406448598254
0.32  0.86  0.350674500067
0.32  0.88  0.302553891255
0.32  0.9  0.261036537006
0.32  0.92  0.225216318882
0.32  0.94  0.194311458743
0.32  0.96  0.167647456393
0.32  0.98  0.144642368582
0.34  -1  0.102073382233
0.34  -0.98  0.118307955439
0.34  -0.96  0.137124605985
0.34  -0.94  0.158934008256
0.34  -0.92  0.184212153601
0.34  -0.9  0.213510738872
0.34  -0.88  0.247469207228
0.34  -0.86  0.286828704026
0.34  -0.84  0.332448252348
0.34  -0.82  0.385323501233
0.34  -0.8  0.446608455764
0.34  -0.78  0.517640663291
0.34  -0.76  0.599970405473
0.34  -0.74  0.695394533256
0.34  -0.72  0.805995683238
0.34  -0.7  0.934187731326
0.34  -0.68  1.0827684757
0.34  -0.66  1.2549806989
0.34  -0.64  1.45458294176
0.34  -0.62  1.68593153368
0.34  -0.6  1.95407566985
0.34  -0.58  2.26486761012
0.34  -0.56  2.62509040488
0.34  -0.54  3.04260593557
0.34  -0.52  3.52652650055
0.34  -0.5  4.08741369156
0.34  -0.48  4.737508901
0.34  -0.46  5.49100049095
0.34  -0.44  6.36433345491
0.34  -0.42  7.37656833069
0.34  -0.4  8.54979719759
0.34  -0.38  9.90962583722
0.34  -0.36  11.4857325811
0.34  -0.34  13.3125160415
0.34  -0.32  15.4298458636
0.34  -0.3  17.8839328817
0.34  -0.28  20.728337674
0.34  -0.26  24.0251395244
0.34  -0.24  27.8462913063
0.34  -0.22  32.2751898581
0.34  -0.2  28.0231514592
0.34  -0.18  28.0718739962
0.34  -0.16  27.8165722435
0.34  -0.14  27.2780233974
0.34  -0.12  26.5017246896
0.34  -0.1  25.5576270244
0.34  -0.08  24.5387541409
0.34  -0.06  23.5570624977
0.34  -0.04  22.7340505839
0.34  -0.02  22.183890447
0.34  6.17561557e-16  21.9901804246
0.34  0.02  22.183890447
0.34  0.04  22.7340505839
0.34  0.06  23.5570624977
0.34  0.08  24.5387541409
0.34  0.1  25.5576270244
0.34  0.12  26.5017246896
0.34  0.14  27.2780233974
0.34  0.16  27.8165722435
0.34  0.18  28.0718739962
0.34  0.2  37.408496123
0.34  0.22  32.2751898581
0.34  0.24  27.8462913063
0.34  0.26  24.0251395244
0.34  0.28  20.728337674
0.34  0.3  17.8839328817
0.34  0.32  15.4298458636
0.34  0.34  13.3125160415
0.34  0.36  11.4857325811
0.34  0.38  9.90962583722
0.34  0.4  8.54979719759
0.34  0.42  7.37656833069
0.34  0.44  6.36433345491
0.34  0.46  5.49100049095
0.34  0.48  4.737508901
0.34  0.5  4.08741369156
0.34  0.52  3.52652650055
0.34  0.54  3.04260593557
0.34  0.56  2.62509040488
0.34  0.58  2.26486761012
0.34  0.6  1.95407566985
0.34  0.62  1.68593153368
0.34  0.64  1.45458294176
0.34  0.66  1.2549806989
0.34  0.68  1.0827684757
0.34  0.7  0.934187731326
0.34  0.72  0.805995683238
0.34  0.74  0.695394533256
0.34  0.76  0.599970405473
0.34  0.78  0.517640663291
0.34  0.8  0.446608455764
0.34  0.82  0.385323501233
0.34  0.84  0.332448252348
0.34  0.86  0.286828704026
0.34  0.88  0.247469207228
0.34  0.9  0.213510738872
0.34  0.92  0.184212153601
0.34  0.94  0.158934008256
0.34  0.96  0.137124605985
0.34  0.98  0.118307955439
0.36  -1  0.0834893211103
0.36  -0.98  0.0967681354876
0.36  -0.96  0.112158919503
0.36  -0.94  0.129997577825
0.36  -0.92  0.150673440108
0.36  -0.9  0.174637758133
0.36  -0.88  0.202413554399
0.36  -0.86  0.234607037117
0.36  -0.84  0.271920830738
0.36  -0.82  0.315169310766
0.36  -0.8  0.365296377551
0.36  -0.78  0.423396056955
0.36  -0.76  0.490736377532
0.36  -0.74  0.568787045315
0.36  -0.72  0.659251520226
0.36  -0.7  0.76410419418
0.36  -0.68  0.88563348229
0.36  -0.66  1.02649176765
0.36  -0.64  1.18975328974
0.36  -0.62  1.37898123984
0.36  -0.6  1.5983055279
0.36  -0.58  1.85251291803
0.36  -0.56  2.14715149987
0.36  -0.54  2.48865177592
0.36  -0.52  2.88446700764
0.36  -0.5  3.34323588326
0.36  -0.48  3.87497105757
0.36  -0.46  4.49127767865
0.36  -0.44  5.20560667089
0.36  -0.42  6.03354830204
0.36  -0.4  6.99317244168
0.36  -0.38  8.10542293702
0.36  -0.36  9.39457471354
0.36  -0.34  10.8887635764
0.36  -0.32  12.6206002761
0.36  -0.3  14.6278822394
0.36  -0.28  16.9544185007
0.36  -0.26  19.6509858359
0.36  -0.24  22.7764369687
0.36  -0.22  26.3989850343
0.36  -0.2  22.9210969553
0.36  -0.18  22.9609487897
0.36  -0.16  22.7521287277
0.36  -0.14  22.3116311507
0.36  -0.12  21.6766698055
0.36  -0.1  20.9044599364
0.36  -0.08  20.071088851
0.36  -0.06  19.2681295777
0.36  -0.04  18.5949598987
0.36  -0.02  18.1449650486
0.36  6.17561557e-16  17.9865229758
0.36  0.02  18.1449650486
0.36  0.04  18.5949598987
0.36  0.06  19.2681295777
0.36  0.08  20.071088851
0.36  0.1  20.9044599364
0.36  0.12  21.6766698055
0.36  0.14  22.3116311507
0.36  0.16  22.7521287277
0.36  0.18  22.9609487897
0.36  0.2  30.5976923343
0.36  0.22  26.3989850343
0.36  0.24  22.7764369687
0.36  0.26  19.6509858359
0.36  0.28  16.9544185007
0.36  0.3  14.6278822394
0.36  0.32  12.6206002761
0.36  0.34  10.8887635764
0.36  0.36  9.39457471354
0.36  0.38  8.10542293702
0.36  0.4  6.99317244168
0.36  0.42  6.03354830204
0.36  0.44  5.20560667089
0.36  0.46  4.49127767866
0.36  0.48  3.87497105757
0.36  0.5  3.34323588326
0.36  0.52  2.88446700764
0.36  0.54  2.48865177592
0.36  0.56  2.14715149987
0.36  0.58  1.85251291803
0.36  0.6  1.59830552791
0.36  0.62  1.37898123984
0.36  0.64  1.18975328974
0.36  0.66  1.02649176765
0.36  0.68  0.88563348229
0.36  0.7  0.76410419418
0.36  0.72  0.659251520226
0.36  0.74  0.568787045315
0.36  0.76  0.490736377532
0.36  0.78  0.423396056955
0.36  0.8  0.365296377551
0.36  0.82  0.315169310766
0.36  0.84  0.271920830738
0.36  0.86  0.234607037117
0.36  0.88  0.202413554399
0.36  0.9  0.174637758133
0.36  0.92  0.150673440108
0.36  0.94  0.129997577825
0.36  0.96  0.112158919503
0.36  0.98  0.0967681354876
0.38  -1  0.068288779964
0.38  -0.98  0.079149977793
0.38  -0.96  0.0917386280431
0.38  -0.94  0.106329478667
0.38  -0.92  0.123240975746
0.38  -0.9  0.14284221359
0.38  -0.88  0.165560990247
0.38  -0.86  0.191893144208
0.38  -0.84  0.222413376117
0.38  -0.82  0.257787791637
0.38  -0.8  0.298788439245
0.38  -0.78  0.346310160228
0.38  -0.76  0.40139011864
0.38  -0.74  0.465230437466
0.38  -0.72  0.539224435017
0.38  -0.7  0.624987034174
0.38  -0.68  0.724390008166
0.38  -0.66  0.839602832121
0.38  -0.64  0.973140031969
0.38  -0.62  1.12791606411
0.38  -0.6  1.30730892357
0.38  -0.58  1.51523386893
0.38  -0.56  1.75622887303
0.38  -0.54  2.0355536645
0.38  -0.52  2.35930452157
0.38  -0.5  2.7345473237
0.38  -0.48  3.16947176475
0.38  -0.46  3.67357009347
0.38  -0.44  4.25784428236
0.38  -0.42  4.93504614628
0.38  -0.4  5.71995565144
0.38  -0.38  6.62970348903
0.38  -0.36  7.68414495335
0.38  -0.34  8.90629328473
0.38  -0.32  10.3228219347
0.38  -0.3  11.9646467153
0.38  -0.28  13.8676005388
0.38  -0.26  16.0732154721
0.38  -0.24  18.629629177
0.38  -0.22  21.5926355168
0.38  -0.2  18.7479515427
0.38  -0.18  18.7805477253
0.38  -0.16  18.6097466327
0.38  -0.14  18.2494485526
0.38  -0.12  17.730091885
0.38  -0.1  17.0984749412
0.38  -0.08  16.4168321404
0.38  -0.06  15.760064204
0.38  -0.04  15.2094556295
0.38  -0.02  14.8413894038
0.38  6.17561557e-16  14.7117941968
0.38  0.02  14.8413894038
0.38  0.04  15.2094556295
0.38  0.06  15.760064204
0.38  0.08  16.4168321404
0.38  0.1  17.0984749412
0.38  0.12  17.730091885
0.38  0.14  18.2494485526
0.38  0.16  18.6097466327
0.38  0.18  18.7805477253
0.38  0.2  25.0269022605
0.38  0.22  21.5926355168
0.38  0.24  18.629629177
0.38  0.26  16.0732154721
0.38  0.28  13.8676005388
0.38  0.3  11.9646467153
0.38  0.32  10.3228219347
0.38  0.34  8.90629328473
0.38  0.36  7.68414495335
0.38  0.38  6.62970348903
0.38  0.4  5.71995565144
0.38  0.42  4.93504614628
0.38  0.44  4.25784428236
0.38  0.46  3.67357009347
0.38  0.48  3.16947176475
0.38  0.5  2.7345473237
0.38  0.52  2.35930452157
0.38  0.54  2.0355536645
0.38  0.56  1.75622887303
0.38  0.58  1.51523386893
0.38  0.6  1.30730892357
0.38  0.62  1.12791606411
0.38  0.64  0.973140031969
0.38  0.66  0.839602832121
0.38  0.68  0.724390008166
0.38  0.7  0.624987034174
0.38  0.72  0.539224435017
0.38  0.74  0.465230437466
0.38  0.76  0.40139011864
0.38  0.78  0.346310160228
0.38  0.8  0.298788439245
0.38  0.82  0.257787791638
0.38  0.84  0.222413376117
0.38  0.86  0.191893144208
0.38  0.88  0.165560990247
0.38  0.9  0.14284221359
0.38  0.92  0.123240975746
0.38  0.94  0.106329478667
0.38  0.96  0.0917386280432
0.38  0.98  0.0791499777931
0.4  -1  0.0558557358828
0.4  -0.98  0.0647394821971
0.4  -0.96  0.0750361711094
0.4  -0.94  0.0869705283959
0.4  -0.92  0.100803022031
0.4  -0.9  0.116835546915
0.4  -0.88  0.135418013744
0.4  -0.86  0.156955985833
0.4  -0.84  0.181919530555
0.4  -0.82  0.210853478582
0.4  -0.8  0.24438931485
0.4  -0.78  0.283258960746
0.4  -0.76  0.328310748333
0.4  -0.74  0.38052793524
0.4  -0.72  0.441050164313
0.4  -0.7  0.51119833638
0.4  -0.68  0.592503438978
0.4  -0.66  0.686739960241
0.4  -0.64  0.795964617194
0.4  -0.62  0.922561243708
0.4  -0.6  1.06929281781
0.4  -0.58  1.23936176379
0.4  -0.56  1.43647984535
0.4  -0.54  1.66494917495
0.4  -0.52  1.92975610772
0.4  -0.5  2.23668006885
0.4  -0.48  2.59241968993
0.4  -0.46  3.00473900685
0.4  -0.44  3.48263691036
0.4  -0.42  4.03654354729
0.4  -0.4  4.67854795908
0.4  -0.38  5.42266192572
0.4  -0.36  6.2851257736
0.4  -0.34  7.28476282149
0.4  -0.32  8.44339020045
0.4  -0.3  9.78629501385
0.4  -0.28  11.3427862297
0.4  -0.26  13.1468343507
0.4  -0.24  15.2378128215
0.4  -0.22  17.6613573573
0.4  -0.2  15.3345927437
0.4  -0.18  15.3612542797
0.4  -0.16  15.2215502065
0.4  -0.14  14.9268500462
0.4  -0.12  14.5020504105
0.4  -0.1  13.9854292436
0.4  -0.08  13.427890212
0.4  -0.06  12.8906971854
0.4  -0.04  12.4403355428
0.4  -0.02  12.1392815498
0.4  6.17561557e-16  12.033281184
0.4  0.02  12.1392815498
0.4  0.04  12.4403355428
0.4  0.06  12.8906971854
0.4  0.08  13.427890212
0.4  0.1  13.9854292436
0.4  0.12  14.5020504105
0.4  0.14  14.9268500462
0.4  0.16  15.2215502065
0.4  0.18  15.3612542797
0.4  0.2  20.4703619447
0.4  0.22  17.6613573573
0.4  0.24  15.2378128216
0.4  0.26  13.1468343507
0.4  0.28  11.3427862297
0.4  0.3  9.78629501385
0.4  0.32  8.44339020045
0.4  0.34  7.28476282149
0.4  0.36  6.2851257736
0.4  0.38  5.42266192572
0.4  0.4  4.67854795908
0.4  0.42  4.03654354729
0.4  0.44  3.48263691036
0.4  0.46  3.00473900685
0.4  0.48  2.59241968993
0.4  0.5  2.23668006885
0.4  0.52  1.92975610772
0.4  0.54  1.66494917495
0.4  0.56  1.43647984535
0.4  0.58  1.23936176379
0.4  0.6  1.06929281781
0.4  0.62  0.922561243708
0.4  0.64  0.795964617194
0.4  0.66  0.686739960241
0.4  0.68  0.592503438978
0.4  0.7  0.51119833638
0.4  0.72  0.441050164313
0.4  0.74  0.38052793524
0.4  0.76  0.328310748333
0.4  0.78  0.283258960746
0.4  0.8  0.24438931485
0.4  0.82  0.210853478582
0.4  0.84  0.181919530555
0.4  0.86  0.156955985833
0.4  0.88  0.135418013744
0.4  0.9  0.116835546915
0.4  0.92  0.100803022031
0.4  0.94  0.0869705283959
0.4  0.96  0.0750361711094
0.4  0.98  0.0647394821971
0.42  -1  0.0456863225944
0.42  -0.98  0.0529526434752
0.42  -0.96  0.0613746585801
0.42  -0.94  0.071136178831
0.42  -0.92  0.0824502499199
0.42  -0.9  0.0955638020422
0.42  -0.88  0.110763039162
0.42  -0.86  0.128379685427
0.42  -0.84  0.148798225066
0.42  -0.82  0.172464293781
0.42  -0.8  0.199894404762
0.42  -0.78  0.231687221623
0.42  -0.76  0.26853662426
0.42  -0.74  0.311246852821
0.42  -0.72  0.360750060287
0.42  -0.7  0.41812665676
0.42  -0.68  0.48462888947
0.42  -0.66  0.561708173138
0.42  -0.64  0.651046767177
0.42  -0.62  0.754594491093
0.42  -0.6  0.874611279396
0.42  -0.58  1.01371650479
0.42  -0.56  1.17494614613
0.42  -0.54  1.3618190488
0.42  -0.52  1.57841372371
0.42  -0.5  1.82945736102
0.42  -0.48  2.12042900128
0.42  -0.46  2.45767911583
0.42  -0.44  2.84856820613
0.42  -0.42  3.30162744708
0.42  -0.4  3.82674488042
0.42  -0.38  4.43538122169
0.42  -0.36  5.14081999101
0.42  -0.34  5.95845742655
0.42  -0.32  6.90613850826
0.42  -0.3  8.00454642553
0.42  -0.28  9.27765398881
0.42  -0.26  10.7532468375
0.42  -0.24  12.463529863
0.42  -0.22  14.4458300822
0.42  -0.2  12.5426894816
0.42  -0.18  12.5644968665
0.42  -0.16  12.4502281123
0.42  -0.14  12.209182741
0.42  -0.12  11.8617245456
0.42  -0.1  11.4391623697
0.42  -0.08  10.9831320686
0.42  -0.06  10.5437434629
0.42  -0.04  10.175377225
0.42  -0.02  9.92913483606
0.42  6.17561557e-16  9.8424335004
0.42  0.02  9.92913483606
0.42  0.04  10.175377225
0.42  0.06  10.5437434629
0.42  0.08  10.9831320686
0.42  0.1  11.4391623697
0.42  0.12  11.8617245456
0.42  0.14  12.209182741
0.42  0.16  12.4502281123
0.42  0.18  12.5644968665
0.42  0.2  16.7434113014
0.42  0.22  14.4458300822
0.42  0.24  12.463529863
0.42  0.26  10.7532468375
0.42  0.28  9.27765398881
0.42  0.3  8.00454642553
0.42  0.32  6.90613850827
0.42  0.34  5.95845742655
0.42  0.36  5.14081999101
0.42  0.38  4.43538122169
0.42  0.4  3.82674488042
0.42  0.42  3.30162744708
0.42  0.44  2.84856820613
0.42  0.46  2.45767911583
0.42  0.48  2.12042900128
0.42  0.5  1.82945736102
0.42  0.52  1.57841372371
0.42  0.54  1.3618190488
0.42  0.56  1.17494614613
0.42  0.58  1.01371650479
0.42  0.6  0.874611279396
0.42  0.62  0.754594491093
0.42  0.64  0.651046767177
0.42  0.66  0.561708173138
0.42  0.68  0.48462888947
0.42  0.7  0.41812665676
0.42  0.72  0.360750060287
0.42  0.74  0.311246852821
0.42  0.76  0.26853662426
0.42  0.78  0.231687221623
0.42  0.8  0.199894404762
0.42  0.82  0.172464293781
0.42  0.84  0.148798225066
0.42  0.86  0.128379685427
0.42  0.88  0.110763039162
0.42  0.9  0.0955638020423
0.42  0.92  0.0824502499199
0.42  0.94  0.071136178831
0.42  0.96  0.0613746585801
0.42  0.98  0.0529526434752
0.44  -1  0.0373684105886
0.44  -0.98  0.0433117837192
0.44  -0.96  0.0502004388035
0.44  -0.94  0.0581847211005
0.44  -0.92  0.0674388879904
0.44  -0.9  0.0781649121516
0.44  -0.88  0.0905968896246
0.44  -0.86  0.10500614897
0.44  -0.84  0.121707173031
0.44  -0.82  0.141064462533
0.44  -0.8  0.163500491336
0.44  -0.78  0.189504926947
0.44  -0.76  0.219645317539
0.44  -0.74  0.254579478718
0.44  -0.72  0.295069850387
0.44  -0.7  0.342000137033
0.44  -0.68  0.396394594627
0.44  -0.66  0.459440385061
0.44  -0.64  0.532513486022
0.44  -0.62  0.617208721774
0.44  -0.6  0.715374570286
0.44  -0.58  0.829153506354
0.44  -0.56  0.961028761234
0.44  -0.54  1.11387851929
0.44  -0.52  1.2910387345
0.44  -0.5  1.49637593789
0.44  -0.48  1.73437162469
0.44  -0.46  2.01022006325
0.44  -0.44  2.32994166025
0.44  -0.42  2.70051435631
0.44  -0.4  3.13002591999
0.44  -0.38  3.62785046371
0.44  -0.36  4.20485303428
0.44  -0.34  4.8736267431
0.44  -0.32  5.64876761147
0.44  -0.3  6.54719312956
0.44  -0.28  7.58851148145
0.44  -0.26  8.79544949486
0.44  -0.24  10.1943486553
0.44  -0.22  11.8157400104
0.44  -0.2  10.259096023
0.44  -0.18  10.2769330313
0.44  -0.16  10.183468697
0.44  -0.14  9.98630941842
0.44  -0.12  9.70211144029
0.44  -0.1  9.35648334
0.44  -0.08  8.98348051189
0.44  -0.06  8.62408949739
0.44  -0.04  8.32279011413
0.44  -0.02  8.12138001646
0.44  6.17561557e-16  8.0504640196
0.44  0.02  8.12138001646
0.44  0.04  8.32279011413
0.44  0.06  8.62408949739
0.44  0.08  8.98348051189
0.44  0.1  9.35648334
0.44  0.12  9.70211144029
0.44  0.14  9.98630941842
0.44  0.16  10.183468697
0.44  0.18  10.2769330313
0.44  0.2  13.6950105116
0.44  0.22  11.8157400104
0.44  0.24  10.1943486553
0.44  0.26  8.79544949486
0.44  0.28  7.58851148145
0.44  0.3  6.54719312956
0.44  0.32  5.64876761147
0.44  0.34  4.8736267431
0.44  0.36  4.20485303428
0.44  0.38  3.62785046371
0.44  0.4  3.13002591999
0.44  0.42  2.70051435631
0.44  0.44  2.32994166025
0.44  0.46  2.01022006325
0.44  0.48  1.73437162469
0.44  0.5  1.49637593789
0.44  0.52  1.2910387345
0.44  0.54  1.11387851929
0.44  0.56  0.961028761234
0.44  0.58  0.829153506354
0.44  0.6  0.715374570286
0.44  0.62  0.617208721774
0.44  0.64  0.532513486022
0.44  0.66  0.459440385061
0.44  0.68  0.396394594627
0.44  0.7  0.342000137034
0.44  0.72  0.295069850387
0.44  0.74  0.254579478718
0.44  0.76  0.219645317539
0.44  0.78  0.189504926947
0.44  0.8  0.163500491336
0.44  0.82  0.141064462533
0.44  0.84  0.121707173031
0.44  0.86  0.10500614897
0.44  0.88  0.0905968896246
0.44  0.9  0.0781649121516
0.44  0.92  0.0674388879904
0.44  0.94  0.0581847211005
0.44  0.96  0.0502004388035
0.44  0.98  0.0433117837192
0.46  -1  0.0305649050004
0.46  -0.98  0.0354261937804
0.46  -0.96  0.0410606610996
0.46  -0.94  0.0475912795033
0.46  -0.92  0.0551605800808
0.46  -0.9  0.0639337632148
0.46  -0.88  0.0741023040878
0.46  -0.86  0.0858881316382
0.46  -0.84  0.0995484721711
0.46  -0.82  0.115381463336
0.46  -0.8  0.133732660996
0.46  -0.78  0.155002581004
0.46  -0.76  0.179655440481
0.46  -0.74  0.208229289379
0.46  -0.72  0.241347753451
0.46  -0.7  0.279733644914
0.46  -0.68  0.324224737864
0.46  -0.66  0.375792052741
0.46  -0.64  0.435561048901
0.46  -0.62  0.504836187821
0.46  -0.6  0.585129403047
0.46  -0.58  0.678193098217
0.46  -0.56  0.786058393363
0.46  -0.54  0.911079454217
0.46  -0.52  1.05598487199
0.46  -0.5  1.22393721505
0.46  -0.48  1.41860205208
0.46  -0.46  1.64422795338
0.46  -0.44  1.9057392161
0.46  -0.42  2.20884333727
0.46  -0.4  2.56015558025
0.46  -0.38  2.96734335318
0.46  -0.36  3.4392935506
0.46  -0.34  3.98630651034
0.46  -0.32  4.62032081897
0.46  -0.3  5.35517387206
0.46  -0.28  6.20690387608
0.46  -0.26  7.19409988309
0.46  -0.24  8.33830749777
0.46  -0.22  9.66449911139
0.46  -0.2  8.39126659106
0.46  -0.18  8.40585609207
0.46  -0.16  8.32940840661
0.46  -0.14  8.16814506883
0.46  -0.12  7.93568979267
0.46  -0.1  7.65298871215
0.46  -0.08  7.34789690261
0.46  -0.06  7.0539386624
0.46  -0.04  6.80749556029
0.46  -0.02  6.64275533173
0.46  6.17561557e-16  6.58475070502
0.46  0.02  6.64275533173
0.46  0.04  6.80749556029
0.46  0.06  7.0539386624
0.46  0.08  7.34789690261
0.46  0.1  7.65298871215
0.46  0.12  7.93568979267
0.46  0.14  8.16814506883
0.46  0.16  8.32940840661
0.46  0.18  8.40585609207
0.46  0.2  11.2016189255
0.46  0.22  9.66449911139
0.46  0.24  8.33830749777
0.46  0.26  7.19409988309
0.46  0.28  6.20690387608
0.46  0.3  5.35517387206
0.46  0.32  4.62032081897
0.46  0.34  3.98630651034
0.46  0.36  3.4392935506
0.46  0.38  2.96734335318
0.46  0.4  2.56015558025
0.46  0.42  2.20884333727
0.46  0.44  1.9057392161
0.46  0.46  1.64422795339
0.46  0.48  1.41860205208
0.46  0.5  1.22393721505
0.46  0.52  1.05598487199
0.46  0.54  0.911079454217
0.46  0.56  0.786058393363
0.46  0.58  0.678193098217
0.46  0.6  0.585129403047
0.46  0.62  0.504836187821
0.46  0.64  0.435561048901
0.46  0.66  0.375792052741
0.46  0.68  0.324224737864
0.46  0.7  0.279733644914
0.46  0.72  0.241347753451
0.46  0.74  0.208229289379
0.46  0.76  0.179655440481
0.46  0.78  0.155002581004
0.46  0.8  0.133732660996
0.46  0.82  0.115381463336
0.46  0.84  0.0995484721711
0.46  0.86  0.0858881316382
0.46  0.88  0.0741023040878
0.46  0.9  0.0639337632148
0.46  0.92  0.0551605800808
0.46  0.94  0.0475912795033
0.46  0.96  0.0410606610996
0.46  0.98  0.0354261937804
0.48  -1  0.0250000843753
0.48  -0.98  0.0289762992423
0.48  -0.96  0.0335849233617
0.48  -0.94  0.0389265401968
0.48  -0.92  0.0451177308155
0.48  -0.9  0.0522936182782
0.48  -0.88  0.0606108167054
0.48  -0.86  0.0702508493896
0.48  -0.84  0.0814241105502
0.48  -0.82  0.0943744571987
0.48  -0.8  0.109384531331
0.48  -0.78  0.126781928602
0.48  -0.76  0.146946348122
0.48  -0.74  0.170317879405
0.48  -0.72  0.197406607348
0.48  -0.7  0.228803744862
0.48  -0.68  0.265194536121
0.48  -0.66  0.307373212054
0.48  -0.64  0.356260324479
0.48  -0.62  0.412922837191
0.48  -0.6  0.478597412505
0.48  -0.58  0.554717401475
0.48  -0.56  0.642944126858
0.48  -0.54  0.745203141568
0.48  -0.52  0.863726253968
0.48  -0.5  1.00110023721
0.48  -0.48  1.16032328569
0.48  -0.46  1.34487045081
0.48  -0.44  1.55876948413
0.48  -0.42  1.80668874328
0.48  -0.4  2.09403907911
0.48  -0.38  2.42709192779
0.48  -0.36  2.81311618522
0.48  -0.34  3.26053685111
0.48  -0.32  3.77911890496
0.48  -0.3  4.38018042733
0.48  -0.28  5.07683961751
0.48  -0.26  5.8843010989
0.48  -0.24  6.82018776072
0.48  -0.22  7.90492537852
0.48  -0.2  6.86350481997
0.48  -0.18  6.87543807336
0.48  -0.16  6.81290888877
0.48  -0.14  6.68100607241
0.48  -0.12  6.49087292731
0.48  -0.1  6.25964201506
0.48  -0.08  6.0100969574
0.48  -0.06  5.76965842805
0.48  -0.04  5.56808416023
0.48  -0.02  5.43333747563
0.48  6.17561557e-16  5.3858935015
0.48  0.02  5.43333747563
0.48  0.04  5.56808416023
0.48  0.06  5.76965842805
0.48  0.08  6.0100969574
0.48  0.1  6.25964201506
0.48  0.12  6.49087292731
0.48  0.14  6.68100607241
0.48  0.16  6.81290888877
0.48  0.18  6.87543807336
0.48  0.2  9.16218840774
0.48  0.22  7.90492537852
0.48  0.24  6.82018776072
0.48  0.26  5.8843010989
0.48  0.28  5.07683961751
0.48  0.3  4.38018042733
0.48  0.32  3.77911890496
0.48  0.34  3.26053685111
0.48  0.36  2.81311618522
0.48  0.38  2.42709192779
0.48  0.4  2.09403907911
0.48  0.42  1.80668874328
0.48  0.44  1.55876948413
0.48  0.46  1.34487045081
0.48  0.48  1.16032328569
0.48  0.5  1.00110023721
0.48  0.52  0.863726253968
0.48  0.54  0.745203141568
0.48  0.56  0.642944126858
0.48  0.58  0.554717401475
0.48  0.6  0.478597412505
0.48  0.62  0.412922837191
0.48  0.64  0.356260324479
0.48  0.66  0.307373212054
0.48  0.68  0.265194536121
0.48  0.7  0.228803744862
0.48  0.72  0.197406607348
0.48  0.74  0.170317879405
0.48  0.76  0.146946348122
0.48  0.78  0.126781928602
0.48  0.8  0.109384531331
0.48  0.82  0.0943744571987
0.48  0.84  0.0814241105502
0.48  0.86  0.0702508493896
0.48  0.88  0.0606108167054
0.48  0.9  0.0522936182782
0.48  0.92  0.0451177308155
0.48  0.94  0.0389265401968
0.48  0.96  0.0335849233617
0.48  0.98  0.0289762992423
0.5  -1  0.0204484266764
0.5  -0.98  0.0237007092262
0.5  -0.96  0.0274702609993
0.5  -0.94  0.031839352661
0.5  -0.92  0.0369033398662
0.5  -0.9  0.0427727444017
0.5  -0.88  0.0495756663294
0.5  -0.86  0.0574605797778
0.5  -0.84  0.0665995733967
0.5  -0.82  0.0771921062018
0.5  -0.8  0.0894693607777
0.5  -0.78  0.10369928885
0.5  -0.76  0.120192459347
0.5  -0.74  0.139308836579
0.5  -0.72  0.161465636484
0.5  -0.7  0.187146432382
0.5  -0.68  0.216911708994
0.5  -0.66  0.251411095043
0.5  -0.64  0.291397541442
0.5  -0.62  0.337743754483
0.5  -0.6  0.391461242698
0.5  -0.58  0.453722393089
0.5  -0.56  0.525886058532
0.5  -0.54  0.609527214813
0.5  -0.52  0.706471334561
0.5  -0.5  0.818834228278
0.5  -0.48  0.949068222021
0.5  -0.46  1.10001567954
0.5  -0.44  1.27497103702
0.5  -0.42  1.47775270432
0.5  -0.4  1.71278640199
0.5  -0.38  1.98520175281
0.5  -0.36  2.30094423612
0.5  -0.34  2.66690494819
0.5  -0.32  3.09107100077
0.5  -0.3  3.58269984025
0.5  -0.28  4.15252129185
0.5  -0.26  4.81297173867
0.5  -0.24  5.57846554639
0.5  -0.22  6.46570965755
0.5  -0.2  5.6138960552
0.5  -0.18  5.62365667254
0.5  -0.16  5.5725119073
0.5  -0.14  5.46462406868
0.5  -0.12  5.3091076465
0.5  -0.1  5.11997595064
0.5  -0.08  4.91586448696
0.5  -0.06  4.71920156519
0.5  -0.04  4.55432705623
0.5  -0.02  4.4441131202
0.5  6.17561557e-16  4.40530706613
0.5  0.02  4.4441131202
0.5  0.04  4.55432705623
0.5  0.06  4.71920156519
0.5  0.08  4.91586448696
0.5  0.1  5.11997595064
0.5  0.12  5.3091076465
0.5  0.14  5.46462406868
0.5  0.16  5.5725119073
0.5  0.18  5.62365667254
0.5  0.2  7.49406822148
0.5  0.22  6.46570965755
0.5  0.24  5.57846554639
0.5  0.26  4.81297173867
0.5  0.28  4.15252129185
0.5  0.3  3.58269984025
0.5  0.32  3.09107100077
0.5  0.34  2.66690494819
0.5  0.36  2.30094423612
0.5  0.38  1.98520175281
0.5  0.4  1.71278640199
0.5  0.42  1.47775270432
0.5  0.44  1.27497103702
0.5  0.46  1.10001567954
0.5  0.48  0.949068222021
0.5  0.5  0.818834228278
0.5  0.52  0.706471334561
0.5  0.54  0.609527214813
0.5  0.56  0.525886058532
0.5  0.58  0.453722393089
0.5  0.6  0.391461242698
0.5  0.62  0.337743754483
0.5  0.64  0.291397541442
0.5  0.66  0.251411095043
0.5  0.68  0.216911708994
0.5  0.7  0.187146432382
0.5  0.72  0.161465636484
0.5  0.74  0.139308836579
0.5  0.76  0.120192459347
0.5  0.78  0.10369928885
0.5  0.8  0.0894693607778
0.5  0.82  0.0771921062018
0.5  0.84  0.0665995733967
0.5  0.86  0.0574605797778
0.5  0.88  0.0495756663294
0.5  0.9  0.0427727444017
0.5  0.92  0.0369033398663
0.5  0.94  0.031839352661
0.5  0.96  0.0274702609993
0.5  0.98  0.0237007092262
0.52  -1  0.016725469693
0.52  -0.98  0.0193856231649
0.52  -0.96  0.0224688688803
0.52  -0.94  0.0260424988388
0.52  -0.92  0.0301845077017
0.52  -0.9  0.03498529503
0.52  -0.88  0.0405496382593
0.52  -0.86  0.0469989794726
0.52  -0.84  0.0544740758806
0.52  -0.82  0.0631380718549
0.52  -0.8  0.0731800595624
0.52  -0.78  0.0848192059121
0.52  -0.76  0.0983095358843
0.52  -0.74  0.113945476639
0.52  -0.72  0.132068283404
0.52  -0.7  0.153073487388
0.52  -0.68  0.177419528272
0.52  -0.66  0.205637759675
0.52  -0.64  0.238344045981
0.52  -0.62  0.276252203604
0.52  -0.6  0.320189580075
0.52  -0.58  0.371115110943
0.52  -0.56  0.430140248593
0.52  -0.54  0.498553219752
0.52  -0.52  0.577847141109
0.52  -0.5  0.66975260666
0.52  -0.48  0.776275458017
0.52  -0.46  0.899740562003
0.52  -0.44  1.04284255099
0.52  -0.42  1.20870463342
0.52  -0.4  1.40094675793
0.52  -0.38  1.62376461898
0.52  -0.36  1.8820212281
0.52  -0.34  2.18135304934
0.52  -0.32  2.52829301542
0.52  -0.3  2.9304131093
0.52  -0.28  3.39648962315
0.52  -0.26  3.93669470136
0.52  -0.24  4.56281834812
0.52  -0.22  5.2885257449
0.52  -0.2  4.59179817678
0.52  -0.18  4.59978172055
0.52  -0.16  4.55794866246
0.52  -0.14  4.46970349799
0.52  -0.12  4.34250128107
0.52  -0.1  4.18780397857
0.52  -0.08  4.02085421007
0.52  -0.06  3.85999685954
0.52  -0.04  3.72514034239
0.52  -0.02  3.63499258306
0.52  6.17561557e-16  3.60325178013
0.52  0.02  3.63499258306
0.52  0.04  3.72514034239
0.52  0.06  3.85999685954
0.52  0.08  4.02085421007
0.52  0.1  4.18780397857
0.52  0.12  4.34250128107
0.52  0.14  4.46970349799
0.52  0.16  4.55794866246
0.52  0.18  4.59978172055
0.52  0.2  6.12965549373
0.52  0.22  5.2885257449
0.52  0.24  4.56281834812
0.52  0.26  3.93669470136
0.52  0.28  3.39648962315
0.52  0.3  2.9304131093
0.52  0.32  2.52829301542
0.52  0.34  2.18135304934
0.52  0.36  1.8820212281
0.52  0.38  1.62376461898
0.52  0.4  1.40094675793
0.52  0.42  1.20870463342
0.52  0.44  1.042842551
0.52  0.46  0.899740562003
0.52  0.48  0.776275458017
0.52  0.5  0.66975260666
0.52  0.52  0.577847141109
0.52  0.54  0.498553219752
0.52  0.56  0.430140248593
0.52  0.58  0.371115110943
0.52  0.6  0.320189580075
0.52  0.62  0.276252203604
0.52  0.64  0.238344045981
0.52  0.66  0.205637759675
0.52  0.68  0.177419528272
0.52  0.7  0.153073487388
0.52  0.72  0.132068283404
0.52  0.74  0.113945476639
0.52  0.76  0.0983095358843
0.52  0.78  0.0848192059121
0.52  0.8  0.0731800595624
0.52  0.82  0.0631380718549
0.52  0.84  0.0544740758806
0.52  0.86  0.0469989794727
0.52  0.88  0.0405496382593
0.52  0.9  0.03498529503
0.52  0.92  0.0301845077017
0.52  0.94  0.0260424988388
0.52  0.96  0.0224688688803
0.52  0.98  0.0193856231649
0.54  -1  0.0136803354545
0.54  -0.98  0.0158561662398
0.54  -0.96  0.0183780586859
0.54  -0.94  0.0213010532277
0.54  -0.92  0.0246889443746
0.54  -0.9  0.0286156730287
0.54  -0.88  0.0331669402492
0.54  -0.86  0.038442077682
0.54  -0.84  0.0445562154786
0.54  -0.82  0.0516427950175
0.54  -0.8  0.0598564812691
0.54  -0.78  0.0693765383671
0.54  -0.76  0.0804107420576
0.54  -0.74  0.0931999144154
0.54  -0.72  0.108023179799
0.54  -0.7  0.125204056753
0.54  -0.68  0.14511751882
0.54  -0.66  0.168198178354
0.54  -0.64  0.194949771962
0.54  -0.62  0.225956154579
0.54  -0.6  0.261894042133
0.54  -0.58  0.303547780907
0.54  -0.56  0.351826465938
0.54  -0.54  0.40778378206
0.54  -0.52  0.472641000636
0.54  -0.5  0.547813633867
0.54  -0.48  0.63494232842
0.54  -0.46  0.735928672628
0.54  -0.44  0.852976698755
0.54  -0.42  0.988640986119
0.54  -0.4  1.14588241491
0.54  -0.38  1.32813278758
0.54  -0.36  1.53936972806
0.54  -0.34  1.78420349369
0.54  -0.32  2.06797759424
0.54  -0.3  2.39688541436
0.54  -0.28  2.77810538451
0.54  -0.26  3.21995765053
0.54  -0.24  3.73208566134
0.54  -0.22  4.32566663765
0.54  -0.2  3.75578925739
0.54  -0.18  3.76231927173
0.54  -0.16  3.72810257838
0.54  -0.14  3.65592383097
0.54  -0.12  3.55188077388
0.54  -0.1  3.42534854305
0.54  -0.08  3.28879459993
0.54  -0.06  3.15722385447
0.54  -0.04  3.04692008264
0.54  -0.02  2.97318513762
0.54  6.17561557e-16  2.94722324599
0.54  0.02  2.97318513762
0.54  0.04  3.04692008264
0.54  0.06  3.15722385447
0.54  0.08  3.28879459993
0.54  0.1  3.42534854305
0.54  0.12  3.55188077388
0.54  0.14  3.65592383097
0.54  0.16  3.72810257838
0.54  0.18  3.76231927173
0.54  0.2  5.01365551546
0.54  0.22  4.32566663766
0.54  0.24  3.73208566134
0.54  0.26  3.21995765053
0.54  0.28  2.77810538451
0.54  0.3  2.39688541436
0.54  0.32  2.06797759424
0.54  0.34  1.78420349369
0.54  0.36  1.53936972806
0.54  0.38  1.32813278758
0.54  0.4  1.14588241491
0.54  0.42  0.988640986119
0.54  0.44  0.852976698756
0.54  0.46  0.735928672628
0.54  0.48  0.63494232842
0.54  0.5  0.547813633867
0.54  0.52  0.472641000636
0.54  0.54  0.40778378206
0.54  0.56  0.351826465938
0.54  0.58  0.303547780908
0.54  0.6  0.261894042133
0.54  0.62  0.225956154579
0.54  0.64  0.194949771962
0.54  0.66  0.168198178354
0.54  0.68  0.14511751882
0.54  0.7  0.125204056753
0.54  0.72  0.108023179799
0.54  0.74  0.0931999144154
0.54  0.76  0.0804107420576
0.54  0.78  0.0693765383671
0.54  0.8  0.0598564812691
0.54  0.82  0.0516427950175
0.54  0.84  0.0445562154786
0.54  0.86  0.038442077682
0.54  0.88  0.0331669402492
0.54  0.9  0.0286156730287
0.54  0.92  0.0246889443746
0.54  0.94  0.0213010532277
0.54  0.96  0.0183780586859
0.54  0.98  0.0158561662398
0.56  -1  0.0111896156929
0.56  -0.98  0.0129693023374
0.56  -0.96  0.0150320446864
0.56  -0.94  0.0174228621999
0.56  -0.92  0.0201939345957
0.56  -0.9  0.0234057406743
0.56  -0.88  0.027128378272
0.56  -0.86  0.0314430941499
0.56  -0.84  0.0364440572086
0.56  -0.82  0.0422404137293
0.56  -0.8  0.0489586694974
0.56  -0.78  0.0567454507979
0.56  -0.76  0.0657707045415
0.56  -0.74  0.0762314073649
0.56  -0.72  0.0883558646566
0.56  -0.7  0.102408693334
0.56  -0.68  0.118696597119
0.56  -0.66  0.137575060369
0.56  -0.64  0.159456106535
0.56  -0.62  0.184817290599
