0.42  -0.74  0.0139469638843
0.42  -0.72  0.0175517433762
0.42  -0.7  0.0220882263768
0.42  -0.68  0.0277972241284
0.42  -0.66  0.0349817887622
0.42  -0.64  0.0440233002889
0.42  -0.62  0.0554017114877
0.42  -0.6  0.0697210253575
0.42  -0.58  0.0877413575569
0.42  -0.56  0.11041928581
0.42  -0.54  0.138958628158
0.42  -0.52  0.174874345526
0.42  -0.5  0.22007296077
0.42  -0.48  0.276953763094
0.42  -0.46  0.348536170111
0.42  -0.44  0.438620008332
0.42  -0.42  0.551987220288
0.42  -0.4  0.69465570556
0.42  -0.38  0.874198770427
0.42  -0.36  1.10014714354
0.42  -0.34  1.38449489794
0.42  -0.32  1.74233613538
0.42  -0.3  2.19266623023
0.42  -0.28  2.75939016563
0.42  -0.26  3.47259148758
0.42  -0.24  4.37012923718
0.42  -0.22  5.49964763144
0.42  -0.2  5.01869766441
0.42  -0.18  5.04249796621
0.42  -0.16  5.17007142084
0.42  -0.14  5.38153499525
0.42  -0.12  5.6470774144
0.42  -0.1  5.93396619519
0.42  -0.08  6.21161417283
0.42  -0.06  6.45420305099
0.42  -0.04  6.64164267728
0.42  -0.02  6.75972675041
0.42  6.17561557e-16  6.80001971787
0.42  0.02  6.75972675041
0.42  0.04  6.64164267728
0.42  0.06  6.45420305099
0.42  0.08  6.21161417283
0.42  0.1  5.93396619519
0.42  0.12  5.6470774144
0.42  0.14  5.38153499525
0.42  0.16  5.17007142084
0.42  0.18  5.04249796621
0.42  0.2  6.92110517297
0.42  0.22  5.49964763144
0.42  0.24  4.37012923717
0.42  0.26  3.47259148758
0.42  0.28  2.75939016563
0.42  0.3  2.19266623023
0.42  0.32  1.74233613538
0.42  0.34  1.38449489794
0.42  0.36  1.10014714354
0.42  0.38  0.874198770427
0.42  0.4  0.69465570556
0.42  0.42  0.551987220287
0.42  0.44  0.438620008332
0.42  0.46  0.348536170111
0.42  0.48  0.276953763094
0.42  0.5  0.22007296077
0.42  0.52  0.174874345526
0.42  0.54  0.138958628158
0.42  0.56  0.11041928581
0.42  0.58  0.0877413575569
0.42  0.6  0.0697210253575
0.42  0.62  0.0554017114876
0.42  0.64  0.0440233002889
0.42  0.66  0.0349817887622
0.42  0.68  0.0277972241284
0.42  0.7  0.0220882263768
0.42  0.72  0.0175517433762
0.42  0.74  0.0139469638843
0.42  0.76  0.0110825345049
0.42  0.78  0.00880640202932
0.42  0.8  0.00699774195763
0.42  0.82  0.00556054474262
0.42  0.84  0.0044185192912
0.42  0.86  0.00351104318559
0.42  0.88  0.00278994464857
0.42  0.9  0.00221694542922
0.42  0.92  0.0017616288691
0.42  0.94  0.00139982528734
0.42  0.96  0.00111232897543
0.42  0.98  0.000883878695994
0.44  -1  0.000542758199364
0.44  -0.98  0.000683041320651
0.44  -0.96  0.000859582492284
0.44  -0.94  0.00108175309268
0.44  -0.92  0.00136134665843
0.44  -0.9  0.00171320492353
0.44  -0.88  0.00215600566677
0.44  -0.86  0.00271325418886
0.44  -0.84  0.00341453105009
0.44  -0.82  0.0042970623025
0.44  -0.8  0.00540769556951
0.44  -0.78  0.00680538686989
0.44  -0.76  0.00856433019455
0.44  -0.74  0.0107778959644
0.44  -0.72  0.0135635874354
0.44  -0.7  0.0170692781528
0.44  -0.68  0.0214810615587
0.44  -0.66  0.0270331294364
0.44  -0.64  0.0340202035698
0.44  -0.62  0.042813180533
0.44  -0.6  0.0538788200838
0.44  -0.58  0.0678045222868
0.44  -0.56  0.0853295086158
0.44  -0.54  0.107384062228
0.44  -0.52  0.135138910416
0.44  -0.5  0.170067370608
0.44  -0.48  0.214023558844
0.44  -0.46  0.26934081227
0.44  -0.44  0.33895555025
0.44  -0.42  0.426563149035
0.44  -0.4  0.536814104327
0.44  -0.38  0.675560894691
0.44  -0.36  0.850168650111
0.44  -0.34  1.06990611699
0.44  -0.32  1.34643767331
0.44  -0.3  1.69444251166
0.44  -0.28  2.13239385842
0.44  -0.26  2.6835395926
0.44  -0.24  3.37713631871
0.44  -0.22  4.25000240227
0.44  -0.2  3.87833522426
0.44  -0.18  3.8967275553
0.44  -0.16  3.99531341479
0.44  -0.14  4.15872764775
0.44  -0.12  4.36393277995
0.44  -0.1  4.58563389414
0.44  -0.08  4.80019392618
0.44  -0.06  4.98766108481
0.44  -0.04  5.13251015795
0.44  -0.02  5.22376283959
0.44  6.17561557e-16  5.25490032693
0.44  0.02  5.22376283959
0.44  0.04  5.13251015795
0.44  0.06  4.98766108481
0.44  0.08  4.80019392618
0.44  0.1  4.58563389414
0.44  0.12  4.36393277995
0.44  0.14  4.15872764775
0.44  0.16  3.99531341479
0.44  0.18  3.8967275553
0.44  0.2  5.34847240819
0.44  0.22  4.25000240227
0.44  0.24  3.37713631871
0.44  0.26  2.6835395926
0.44  0.28  2.13239385842
0.44  0.3  1.69444251166
0.44  0.32  1.34643767331
0.44  0.34  1.06990611699
0.44  0.36  0.850168650111
0.44  0.38  0.675560894691
0.44  0.4  0.536814104326
0.44  0.42  0.426563149034
0.44  0.44  0.33895555025
0.44  0.46  0.26934081227
0.44  0.48  0.214023558844
0.44  0.5  0.170067370608
0.44  0.52  0.135138910416
0.44  0.54  0.107384062228
0.44  0.56  0.0853295086157
0.44  0.58  0.0678045222868
0.44  0.6  0.0538788200838
0.44  0.62  0.042813180533
0.44  0.64  0.0340202035698
0.44  0.66  0.0270331294364
0.44  0.68  0.0214810615587
0.44  0.7  0.0170692781528
0.44  0.72  0.0135635874354
0.44  0.74  0.0107778959644
0.44  0.76  0.00856433019455
0.44  0.78  0.00680538686989
0.44  0.8  0.00540769556951
0.44  0.82  0.0042970623025
0.44  0.84  0.00341453105009
0.44  0.86  0.00271325418886
0.44  0.88  0.00215600566677
0.44  0.9  0.00171320492353
0.44  0.92  0.00136134665843
0.44  0.94  0.00108175309268
0.44  0.96  0.000859582492283
0.44  0.98  0.000683041320651
0.46  -1  0.000419431171911
0.46  -0.98  0.000527838772256
0.46  -0.96  0.000664265767915
0.46  -0.94  0.000835954146637
0.46  -0.92  0.00105201768484
0.46  -0.9  0.00132392573644
0.46  -0.88  0.00166611206338
0.46  -0.86  0.00209674102659
0.46  -0.84  0.00263867180919
0.46  -0.82  0.00332067185613
0.46  -0.8  0.00417894394358
0.46  -0.78  0.00525904793975
0.46  -0.76  0.00661831927061
0.46  -0.74  0.00832891247038
0.46  -0.72  0.0104816313784
0.46  -0.7  0.0131907493018
0.46  -0.68  0.0166000750132
0.46  -0.66  0.0208905865876
0.46  -0.64  0.0262900383056
0.46  -0.62  0.0330850505902
0.46  -0.6  0.041636324749
0.46  -0.58  0.0523977901705
0.46  -0.56  0.0659407003694
0.46  -0.54  0.082983956977
0.46  -0.52  0.104432271374
0.46  -0.5  0.131424189706
0.46  -0.48  0.165392530611
0.46  -0.46  0.208140443878
0.46  -0.44  0.261937127498
0.46  -0.42  0.329638284052
0.46  -0.4  0.414837710678
0.46  -0.38  0.522058069486
0.46  -0.36  0.65699096514
0.46  -0.34  0.826799073714
0.46  -0.32  1.04049636078
0.46  -0.3  1.30942657197
0.46  -0.28  1.64786539579
0.46  -0.26  2.07377826353
0.46  -0.24  2.60977401266
0.46  -0.22  3.2843050373
0.46  -0.2  2.99708910907
0.46  -0.18  3.01130228351
0.46  -0.16  3.08748718984
0.46  -0.14  3.21376998633
0.46  -0.12  3.37234783773
0.46  -0.1  3.54367340821
0.46  -0.08  3.70948051308
0.46  -0.06  3.85435086259
0.46  -0.04  3.96628692651
0.46  -0.02  4.03680492006
0.46  6.17561557e-16  4.06086726093
0.46  0.02  4.03680492006
0.46  0.04  3.96628692651
0.46  0.06  3.85435086259
0.46  0.08  3.70948051308
0.46  0.1  3.54367340821
0.46  0.12  3.37234783773
0.46  0.14  3.21376998633
0.46  0.16  3.08748718984
0.46  0.18  3.01130228351
0.46  0.2  4.13317763367
0.46  0.22  3.2843050373
0.46  0.24  2.60977401266
0.46  0.26  2.07377826353
0.46  0.28  1.64786539579
0.46  0.3  1.30942657197
0.46  0.32  1.04049636078
0.46  0.34  0.826799073714
0.46  0.36  0.65699096514
0.46  0.38  0.522058069485
0.46  0.4  0.414837710678
0.46  0.42  0.329638284052
0.46  0.44  0.261937127498
0.46  0.46  0.208140443878
0.46  0.48  0.16539253061
0.46  0.5  0.131424189706
0.46  0.52  0.104432271374
0.46  0.54  0.082983956977
0.46  0.56  0.0659407003693
0.46  0.58  0.0523977901705
0.46  0.6  0.041636324749
0.46  0.62  0.0330850505902
0.46  0.64  0.0262900383055
0.46  0.66  0.0208905865875
0.46  0.68  0.0166000750132
0.46  0.7  0.0131907493018
0.46  0.72  0.0104816313784
0.46  0.74  0.00832891247038
0.46  0.76  0.0066183192706
0.46  0.78  0.00525904793974
0.46  0.8  0.00417894394357
0.46  0.82  0.00332067185613
0.46  0.84  0.00263867180919
0.46  0.86  0.00209674102659
0.46  0.88  0.00166611206338
0.46  0.9  0.00132392573644
0.46  0.92  0.00105201768484
0.46  0.94  0.000835954146637
0.46  0.96  0.000664265767915
0.46  0.98  0.000527838772256
0.48  -1  0.000324126854604
0.48  -0.98  0.000407901778521
0.48  -0.96  0.000513329452827
0.48  -0.94  0.000646006320676
0.48  -0.92  0.000812975300862
0.48  -0.9  0.00102309964881
0.48  -0.88  0.00128753344694
0.48  -0.86  0.00162031369956
0.48  -0.84  0.00203910546264
0.48  -0.82  0.00256613956229
0.48  -0.8  0.0032293926792
0.48  -0.78  0.00406407244163
0.48  -0.76  0.0051144863606
0.48  -0.74  0.00643639381642
0.48  -0.72  0.00809996594754
0.48  -0.7  0.0101935105624
0.48  -0.68  0.0128281598044
0.48  -0.66  0.0161437694071
0.48  -0.64  0.02031634269
0.48  -0.62  0.0255673733866
0.48  -0.6  0.0321756032502
0.48  -0.58  0.0404918185714
0.48  -0.56  0.0509574710524
0.48  -0.54  0.0641281114969
0.48  -0.52  0.0807028802494
0.48  -0.5  0.101561619835
0.48  -0.48  0.127811579854
0.48  -0.46  0.160846193388
0.48  -0.44  0.202419044949
0.48  -0.42  0.254736956436
0.48  -0.4  0.320577132407
0.48  -0.38  0.40343458311
0.48  -0.36  0.50770765097
0.48  -0.34  0.638931488883
0.48  -0.32  0.804071884097
0.48  -0.3  1.01189502481
0.48  -0.28  1.2734328379
0.48  -0.26  1.60256859938
0.48  -0.24  2.01677390381
0.48  -0.22  2.53803611318
0.48  -0.2  2.3160821869
0.48  -0.18  2.32706580431
0.48  -0.16  2.38593976436
0.48  -0.14  2.48352823264
0.48  -0.12  2.60607358365
0.48  -0.1  2.73847008155
0.48  -0.08  2.86660203495
0.48  -0.06  2.97855454076
0.48  -0.04  3.06505618094
0.48  -0.02  3.11955087989
0.48  6.17561557e-16  3.13814570876
0.48  0.02  3.11955087989
0.48  0.04  3.06505618094
0.48  0.06  2.97855454076
0.48  0.08  2.86660203495
0.48  0.1  2.73847008155
0.48  0.12  2.60607358365
0.48  0.14  2.48352823264
0.48  0.16  2.38593976436
0.48  0.18  2.32706580431
0.48  0.2  3.19402551751
0.48  0.22  2.53803611318
0.48  0.24  2.0167739038
0.48  0.26  1.60256859938
0.48  0.28  1.27343283789
0.48  0.3  1.01189502481
0.48  0.32  0.804071884097
0.48  0.34  0.638931488882
0.48  0.36  0.507707650969
0.48  0.38  0.40343458311
0.48  0.4  0.320577132407
0.48  0.42  0.254736956436
0.48  0.44  0.202419044949
0.48  0.46  0.160846193388
0.48  0.48  0.127811579854
0.48  0.5  0.101561619835
0.48  0.52  0.0807028802494
0.48  0.54  0.0641281114968
0.48  0.56  0.0509574710524
0.48  0.58  0.0404918185713
0.48  0.6  0.0321756032502
0.48  0.62  0.0255673733866
0.48  0.64  0.02031634269
0.48  0.66  0.016143769407
0.48  0.68  0.0128281598044
0.48  0.7  0.0101935105624
0.48  0.72  0.00809996594753
0.48  0.74  0.00643639381641
0.48  0.76  0.0051144863606
0.48  0.78  0.00406407244163
0.48  0.8  0.0032293926792
0.48  0.82  0.00256613956229
0.48  0.84  0.00203910546264
0.48  0.86  0.00162031369956
0.48  0.88  0.00128753344694
0.48  0.9  0.00102309964881
0.48  0.92  0.000812975300862
0.48  0.94  0.000646006320676
0.48  0.96  0.000513329452827
0.48  0.98  0.000407901778521
0.5  -1  0.000250477849314
0.5  -0.98  0.000315217202043
0.5  -0.96  0.000396689307002
0.5  -0.94  0.000499218967968
0.5  -0.92  0.000628248792141
0.5  -0.9  0.000790628101398
0.5  -0.88  0.000994976516533
0.5  -0.86  0.0012521415147
0.5  -0.84  0.00157577424873
0.5  -0.82  0.0019830541946
0.5  -0.8  0.00249560109379
0.5  -0.78  0.00314062259938
0.5  -0.76  0.00395235854652
0.5  -0.74  0.00497389851404
0.5  -0.72  0.00625946915918
0.5  -0.7  0.00787731274455
0.5  -0.68  0.00991330965893
0.5  -0.66  0.0124755372271
0.5  -0.64  0.0157000068049
0.5  -0.62  0.0197578837036
0.5  -0.6  0.0248645732004
0.5  -0.58  0.0312911549491
0.5  -0.56  0.0393787727687
0.5  -0.54  0.0495567436643
0.5  -0.52  0.062365347367
0.5  -0.5  0.0784845061361
0.5  -0.48  0.0987698772393
0.5  -0.46  0.124298274018
0.5  -0.44  0.156424826634
0.5  -0.42  0.196854916779
0.5  -0.4  0.247734704867
0.5  -0.38  0.311765055197
0.5  -0.36  0.392344906597
0.5  -0.34  0.49375169913
0.5  -0.32  0.621368434494
0.5  -0.3  0.781969423225
0.5  -0.28  0.984079887092
0.5  -0.26  1.23842850553
0.5  -0.24  1.5585169288
0.5  -0.22  1.96133648934
0.5  -0.2  1.78981555144
0.5  -0.18  1.79830344076
0.5  -0.16  1.84379989587
0.5  -0.14  1.91921404101
0.5  -0.12  2.01391429656
0.5  -0.1  2.11622729402
0.5  -0.08  2.21524474864
0.5  -0.06  2.30175909474
0.5  -0.04  2.36860559168
0.5  -0.02  2.41071785359
0.5  6.17561557e-16  2.42508751373
0.5  0.02  2.41071785359
0.5  0.04  2.36860559168
0.5  0.06  2.30175909474
0.5  0.08  2.21524474864
0.5  0.1  2.11622729402
0.5  0.12  2.01391429656
0.5  0.14  1.91921404101
0.5  0.16  1.84379989587
0.5  0.18  1.79830344076
0.5  0.2  2.46827015693
0.5  0.22  1.96133648934
0.5  0.24  1.5585169288
0.5  0.26  1.23842850553
0.5  0.28  0.984079887091
0.5  0.3  0.781969423225
0.5  0.32  0.621368434493
0.5  0.34  0.49375169913
0.5  0.36  0.392344906597
0.5  0.38  0.311765055196
0.5  0.4  0.247734704866
0.5  0.42  0.196854916779
0.5  0.44  0.156424826634
0.5  0.46  0.124298274018
0.5  0.48  0.0987698772393
0.5  0.5  0.078484506136
0.5  0.52  0.0623653473669
0.5  0.54  0.0495567436642
0.5  0.56  0.0393787727687
0.5  0.58  0.0312911549491
0.5  0.6  0.0248645732003
0.5  0.62  0.0197578837036
0.5  0.64  0.0157000068048
0.5  0.66  0.0124755372271
0.5  0.68  0.00991330965893
0.5  0.7  0.00787731274455
0.5  0.72  0.00625946915918
0.5  0.74  0.00497389851404
0.5  0.76  0.00395235854651
0.5  0.78  0.00314062259938
0.5  0.8  0.00249560109379
0.5  0.82  0.00198305419459
0.5  0.84  0.00157577424873
0.5  0.86  0.0012521415147
0.5  0.88  0.000994976516532
0.5  0.9  0.000790628101398
0.5  0.92  0.000628248792141
0.5  0.94  0.000499218967968
0.5  0.96  0.000396689307002
0.5  0.98  0.000315217202043
0.52  -1  0.000193563575822
0.52  -0.98  0.000243592672786
0.52  -0.96  0.000306552459485
0.52  -0.94  0.000385785045754
0.52  -0.92  0.00048549635445
0.52  -0.9  0.000610979385486
0.52  -0.88  0.000768895185447
0.52  -0.86  0.000967626437565
0.52  -0.84  0.00121772244175
0.52  -0.82  0.00153245910569
0.52  -0.8  0.00192854367307
0.52  -0.78  0.00242700159838
0.52  -0.76  0.00305429264619
0.52  -0.74  0.00384371546142
0.52  -0.72  0.00483717516944
0.52  -0.7  0.00608740783618
0.52  -0.68  0.00766077986963
0.52  -0.66  0.00964081096425
0.52  -0.64  0.0121326075974
0.52  -0.62  0.0152684424224
0.52  -0.6  0.0192147757302
0.52  -0.58  0.0241810917018
0.52  -0.56  0.0304310185091
0.52  -0.54  0.0382963225531
0.52  -0.52  0.0481945197022
0.52  -0.5  0.0606510383889
0.52  -0.48  0.076327111057
0.52  -0.46  0.096054874526
0.52  -0.44  0.120881542514
0.52  -0.42  0.152124995141
0.52  -0.4  0.191443736284
0.52  -0.38  0.240924932346
0.52  -0.36  0.303195205821
0.52  -0.34  0.381560064946
0.52  -0.32  0.480179370802
0.52  -0.3  0.604288156247
0.52  -0.28  0.760474518451
0.52  -0.26  0.957029336476
0.52  -0.24  1.20438637805
0.52  -0.22  1.51567615782
0.52  -0.2  1.38312868442
0.52  -0.18  1.38968793192
0.52  -0.16  1.42484655598
0.52  -0.14  1.48312488933
0.52  -0.12  1.55630708946
0.52  -0.1  1.63537224311
0.52  -0.08  1.71189067632
0.52  -0.06  1.77874699211
0.52  -0.04  1.83040444212
0.52  -0.02  1.86294783877
0.52  6.17561557e-16  1.87405238477
0.52  0.02  1.86294783877
0.52  0.04  1.83040444212
0.52  0.06  1.77874699211
0.52  0.08  1.71189067632
0.52  0.1  1.63537224311
0.52  0.12  1.55630708946
0.52  0.14  1.48312488933
0.52  0.16  1.42484655598
0.52  0.18  1.38968793192
0.52  0.2  1.90742294769
0.52  0.22  1.51567615782
0.52  0.24  1.20438637805
0.52  0.26  0.957029336475
0.52  0.28  0.760474518451
0.52  0.3  0.604288156247
0.52  0.32  0.480179370801
0.52  0.34  0.381560064945
0.52  0.36  0.303195205821
0.52  0.38  0.240924932346
0.52  0.4  0.191443736284
0.52  0.42  0.152124995141
0.52  0.44  0.120881542514
0.52  0.46  0.0960548745259
0.52  0.48  0.076327111057
0.52  0.5  0.0606510383888
0.52  0.52  0.0481945197021
0.52  0.54  0.0382963225531
0.52  0.56  0.0304310185091
0.52  0.58  0.0241810917018
0.52  0.6  0.0192147757302
0.52  0.62  0.0152684424224
0.52  0.64  0.0121326075974
0.52  0.66  0.00964081096424
0.52  0.68  0.00766077986962
0.52  0.7  0.00608740783617
0.52  0.72  0.00483717516944
0.52  0.74  0.00384371546142
0.52  0.76  0.00305429264619
0.52  0.78  0.00242700159838
0.52  0.8  0.00192854367307
0.52  0.82  0.00153245910569
0.52  0.84  0.00121772244175
0.52  0.86  0.000967626437565
0.52  0.88  0.000768895185447
0.52  0.9  0.000610979385486
0.52  0.92  0.00048549635445
0.52  0.94  0.000385785045754
0.52  0.96  0.000306552459484
0.52  0.98  0.000243592672786
0.54  -1  0.00014958152183
0.54  -0.98  0.000188242868252
0.54  -0.96  0.000236896757128
0.54  -0.94  0.000298125894802
0.54  -0.92  0.000375180522642
0.54  -0.9  0.000472150950401
0.54  -0.88  0.000594184683136
0.54  -0.86  0.000747759667483
0.54  -0.84  0.00094102816209
0.54  -0.82  0.00118424948597
0.54  -0.8  0.00149033461646
0.54  -0.78  0.00187553154578
0.54  -0.76  0.00236028777723
0.54  -0.74  0.00297033574502
0.54  -0.72  0.00373805877541
0.54  -0.7  0.00470421009875
0.54  -0.68  0.00592007616326
0.54  -0.66  0.00745019908616
0.54  -0.64  0.00937580275873
0.54  -0.62  0.0117991044741
0.54  -0.6  0.0148487409531
0.54  -0.58  0.0186865967985
0.54  -0.56  0.0235163978557
0.54  -0.54  0.0295945256417
0.54  -0.52  0.037243626908
0.54  -0.5  0.0468697407775
0.54  -0.48  0.0589838526193
0.54  -0.46  0.0742290188106
0.54  -0.44  0.0934145022561
0.54  -0.42  0.11755873069
0.54  -0.4  0.147943358127
0.54  -0.38  0.186181299213
0.54  -0.36  0.234302347978
0.54  -0.34  0.294860925882
0.54  -0.32  0.371071678804
0.54  -0.3  0.466980120878
0.54  -0.28  0.587677383513
0.54  -0.26  0.739570469173
0.54  -0.24  0.930722355867
0.54  -0.22  1.17128000619
0.54  -0.2  1.06885033831
0.54  -0.18  1.07391917535
0.54  -0.16  1.10108895908
0.54  -0.14  1.14612512746
0.54  -0.12  1.20267866455
0.54  -0.1  1.26377841411
0.54  -0.08  1.32291011613
0.54  -0.06  1.37457515392
0.54  -0.04  1.41449485449
0.54  -0.02  1.43964365004
0.54  6.17561557e-16  1.44822499022
0.54  0.02  1.43964365004
0.54  0.04  1.41449485449
0.54  0.06  1.37457515392
0.54  0.08  1.32291011613
0.54  0.1  1.26377841411
0.54  0.12  1.20267866455
0.54  0.14  1.14612512746
0.54  0.16  1.10108895908
0.54  0.18  1.07391917535
0.54  0.2  1.47401300103
0.54  0.22  1.17128000619
0.54  0.24  0.930722355867
0.54  0.26  0.739570469173
0.54  0.28  0.587677383512
0.54  0.3  0.466980120878
0.54  0.32  0.371071678804
0.54  0.34  0.294860925882
0.54  0.36  0.234302347978
0.54  0.38  0.186181299213
0.54  0.4  0.147943358127
0.54  0.42  0.11755873069
0.54  0.44  0.093414502256
0.54  0.46  0.0742290188105
0.54  0.48  0.0589838526193
0.54  0.5  0.0468697407775
0.54  0.52  0.0372436269079
0.54  0.54  0.0295945256417
0.54  0.56  0.0235163978557
0.54  0.58  0.0186865967985
0.54  0.6  0.0148487409531
0.54  0.62  0.0117991044741
0.54  0.64  0.00937580275873
0.54  0.66  0.00745019908615
0.54  0.68  0.00592007616325
0.54  0.7  0.00470421009874
0.54  0.72  0.00373805877541
0.54  0.74  0.00297033574502
0.54  0.76  0.00236028777723
0.54  0.78  0.00187553154578
0.54  0.8  0.00149033461646
0.54  0.82  0.00118424948597
0.54  0.84  0.00094102816209
0.54  0.86  0.000747759667482
0.54  0.88  0.000594184683136
0.54  0.9  0.000472150950401
0.54  0.92  0.000375180522642
0.54  0.94  0.000298125894802
0.54  0.96  0.000236896757127
0.54  0.98  0.000188242868252
0.56  -1  0.000115593192458
0.56  -0.98  0.00014546980023
0.56  -0.96  0.000183068417171
0.56  -0.94  0.000230384899906
0.56  -0.92  0.000289930960922
0.56  -0.9  0.000364867498414
0.56  -0.88  0.000459172387025
0.56  -0.86  0.000577851636341
0.56  -0.84  0.00072720512613
0.56  -0.82  0.000915161024408
0.56  -0.8  0.00115169664033
0.56  -0.78  0.00144936805215
0.56  -0.76  0.0018239766246
0.56  -0.74  0.00229540779663
0.56  -0.72  0.00288868666504
0.56  -0.7  0.00363530639785
0.56  -0.68  0.00457489999389
0.56  -0.66  0.00575734413103
0.56  -0.64  0.00724540678208
0.56  -0.62  0.00911807914257
0.56  -0.6  0.0114747687398
0.56  -0.58  0.0144405763071
0.56  -0.56  0.0181729365366
0.56  -0.54  0.0228699752239
0.56  -0.52  0.0287810264286
0.56  -0.5  0.0362198679347
0.56  -0.48  0.0455813775949
0.56  -0.46  0.0573624947278
0.56  -0.44  0.0721885992706
0.56  -0.42  0.0908467089756
0.56  -0.4  0.114327256867
0.56  -0.38  0.143876666642
0.56  -0.36  0.181063516883
0.56  -0.34  0.227861806304
0.56  -0.32  0.286755740008
0.56  -0.3  0.360871599155
0.56  -0.28  0.454143694118
0.56  -0.26  0.571523210445
0.56  -0.24  0.719241033857
0.56  -0.22  0.90513850589
0.56  -0.2  0.825983191998
0.56  -0.18  0.829900273793
0.56  -0.16  0.850896463703
0.56  -0.14  0.885699388657
0.56  -0.12  0.929402673782
0.56  -0.1  0.976619168329
0.56  -0.08  1.02231480057
0.56  -0.06  1.0622403648
0.56  -0.04  1.09308939998
0.56  -0.02  1.11252381628
0.56  6.17561557e-16  1.11915528047
0.56  0.02  1.11252381628
0.56  0.04  1.09308939998
0.56  0.06  1.0622403648
0.56  0.08  1.02231480057
0.56  0.1  0.976619168329
0.56  0.12  0.929402673782
0.56  0.14  0.885699388657
0.56  0.16  0.850896463703
0.56  0.18  0.829900273793
0.56  0.2  1.13908366775
0.56  0.22  0.90513850589
0.56  0.24  0.719241033857
0.56  0.26  0.571523210445
0.56  0.28  0.454143694118
0.56  0.3  0.360871599155
0.56  0.32  0.286755740007
0.56  0.34  0.227861806304
0.56  0.36  0.181063516883
0.56  0.38  0.143876666642
0.56  0.4  0.114327256867
0.56  0.42  0.0908467089756
0.56  0.44  0.0721885992706
0.56  0.46  0.0573624947278
0.56  0.48  0.0455813775949
0.56  0.5  0.0362198679347
0.56  0.52  0.0287810264286
0.56  0.54  0.0228699752239
0.56  0.56  0.0181729365366
0.56  0.58  0.0144405763071
0.56  0.6  0.0114747687398
0.56  0.62  0.00911807914257
0.56  0.64  0.00724540678207
0.56  0.66  0.00575734413102
0.56  0.68  0.00457489999389
0.56  0.7  0.00363530639785
0.56  0.72  0.00288868666503
0.56  0.74  0.00229540779663
0.56  0.76  0.0018239766246
0.56  0.78  0.00144936805215
0.56  0.8  0.00115169664033
0.56  0.82  0.000915161024408
0.56  0.84  0.00072720512613
0.56  0.86  0.000577851636341
0.56  0.88  0.000459172387025
0.56  0.9  0.000364867498414
0.56  0.92  0.000289930960922
0.56  0.94  0.000230384899906
0.56  0.96  0.00018306841717
0.56  0.98  0.00014546980023
0.58  -1  0.0000893277858065
0.58  -0.98  0.000112415747675
0.58  -0.96  0.000141471102313
0.58  -0.94  0.000178036202256
0.58  -0.92  0.000224052041692
0.58  -0.9  0.000281961290739
0.58  -0.88  0.000354837960301
0.58  -0.86  0.000446550580544
0.58  -0.84  0.000561967555036
0.58  -0.82  0.000707215591408
0.58  -0.8  0.000890004926883
0.58  -0.78  0.00112003861269
0.58  -0.76  0.00140952758354
0.58  -0.74  0.00177383885362
0.58  -0.72  0.00223231124766
0.58  -0.7  0.00280928196845
0.58  -0.68  0.00353537849463
0.58  -0.66  0.00444914438658
0.58  -0.64  0.0055990853038
0.58  -0.62  0.0070462438427
0.58  -0.6  0.00886743987578
0.58  -0.58  0.0111593483998
0.58  -0.56  0.0140436313584
0.58  -0.54  0.0176733958529
0.58  -0.52  0.0222413215643
0.58  -0.5  0.0279898888163
0.58  -0.48  0.0352242502174
0.58  -0.46  0.0443284291525
0.58  -0.44  0.0557857049901
0.58  -0.42  0.0702042671203
0.58  -0.4  0.0883494996213
0.58  -0.38  0.111184610331
0.58  -0.36  0.139921761045
0.58  -0.34  0.176086412999
0.58  -0.32  0.221598303304
0.58  -0.3  0.278873350822
0.58  -0.28  0.350951900981
0.58  -0.26  0.441660117179
0.58  -0.24  0.555813085957
0.58  -0.22  0.69947041742
0.58  -0.2  0.638300994079
0.58  -0.18  0.641328025655
0.58  -0.16  0.657553402904
0.58  -0.14  0.684448310464
0.58  -0.12  0.718221213605
0.58  -0.1  0.754709044954
0.58  -0.08  0.790021588562
0.58  -0.06  0.820875155052
0.58  -0.04  0.844714586672
0.58  -0.02  0.859733060847
0.58  6.17561557e-16  0.864857705307
0.58  0.02  0.859733060847
0.58  0.04  0.844714586672
0.58  0.06  0.820875155052
0.58  0.08  0.790021588562
0.58  0.1  0.754709044954
0.58  0.12  0.718221213605
0.58  0.14  0.684448310464
0.58  0.16  0.657553402904
0.58  0.18  0.641328025655
0.58  0.2  0.880257909011
0.58  0.22  0.69947041742
0.58  0.24  0.555813085957
0.58  0.26  0.441660117179
0.58  0.28  0.350951900981
0.58  0.3  0.278873350822
0.58  0.32  0.221598303304
0.58  0.34  0.176086412999
0.58  0.36  0.139921761045
0.58  0.38  0.111184610331
0.58  0.4  0.0883494996213
0.58  0.42  0.0702042671203
0.58  0.44  0.0557857049901
0.58  0.46  0.0443284291524
0.58  0.48  0.0352242502174
0.58  0.5  0.0279898888163
0.58  0.52  0.0222413215643
0.58  0.54  0.0176733958529
0.58  0.56  0.0140436313584
0.58  0.58  0.0111593483998
0.58  0.6  0.00886743987578
0.58  0.62  0.0070462438427
0.58  0.64  0.0055990853038
0.58  0.66  0.00444914438658
0.58  0.68  0.00353537849463
0.58  0.7  0.00280928196845
0.58  0.72  0.00223231124766
0.58  0.74  0.00177383885362
0.58  0.76  0.00140952758354
0.58  0.78  0.00112003861269
0.58  0.8  0.000890004926882
0.58  0.82  0.000707215591407
0.58  0.84  0.000561967555036
0.58  0.86  0.000446550580544
0.58  0.88  0.000354837960301
0.58  0.9  0.000281961290739
0.58  0.92  0.000224052041692
0.58  0.94  0.000178036202256
0.58  0.96  0.000141471102313
0.58  0.98  0.000112415747675
0.6  -1  0.0000690304778978
0.6  -0.98  0.0000868723288634
0.6  -0.96  0.000109325645019
0.6  -0.94  0.000137582321266
0.6  -0.92  0.000173142313697
0.6  -0.9  0.000217893262132
0.6  -0.88  0.000274210692168
0.6  -0.86  0.00034508411579
0.6  -0.84  0.000434275724366
0.6  -0.82  0.000546520097984
0.6  -0.8  0.000687775532321
0.6  -0.78  0.000865540324325
0.6  -0.76  0.00108925080615
0.6  -0.74  0.00137078225631
0.6  -0.72  0.00172507927798
0.6  -0.7  0.00217094910706
0.6  -0.68  0.0027320599613
0.6  -0.66  0.00343819742613
0.6  -0.64  0.00432684557019
0.6  -0.62  0.00544517672138
0.6  -0.6  0.00685255552713
0.6  -0.58  0.00862369022259
0.6  -0.56  0.0108525983862
0.6  -0.54  0.013657597698
0.6  -0.52  0.0171875866261
0.6  -0.5  0.0216299484404
0.6  -0.48  0.0272204981255
0.6  -0.46  0.0342560002045
0.6  -0.44  0.0431099219639
0.6  -0.42  0.0542522583093
0.6  -0.4  0.0682744806202
0.6  -0.38  0.0859209339706
0.6  -0.36  0.108128349382
0.6  -0.34  0.136075568547
0.6  -0.32  0.171246120569
0.6  -0.3  0.21550697251
0.6  -0.28  0.271207634054
0.6  -0.26  0.341304877111
0.6  -0.24  0.429519690867
0.6  -0.22  0.540534803968
0.6  -0.2  0.493264467109
0.6  -0.18  0.495603688152
0.6  -0.16  0.50814229006
0.6  -0.14  0.528926061931
0.6  -0.12  0.555024992099
0.6  -0.1  0.583221956937
0.6  -0.08  0.610510686184
0.6  -0.06  0.634353619493
0.6  -0.04  0.652776189163
0.6  -0.02  0.66438212387
0.6  6.17561557e-16  0.668342332365
0.6  0.02  0.66438212387
0.6  0.04  0.652776189163
0.6  0.06  0.634353619493
0.6  0.08  0.610510686184
0.6  0.1  0.583221956937
0.6  0.12  0.555024992099
0.6  0.14  0.528926061931
0.6  0.16  0.50814229006
0.6  0.18  0.495603688152
0.6  0.2  0.680243258955
0.6  0.22  0.540534803968
0.6  0.24  0.429519690867
0.6  0.26  0.341304877111
0.6  0.28  0.271207634054
0.6  0.3  0.21550697251
0.6  0.32  0.171246120569
0.6  0.34  0.136075568546
0.6  0.36  0.108128349382
0.6  0.38  0.0859209339705
0.6  0.4  0.0682744806201
0.6  0.42  0.0542522583093
0.6  0.44  0.0431099219639
0.6  0.46  0.0342560002044
0.6  0.48  0.0272204981254
0.6  0.5  0.0216299484404
0.6  0.52  0.017187586626
0.6  0.54  0.013657597698
0.6  0.56  0.0108525983862
0.6  0.58  0.00862369022259
0.6  0.6  0.00685255552713
0.6  0.62  0.00544517672138
0.6  0.64  0.00432684557019
0.6  0.66  0.00343819742613
0.6  0.68  0.0027320599613
0.6  0.7  0.00217094910706
0.6  0.72  0.00172507927798
0.6  0.74  0.00137078225631
0.6  0.76  0.00108925080615
0.6  0.78  0.000865540324325
0.6  0.8  0.00068777553232
0.6  0.82  0.000546520097983
0.6  0.84  0.000434275724366
0.6  0.86  0.000345084115789
0.6  0.88  0.000274210692168
0.6  0.9  0.000217893262132
0.6  0.92  0.000173142313697
0.6  0.94  0.000137582321266
0.6  0.96  0.000109325645019
0.6  0.98  0.0000868723288633
0.62  -1  0.0000533451807382
0.62  -0.98  0.0000671329567098
0.62  -0.96  0.0000844843679266
0.62  -0.94  0.000106320483616
0.62  -0.92  0.000133800435675
0.62  -0.9  0.000168382949156
0.62  -0.88  0.000211903776122
0.62  -0.86  0.000266673143332
0.62  -0.84  0.000335598386568
0.62  -0.82  0.000422338281464
0.62  -0.8  0.000531497263184
0.62  -0.78  0.000668869844791
0.62  -0.76  0.000841748208807
0.62  -0.74  0.00105930929993
0.62  -0.72  0.00133310196704
0.62  -0.7  0.00167766001361
0.62  -0.68  0.00211127369912
0.62  -0.66  0.00265696064544
0.62  -0.64  0.00334368768691
0.62  -0.62  0.00420790852388
0.62  -0.6  0.00529549880351
0.62  -0.58  0.006664191348
0.62  -0.56  0.00838664080016
0.62  -0.54  0.0105542803677
0.62  -0.52  0.0132821753947
0.62  -0.5  0.0167151314036
0.62  -0.48  0.021035380842
0.62  -0.46  0.0264722565731
0.62  -0.44  0.0333143656079
0.62  -0.42  0.0419249093024
0.62  -0.4  0.0527609632644
0.62  -0.38  0.0663977404103
0.62  -0.36  0.0835591251339
0.62  -0.34  0.105156099439
0.62  -0.32  0.132335100824
0.62  -0.3  0.166538878898
0.62  -0.28  0.209583081224
0.62  -0.26  0.263752633775
0.62  -0.24  0.331923032227
0.62  -0.22  0.4177129826
0.62  -0.2  0.381183543139
0.62  -0.18  0.382991239872
0.62  -0.16  0.392680785785
0.62  -0.14  0.408742011212
0.62  -0.12  0.428910669887
0.62  -0.1  0.45070064196
0.62  -0.08  0.471788750258
0.62  -0.06  0.490214025954
0.62  -0.04  0.504450568111
0.62  -0.02  0.513419370059
0.62  6.17561557e-16  0.516479728966
0.62  0.02  0.513419370059
0.62  0.04  0.504450568111
0.62  0.06  0.490214025954
0.62  0.08  0.471788750258
0.62  0.1  0.45070064196
0.62  0.12  0.428910669887
0.62  0.14  0.408742011212
0.62  0.16  0.392680785785
0.62  0.18  0.382991239872
0.62  0.2  0.52567649392
0.62  0.22  0.4177129826
0.62  0.24  0.331923032227
0.62  0.26  0.263752633775
0.62  0.28  0.209583081224
0.62  0.3  0.166538878898
0.62  0.32  0.132335100823
0.62  0.34  0.105156099439
0.62  0.36  0.0835591251339
0.62  0.38  0.0663977404103
0.62  0.4  0.0527609632644
0.62  0.42  0.0419249093024
0.62  0.44  0.0333143656079
0.62  0.46  0.0264722565731
0.62  0.48  0.021035380842
0.62  0.5  0.0167151314036
0.62  0.52  0.0132821753947
0.62  0.54  0.0105542803677
0.62  0.56  0.00838664080016
0.62  0.58  0.006664191348
0.62  0.6  0.00529549880351
0.62  0.62  0.00420790852388
0.62  0.64  0.00334368768691
0.62  0.66  0.00265696064544
0.62  0.68  0.00211127369912
0.62  0.7  0.00167766001361
0.62  0.72  0.00133310196704
0.62  0.74  0.00105930929993
0.62  0.76  0.000841748208806
0.62  0.78  0.000668869844791
0.62  0.8  0.000531497263184
0.62  0.82  0.000422338281464
0.62  0.84  0.000335598386568
0.62  0.86  0.000266673143332
0.62  0.88  0.000211903776122
0.62  0.9  0.000168382949156
0.62  0.92  0.000133800435675
0.62  0.94  0.000106320483616
0.62  0.96  0.0000844843679266
0.62  0.98  0.0000671329567098
0.64  -1  0.0000412239404196
0.64  -0.98  0.0000518788195915
0.64  -0.96  0.0000652875948979
0.64  -0.94  0.0000821620476548
0.64  -0.92  0.000103397928586
0.64  -0.9  0.000130122507181
0.64  -0.88  0.000163754410814
0.64  -0.86  0.000206078930094
0.64  -0.84  0.000259342787884
0.64  -0.82  0.00032637340264
0.64  -0.8  0.000410728976966
0.64  -0.78  0.000516887378551
0.64  -0.76  0.000650483839926
0.64  -0.74  0.000818610094893
0.64  -0.72  0.00103019083078
0.64  -0.7  0.0012964574398
0.64  -0.68  0.00163154421782
0.64  -0.66  0.00205323865866
0.64  -0.64  0.002583925672
0.64  -0.62  0.00325177584702
0.64  -0.6  0.00409224083876
0.64  -0.58  0.005149935257
0.64  -0.56  0.00648100495456
0.64  -0.54  0.00815610743144
0.64  -0.52  0.0102641625642
0.64  -0.5  0.0129170727618
0.64  -0.48  0.0162556631084
0.64  -0.46  0.0204571568161
0.64  -0.44  0.0257445828083
0.64  -0.42  0.0323986148189
0.64  -0.4  0.0407724704649
0.64  -0.38  0.0513106611842
0.64  -0.36  0.0645725883456
0.64  -0.34  0.081262238089
0.64  -0.32  0.102265551195
0.64  -0.3  0.128697451696
0.64  -0.28  0.161961030664
0.64  -0.26  0.203822026841
0.64  -0.24  0.256502557777
0.64  -0.22  0.322799077047
0.64  -0.2  0.294569958408
0.64  -0.18  0.295966905261
0.64  -0.16  0.303454765606
0.64  -0.14  0.315866514726
0.64  -0.12  0.331452394688
0.64  -0.1  0.348291188709
0.64  -0.08  0.364587598394
0.64  -0.06  0.378826231707
0.64  -0.04  0.389827907164
0.64  -0.02  0.396758792991
0.64  6.17561557e-16  0.399123768636
0.64  0.02  0.396758792991
0.64  0.04  0.389827907164
0.64  0.06  0.378826231707
0.64  0.08  0.364587598394
0.64  0.1  0.348291188709
0.64  0.12  0.331452394688
0.64  0.14  0.315866514726
0.64  0.16  0.303454765606
0.64  0.18  0.295966905261
0.64  0.2  0.406230819082
0.64  0.22  0.322799077047
0.64  0.24  0.256502557777
0.64  0.26  0.203822026841
0.64  0.28  0.161961030664
0.64  0.3  0.128697451696
0.64  0.32  0.102265551195
0.64  0.34  0.0812622380889
0.64  0.36  0.0645725883456
0.64  0.38  0.0513106611842
0.64  0.4  0.0407724704649
0.64  0.42  0.0323986148189
0.64  0.44  0.0257445828083
0.64  0.46  0.020457156816
0.64  0.48  0.0162556631084
0.64  0.5  0.0129170727618
0.64  0.52  0.0102641625642
0.64  0.54  0.00815610743144
0.64  0.56  0.00648100495456
0.64  0.58  0.00514993525699
0.64  0.6  0.00409224083876
0.64  0.62  0.00325177584702
0.64  0.64  0.002583925672
0.64  0.66  0.00205323865866
0.64  0.68  0.00163154421782
0.64  0.7  0.0012964574398
0.64  0.72  0.00103019083078
0.64  0.74  0.000818610094892
0.64  0.76  0.000650483839926
0.64  0.78  0.000516887378551
0.64  0.8  0.000410728976966
0.64  0.82  0.00032637340264
0.64  0.84  0.000259342787884
0.64  0.86  0.000206078930094
0.64  0.88  0.000163754410814
0.64  0.9  0.000130122507181
0.64  0.92  0.000103397928586
0.64  0.94  0.0000821620476548
0.64  0.96  0.0000652875948979
0.64  0.98  0.0000518788195915
0.66  -1  0.0000318569220349
0.66  -0.98  0.0000400907699306
0.66  -0.96  0.0000504527660224
0.66  -0.94  0.0000634929586966
0.66  -0.92  0.0000799035637066
0.66  -0.9  0.000100555709233
0.66  -0.88  0.000126545678193
0.66  -0.86  0.000159253102499
0.66  -0.84  0.000200414198397
0.66  -0.82  0.000252213930458
0.66  -0.8  0.000317401996595
0.66  -0.78  0.000399438790949
0.66  -0.76  0.000502679092843
0.66  -0.74  0.000632603232602
0.66  -0.72  0.000796108005279
0.66  -0.7  0.00100187277492
0.66  -0.68  0.00126082020337
0.66  -0.66  0.00158669606065
0.66  -0.64  0.00199679889499
0.66  -0.62  0.00251289829597
0.66  -0.6  0.00316239049498
0.66  -0.58  0.00397975264609
0.66  -0.56  0.00500837298531
0.66  -0.54  0.00630285401899
0.66  -0.52  0.00793191100207
0.66  -0.5  0.00998201956689
0.66  -0.48  0.0125620061304
0.66  -0.46  0.0158088247536
0.66  -0.44  0.0198948271077
0.66  -0.42  0.0250369114602
0.66  -0.4  0.0315080363389
0.66  -0.38  0.0396517100566
0.66  -0.36  0.0499002252474
0.66  -0.34  0.0627976063626
0.66  -0.32  0.0790284882548
0.66  -0.3  0.0994544588177
0.66  -0.28  0.125159794868
0.66  -0.26  0.15750901908
0.66  -0.24  0.198219333273
0.66  -0.22  0.249451773066
0.66  -0.2  0.227636953268
0.66  -0.18  0.228716481973
0.66  -0.16  0.234502929867
0.66  -0.14  0.244094446835
0.66  -0.12  0.256138859808
0.66  -0.1  0.269151496224
0.66  -0.08  0.28174499038
0.66  -0.06  0.292748281834
0.66  -0.04  0.301250125999
0.66  -0.02  0.306606156673
0.66  6.17561557e-16  0.308433755976
0.66  0.02  0.306606156673
0.66  0.04  0.301250125999
0.66  0.06  0.292748281834
0.66  0.08  0.28174499038
0.66  0.1  0.269151496224
0.66  0.12  0.256138859808
0.66  0.14  0.244094446835
0.66  0.16  0.234502929867
0.66  0.18  0.228716481973
0.66  0.2  0.313925922655
0.66  0.22  0.249451773066
0.66  0.24  0.198219333273
0.66  0.26  0.157509019079
0.66  0.28  0.125159794868
0.66  0.3  0.0994544588177
0.66  0.32  0.0790284882548
0.66  0.34  0.0627976063626
0.66  0.36  0.0499002252474
0.66  0.38  0.0396517100566
0.66  0.4  0.0315080363389
0.66  0.42  0.0250369114602
0.66  0.44  0.0198948271077
0.66  0.46  0.0158088247536
0.66  0.48  0.0125620061304
0.66  0.5  0.00998201956688
0.66  0.52  0.00793191100206
0.66  0.54  0.00630285401898
0.66  0.56  0.00500837298531
0.66  0.58  0.00397975264609
0.66  0.6  0.00316239049498
0.66  0.62  0.00251289829597
0.66  0.64  0.00199679889499
0.66  0.66  0.00158669606065
0.66  0.68  0.00126082020337
0.66  0.7  0.00100187277492
0.66  0.72  0.000796108005278
0.66  0.74  0.000632603232601
0.66  0.76  0.000502679092842
0.66  0.78  0.000399438790949
0.66  0.8  0.000317401996595
0.66  0.82  0.000252213930458
0.66  0.84  0.000200414198396
0.66  0.86  0.000159253102499
0.66  0.88  0.000126545678193
0.66  0.9  0.000100555709233
0.66  0.92  0.0000799035637066
0.66  0.94  0.0000634929586966
0.66  0.96  0.0000504527660224
0.66  0.98  0.0000400907699305
0.68  -1  0.0000246183036171
0.68  -0.98  0.0000309812336957
0.68  -0.96  0.0000389887482193
0.68  -0.94  0.0000490659120496
0.68  -0.92  0.0000617476537519
0.68  -0.9  0.0000777071613385
0.68  -0.88  0.0000977916172743
0.68  -0.86  0.000123067169671
0.68  -0.84  0.000154875526891
0.68  -0.82  0.00019490517978
0.68  -0.8  0.000245281032244
0.68  -0.78  0.000308677198043
0.68  -0.76  0.000388458951432
0.68  -0.74  0.00048886136684
0.68  -0.72  0.000615214130368
0.68  -0.7  0.000774224456824
0.68  -0.68  0.00097433313046
0.68  -0.66  0.00122616256919
0.68  -0.64  0.00154308069703
0.68  -0.62  0.00194191055687
0.68  -0.6  0.0024438233322
0.68  -0.58  0.00307546218228
0.68  -0.56  0.00387035654746
0.68  -0.54  0.00487070200075
0.68  -0.52  0.00612960012578
0.68  -0.5  0.00771387732121
0.68  -0.48  0.00970763216289
0.68  -0.46  0.0122166996292
0.68  -0.44  0.0153742691654
0.68  -0.42  0.0193479548113
0.68  -0.4  0.0243486926991
0.68  -0.38  0.0306419382274
0.68  -0.36  0.0385617572957
0.68  -0.34  0.0485285596067
0.68  -0.32  0.0610714153778
0.68  -0.3  0.0768561401054
0.68  -0.28  0.0967206382128
0.68  -0.26  0.121719381737
0.68  -0.24  0.153179385125
0.68  -0.22  0.192770647472
0.68  -0.2  0.175912651695
0.68  -0.18  0.176746886886
0.68  -0.16  0.181218521997
0.68  -0.14  0.188630627806
0.68  -0.12  0.197938275768
0.68  -0.1  0.20799414475
0.68  -0.08  0.217726110142
0.68  -0.06  0.226229203112
0.68  -0.04  0.232799234602
0.68  -0.02  0.236938253092
0.68  6.17561557e-16  0.238350580198
0.68  0.02  0.236938253092
0.68  0.04  0.232799234602
0.68  0.06  0.226229203112
0.68  0.08  0.217726110142
0.68  0.1  0.20799414475
0.68  0.12  0.197938275768
0.68  0.14  0.188630627806
0.68  0.16  0.181218521997
0.68  0.18  0.176746886886
0.68  0.2  0.242594801491
0.68  0.22  0.192770647472
0.68  0.24  0.153179385125
0.68  0.26  0.121719381737
0.68  0.28  0.0967206382127
0.68  0.3  0.0768561401053
0.68  0.32  0.0610714153778
0.68  0.34  0.0485285596067
0.68  0.36  0.0385617572957
0.68  0.38  0.0306419382274
0.68  0.4  0.0243486926991
0.68  0.42  0.0193479548113
0.68  0.44  0.0153742691654
0.68  0.46  0.0122166996292
0.68  0.48  0.00970763216289
0.68  0.5  0.00771387732121
0.68  0.52  0.00612960012578
0.68  0.54  0.00487070200075
0.68  0.56  0.00387035654746
0.68  0.58  0.00307546218228
0.68  0.6  0.0024438233322
0.68  0.62  0.00194191055687
0.68  0.64  0.00154308069703
0.68  0.66  0.00122616256919
0.68  0.68  0.00097433313046
0.68  0.7  0.000774224456824
0.68  0.72  0.000615214130367
0.68  0.74  0.00048886136684
0.68  0.76  0.000388458951432
0.68  0.78  0.000308677198043
0.68  0.8  0.000245281032244
0.68  0.82  0.00019490517978
0.68  0.84  0.000154875526891
0.68  0.86  0.000123067169671
0.68  0.88  0.0000977916172742
0.68  0.9  0.0000777071613384
0.68  0.92  0.0000617476537518
0.68  0.94  0.0000490659120496
0.68  0.96  0.0000389887482192
0.68  0.98  0.0000309812336957
0.7  -1  0.0000190244642065
0.7  -0.98  0.0000239415916176
0.7  -0.96  0.0000301296164224
0.7  -0.94  0.0000379170190629
0.7  -0.92  0.0000477171801481
0.7  -0.9  0.000060050324038
0.7  -0.88  0.0000755711340418
0.7  -0.86  0.0000951035051326
0.7  -0.84  0.000119684278967
0.7  -0.82  0.000150618282805
0.7  -0.8  0.000189547593979
0.7  -0.78  0.000238538706682
0.7  -0.76  0.000300192228195
0.7  -0.74  0.000377780927558
0.7  -0.72  0.000475423464774
0.7  -0.7  0.00059830302265
0.7  -0.68  0.000752942446967
0.7  -0.66  0.000947550500302
0.7  -0.64  0.00119245760979
0.7  -0.62  0.00150066423975
0.7  -0.6  0.00188853099846
0.7  -0.58  0.00237664711246
0.7  -0.56  0.0029909233694
0.7  -0.54  0.00376396754687
0.7  -0.52  0.00473681533897
0.7  -0.5  0.00596110866423
0.7  -0.48  0.00750183698622
0.7  -0.46  0.00944078716522
0.7  -0.44  0.0118808849703
0.7  -0.42  0.014951658713
0.7  -0.4  0.018816115031
0.7  -0.38  0.0236793918091
0.7  -0.36  0.0297996475639
0.7  -0.34  0.0375017653365
0.7  -0.32  0.0471945985379
0.7  -0.3  0.0593926742161
0.7  -0.28  0.074743505821
0.7  -0.26  0.0940619653206
0.7  -0.24  0.11837353925
0.7  -0.22  0.148968764865
0.7  -0.2  0.13594128977
0.7  -0.18  0.13658596772
0.7  -0.16  0.140041545466
0.7  -0.14  0.14576945198
0.7  -0.12  0.152962190288
0.7  -0.1  0.160733136754
0.7  -0.08  0.168253777906
0.7  -0.06  0.174824774445
0.7  -0.04  0.179901945108
0.7  -0.02  0.183100484306
0.7  6.17561557e-16  0.18419189852
0.7  0.02  0.183100484306
0.7  0.04  0.179901945108
0.7  0.06  0.174824774445
0.7  0.08  0.168253777906
0.7  0.1  0.160733136754
0.7  0.12  0.152962190288
0.7  0.14  0.14576945198
0.7  0.16  0.140041545466
0.7  0.18  0.13658596772
0.7  0.2  0.187471736047
0.7  0.22  0.148968764864
0.7  0.24  0.11837353925
0.7  0.26  0.0940619653206
0.7  0.28  0.074743505821
0.7  0.3  0.0593926742161
0.7  0.32  0.0471945985379
0.7  0.34  0.0375017653364
0.7  0.36  0.0297996475639
0.7  0.38  0.0236793918091
0.7  0.4  0.018816115031
0.7  0.42  0.014951658713
0.7  0.44  0.0118808849703
0.7  0.46  0.00944078716521
0.7  0.48  0.00750183698621
0.7  0.5  0.00596110866423
0.7  0.52  0.00473681533897
0.7  0.54  0.00376396754687
0.7  0.56  0.0029909233694
0.7  0.58  0.00237664711246
0.7  0.6  0.00188853099846
0.7  0.62  0.00150066423974
0.7  0.64  0.00119245760979
0.7  0.66  0.000947550500302
0.7  0.68  0.000752942446967
0.7  0.7  0.00059830302265
0.7  0.72  0.000475423464774
0.7  0.74  0.000377780927558
0.7  0.76  0.000300192228195
0.7  0.78  0.000238538706682
0.7  0.8  0.000189547593978
0.7  0.82  0.000150618282805
0.7  0.84  0.000119684278967
0.7  0.86  0.0000951035051325
0.7  0.88  0.0000755711340417
0.7  0.9  0.0000600503240379
0.7  0.92  0.000047717180148
0.7  0.94  0.0000379170190629
0.7  0.96  0.0000301296164224
0.7  0.98  0.0000239415916175
0.72  -1  0.000014701672543
0.72  -0.98  0.0000185015165894
0.72  -0.96  0.0000232834811894
0.72  -0.94  0.0000293014085454
0.72  -0.92  0.0000368747497748
0.72  -0.9  0.000046405522412
0.72  -0.88  0.0000583996508038
0.72  -0.86  0.0000734938222165
0.72  -0.84  0.0000924892842618
0.72  -0.82  0.000116394377722
0.72  -0.8  0.000146478062549
0.72  -0.78  0.000184337278381
0.72  -0.76  0.00023198171528
0.72  -0.74  0.000291940494602
0.72  -0.72  0.00036739642297
0.72  -0.7  0.000462354945982
0.72  -0.68  0.000581856770258
0.72  -0.66  0.000732245440515
0.72  -0.64  0.000921504075509
0.72  -0.62  0.00115967913789
0.72  -0.6  0.00145941373305
0.72  -0.58  0.00183661874618
0.72  -0.56  0.00231131744374
0.72  -0.54  0.00290870837339
0.72  -0.52  0.00366050298472
0.72  -0.5  0.00460660897589
0.72  -0.48  0.00579724872383
0.72  -0.46  0.007295625251
0.72  -0.44  0.00918127724695
0.72  -0.42  0.0115543012402
0.72  -0.4  0.0145406650467
0.72  -0.38  0.0182988945506
0.72  -0.36  0.0230284887726
0.72  -0.34  0.0289805099255
0.72  -0.32  0.0364709106114
0.72  -0.3  0.0458973056115
0.72  -0.28  0.057760078569
0.72  -0.26  0.0726889439771
0.72  -0.24  0.0914763744684
0.72  -0.22  0.115119667835
0.72  -0.2  0.10505233186
0.72  -0.18  0.105550524293
0.72  -0.16  0.108220916054
0.72  -0.14  0.112647311721
0.72  -0.12  0.118205696028
0.72  -0.1  0.124210906427
0.72  -0.08  0.130022686582
0.72  -0.06  0.135100603013
0.72  -0.04  0.139024124839
0.72  -0.02  0.141495883066
0.72  6.17561557e-16  0.142339303106
0.72  0.02  0.141495883066
0.72  0.04  0.139024124839
0.72  0.06  0.135100603013
0.72  0.08  0.130022686582
0.72  0.1  0.124210906427
0.72  0.12  0.118205696028
0.72  0.14  0.112647311721
0.72  0.16  0.108220916054
0.72  0.18  0.105550524293
0.72  0.2  0.14487388683
0.72  0.22  0.115119667834
0.72  0.24  0.0914763744683
0.72  0.26  0.072688943977
0.72  0.28  0.057760078569
0.72  0.3  0.0458973056115
0.72  0.32  0.0364709106114
0.72  0.34  0.0289805099255
0.72  0.36  0.0230284887725
0.72  0.38  0.0182988945505
0.72  0.4  0.0145406650467
0.72  0.42  0.0115543012402
0.72  0.44  0.00918127724695
0.72  0.46  0.007295625251
0.72  0.48  0.00579724872383
0.72  0.5  0.00460660897589
0.72  0.52  0.00366050298471
0.72  0.54  0.00290870837339
0.72  0.56  0.00231131744374
0.72  0.58  0.00183661874618
0.72  0.6  0.00145941373305
0.72  0.62  0.00115967913789
0.72  0.64  0.000921504075509
0.72  0.66  0.000732245440515
0.72  0.68  0.000581856770257
0.72  0.7  0.000462354945981
0.72  0.72  0.00036739642297
0.72  0.74  0.000291940494601
0.72  0.76  0.000231981715279
0.72  0.78  0.000184337278381
0.72  0.8  0.000146478062549
0.72  0.82  0.000116394377722
0.72  0.84  0.0000924892842618
0.72  0.86  0.0000734938222164
0.72  0.88  0.0000583996508038
0.72  0.9  0.0000464055224119
0.72  0.92  0.0000368747497748
0.72  0.94  0.0000293014085454
0.72  0.96  0.0000232834811893
0.72  0.98  0.0000185015165894
0.74  -1  0.0000113611176229
0.74  -0.98  0.0000142975505378
0.74  -0.96  0.0000179929438429
0.74  -0.94  0.0000226434610094
0.74  -0.92  0.0000284959665835
0.74  -0.9  0.0000358611305572
0.74  -0.88  0.0000451299197406
0.74  -0.86  0.0000567943515484
0.74  -0.84  0.000071473611882
0.74  -0.82  0.0000899469235265
0.74  -0.8  0.000113194909825
0.74  -0.78  0.000142451649351
0.74  -0.76  0.0001792701848
0.74  -0.74  0.000225604963541
0.74  -0.72  0.000283915586025
0.74  -0.7  0.000357297369361
0.74  -0.68  0.000449645656794
0.74  -0.66  0.000565862595169
0.74  -0.64  0.000712117356798
0.74  -0.62  0.000896173619147
0.74  -0.6  0.00112780168604
0.74  -0.58  0.0014192971271
0.74  -0.56  0.00178613346647
0.74  -0.54  0.00224778356776
0.74  -0.52  0.00282875331678
0.74  -0.5  0.00355988247355
0.74  -0.48  0.00447998174683
0.74  -0.46  0.00563789299256
0.74  -0.44  0.00709508189805
0.74  -0.42  0.00892890078022
0.74  -0.4  0.0112366946976
0.74  -0.38  0.0141409688421
0.74  -0.36  0.0177958915121
0.74  -0.34  0.0223954778663
0.74  -0.32  0.0281838888778
0.74  -0.3  0.0354683921915
0.74  -0.28  0.0446356728876
0.74  -0.26  0.0561723599809
0.74  -0.24  0.0706908582687
0.74  -0.22  0.0889618567649
0.74  -0.2  0.0811820488672
0.74  -0.18  0.0815670406306
0.74  -0.16  0.0836306585491
0.74  -0.14  0.0870512762828
0.74  -0.12  0.09134666905
0.74  -0.1  0.0959873588422
0.74  -0.08  0.100478570148
0.74  -0.06  0.104402668286
0.74  -0.04  0.107434676571
0.74  -0.02  0.10934479502
0.74  6.17561557e-16  0.109996570813
0.74  0.02  0.10934479502
0.74  0.04  0.107434676571
0.74  0.06  0.104402668286
0.74  0.08  0.100478570148
0.74  0.1  0.0959873588422
0.74  0.12  0.09134666905
0.74  0.14  0.0870512762828
0.74  0.16  0.0836306585491
0.74  0.18  0.0815670406306
0.74  0.2  0.111955239374
0.74  0.22  0.0889618567649
0.74  0.24  0.0706908582687
0.74  0.26  0.0561723599809
0.74  0.28  0.0446356728875
0.74  0.3  0.0354683921915
0.74  0.32  0.0281838888778
0.74  0.34  0.0223954778663
0.74  0.36  0.0177958915121
0.74  0.38  0.0141409688421
0.74  0.4  0.0112366946976
0.74  0.42  0.00892890078022
0.74  0.44  0.00709508189805
0.74  0.46  0.00563789299256
0.74  0.48  0.00447998174683
0.74  0.5  0.00355988247355
0.74  0.52  0.00282875331678
0.74  0.54  0.00224778356776
0.74  0.56  0.00178613346647
0.74  0.58  0.00141929712709
0.74  0.6  0.00112780168604
0.74  0.62  0.000896173619146
0.74  0.64  0.000712117356797
0.74  0.66  0.000565862595169
0.74  0.68  0.000449645656794
0.74  0.7  0.000357297369361
0.74  0.72  0.000283915586025
0.74  0.74  0.000225604963541
0.74  0.76  0.0001792701848
0.74  0.78  0.000142451649351
0.74  0.8  0.000113194909825
0.74  0.82  0.0000899469235265
0.74  0.84  0.000071473611882
0.74  0.86  0.0000567943515484
0.74  0.88  0.0000451299197405
0.74  0.9  0.0000358611305572
0.74  0.92  0.0000284959665834
0.74  0.94  0.0000226434610094
0.74  0.96  0.0000179929438429
0.74  0.98  0.0000142975505378
0.76  -1  0.00000877961288171
0.76  -0.98  0.0000110488213436
0.76  -0.96  0.0000139045371051
0.76  -0.94  0.0000174983508281
0.76  -0.92  0.00002202103381
0.76  -0.9  0.0000277126647433
0.76  -0.88  0.0000348753738722
0.76  -0.86  0.0000438893810463
0.76  -0.84  0.0000552331790243
0.76  -0.82  0.0000695089334232
