0.28  0.2  62.852360281
0.28  0.22  53.799303272
0.28  0.24  46.0502202242
0.28  0.26  39.4172908147
0.28  0.28  33.7397477711
0.28  0.3  28.8799802353
0.28  0.32  24.7201983859
0.28  0.34  21.1595784782
0.28  0.36  18.1118191038
0.28  0.38  15.5030494387
0.28  0.4  13.2700387808
0.28  0.42  11.3586639803
0.28  0.44  9.72259761618
0.28  0.46  8.32218512409
0.28  0.48  7.12348365877
0.28  0.5  6.09743939604
0.28  0.52  5.21918333351
0.28  0.54  4.46742852195
0.28  0.56  3.82395411762
0.28  0.58  3.27316374997
0.28  0.6  2.80170750082
0.28  0.62  2.39815833236
0.28  0.64  2.05273512148
0.28  0.66  1.75706558742
0.28  0.68  1.50398336647
0.28  0.7  1.28735431553
0.28  0.72  1.10192783421
0.28  0.74  0.943209602181
0.28  0.76  0.8073526469
0.28  0.78  0.691064101711
0.28  0.8  0.591525394148
0.28  0.82  0.506323930089
0.28  0.84  0.433394617911
0.28  0.86  0.370969815313
0.28  0.88  0.317536485655
0.28  0.9  0.271799525353
0.28  0.92  0.232650373483
0.28  0.94  0.199140142763
0.28  0.96  0.170456620662
0.28  0.98  0.145904583197
0.3  -1  0.104394548309
0.3  -0.98  0.121961500663
0.3  -0.96  0.142484525149
0.3  -0.94  0.166461053666
0.3  -0.92  0.194472223272
0.3  -0.9  0.227196961639
0.3  -0.88  0.265428442735
0.3  -0.86  0.310093311567
0.3  -0.84  0.362274143975
0.3  -0.82  0.423235685832
0.3  -0.8  0.494455507633
0.3  -0.78  0.577659817481
0.3  -0.76  0.674865300478
0.3  -0.74  0.788427998636
0.3  -0.72  0.921100416029
0.3  -0.7  1.07609823329
0.3  -0.68  1.25717824847
0.3  -0.66  1.46872943337
0.3  -0.64  1.71587931232
0.3  -0.62  2.00461824182
0.3  -0.6  2.34194460333
0.3  -0.58  2.73603442823
0.3  -0.56  3.19643956641
0.3  -0.54  3.73431920166
0.3  -0.52  4.36271032508
0.3  -0.5  5.09684372244
0.3  -0.48  5.95451313411
0.3  -0.46  6.95650653524
0.3  -0.44  8.1271099895
0.3  -0.42  9.49469628855
0.3  -0.4  11.0924126446
0.3  -0.38  12.9589841043
0.3  -0.36  15.1396521565
0.3  -0.34  17.6872712841
0.3  -0.32  20.6635900379
0.3  -0.3  24.1407476821
0.3  -0.28  28.2030226878
0.3  -0.26  32.9488754534
0.3  -0.24  38.4933347627
0.3  -0.22  44.9707858239
0.3  -0.2  39.1559661607
0.3  -0.18  39.1905511489
0.3  -0.16  38.9046601795
0.3  -0.14  38.3234106967
0.3  -0.12  37.4994345117
0.3  -0.1  36.511198326
0.3  -0.08  35.4594034874
0.3  -0.06  34.4601454823
0.3  -0.04  33.6334268189
0.3  -0.02  33.0866316777
0.3  6.17561557e-16  32.8952581502
0.3  0.02  33.0866316777
0.3  0.04  33.6334268189
0.3  0.06  34.4601454823
0.3  0.08  35.4594034874
0.3  0.1  36.511198326
0.3  0.12  37.4994345117
0.3  0.14  38.3234106967
0.3  0.16  38.9046601795
0.3  0.18  39.1905511489
0.3  0.2  52.5382274643
0.3  0.22  44.9707858239
0.3  0.24  38.4933347627
0.3  0.26  32.9488754534
0.3  0.28  28.2030226878
0.3  0.3  24.1407476821
0.3  0.32  20.6635900379
0.3  0.34  17.6872712841
0.3  0.36  15.1396521565
0.3  0.38  12.9589841043
0.3  0.4  11.0924126446
0.3  0.42  9.49469628855
0.3  0.44  8.1271099895
0.3  0.46  6.95650653524
0.3  0.48  5.95451313411
0.3  0.5  5.09684372244
0.3  0.52  4.36271032508
0.3  0.54  3.73431920166
0.3  0.56  3.19643956641
0.3  0.58  2.73603442823
0.3  0.6  2.34194460333
0.3  0.62  2.00461824182
0.3  0.64  1.71587931232
0.3  0.66  1.46872943337
0.3  0.68  1.25717824847
0.3  0.7  1.07609823329
0.3  0.72  0.921100416029
0.3  0.74  0.788427998636
0.3  0.76  0.674865300478
0.3  0.78  0.577659817481
0.3  0.8  0.494455507633
0.3  0.82  0.423235685832
0.3  0.84  0.362274143975
0.3  0.86  0.310093311567
0.3  0.88  0.265428442735
0.3  0.9  0.227196961639
0.3  0.92  0.194472223272
0.3  0.94  0.166461053666
0.3  0.96  0.142484525149
0.3  0.98  0.121961500663
0.32  -1  0.0850005344297
0.32  -0.98  0.0993039665781
0.32  -0.96  0.116014303255
0.32  -0.94  0.135536565391
0.32  -0.92  0.158343928659
0.32  -0.9  0.184989192185
0.32  -0.88  0.216118177154
0.32  -0.86  0.252485380063
0.32  -0.84  0.294972260015
0.32  -0.82  0.344608603306
0.32  -0.8  0.40259748312
0.32  -0.78  0.47034441932
0.32  -0.76  0.54949144508
0.32  -0.74  0.641956906075
0.32  -0.72  0.749981956858
0.32  -0.7  0.876184881398
0.32  -0.68  1.02362455439
0.32  -0.66  1.19587458149
0.32  -0.64  1.39710991548
0.32  -0.62  1.63220804767
0.32  -0.6  1.90686722739
0.32  -0.58  2.22774457464
0.32  -0.56  2.60261743375
0.32  -0.54  3.04057187865
0.32  -0.52  3.55222293886
0.32  -0.5  4.14997188389
0.32  -0.48  4.8483068021
0.32  -0.46  5.66415375935
0.32  -0.44  6.61728704868
0.32  -0.42  7.73080847467
0.32  -0.4  9.03170728915
0.32  -0.38  10.5515143499
0.32  -0.36  12.3270663577
0.32  -0.34  14.4013986948
0.32  -0.32  16.8247885059
0.32  -0.3  19.6559733028
0.32  -0.28  22.9635746295
0.32  -0.26  26.8277612937
0.32  -0.24  31.3421924786
0.32  -0.22  36.61628783
0.32  -0.2  31.8817227881
0.32  -0.18  31.9098827115
0.32  -0.16  31.6771034564
0.32  -0.14  31.2038362458
0.32  -0.12  30.5329351575
0.32  -0.1  29.7282896536
0.32  -0.08  28.8718931766
0.32  -0.06  28.0582734441
0.32  -0.04  27.3851393643
0.32  -0.02  26.9399257016
0.32  6.17561557e-16  26.784104805
0.32  0.02  26.9399257016
0.32  0.04  27.3851393643
0.32  0.06  28.0582734441
0.32  0.08  28.8718931766
0.32  0.1  29.7282896536
0.32  0.12  30.5329351575
0.32  0.14  31.2038362458
0.32  0.16  31.6771034564
0.32  0.18  31.9098827115
0.32  0.2  42.7778795426
0.32  0.22  36.61628783
0.32  0.24  31.3421924786
0.32  0.26  26.8277612937
0.32  0.28  22.9635746295
0.32  0.3  19.6559733028
0.32  0.32  16.8247885059
0.32  0.34  14.4013986948
0.32  0.36  12.3270663577
0.32  0.38  10.5515143499
0.32  0.4  9.03170728915
0.32  0.42  7.73080847466
0.32  0.44  6.61728704868
0.32  0.46  5.66415375935
0.32  0.48  4.8483068021
0.32  0.5  4.14997188389
0.32  0.52  3.55222293886
0.32  0.54  3.04057187865
0.32  0.56  2.60261743375
0.32  0.58  2.22774457464
0.32  0.6  1.90686722739
0.32  0.62  1.63220804767
0.32  0.64  1.39710991548
0.32  0.66  1.19587458149
0.32  0.68  1.02362455439
0.32  0.7  0.876184881398
0.32  0.72  0.749981956858
0.32  0.74  0.641956906075
0.32  0.76  0.54949144508
0.32  0.78  0.47034441932
0.32  0.8  0.40259748312
0.32  0.82  0.344608603306
0.32  0.84  0.294972260015
0.32  0.86  0.252485380063
0.32  0.88  0.216118177154
0.32  0.9  0.184989192185
0.32  0.92  0.158343928659
0.32  0.94  0.135536565391
0.32  0.96  0.116014303255
0.32  0.98  0.0993039665781
0.34  -1  0.0692094651529
0.34  -0.98  0.0808556612091
0.34  -0.96  0.094461616415
0.34  -0.94  0.110357108486
0.34  -0.92  0.128927408354
0.34  -0.9  0.150622618271
0.34  -0.88  0.175968581268
0.34  -0.86  0.205579626415
0.34  -0.84  0.240173458762
0.34  -0.82  0.280588554906
0.34  -0.8  0.327804485767
0.34  -0.78  0.382965659183
0.34  -0.76  0.447409057782
0.34  -0.74  0.522696644425
0.34  -0.72  0.610653220674
0.34  -0.7  0.713410655868
0.34  -0.68  0.833459558839
0.34  -0.66  0.973709644658
0.34  -0.64  1.13756025958
0.34  -0.62  1.32898277353
0.34  -0.6  1.55261683718
0.34  -0.58  1.81388283666
0.34  -0.56  2.11911327142
0.34  -0.54  2.47570623988
0.34  -0.52  2.89230475257
0.34  -0.5  3.37900621932
0.34  -0.48  3.94760718768
0.34  -0.46  4.61188926469
0.34  -0.44  5.38795315201
0.34  -0.42  6.29460889065
0.34  -0.4  7.35383177405
0.34  -0.38  8.59129497963
0.34  -0.36  10.0369918289
0.34  -0.34  11.7259627579
0.34  -0.32  13.6991446185
0.34  -0.3  16.0043628958
0.34  -0.28  18.6974908895
0.34  -0.26  21.8438039578
0.34  -0.24  25.5195616442
0.34  -0.22  29.8138560376
0.34  -0.2  25.9588601075
0.34  -0.18  25.9817885896
0.34  -0.16  25.7922541608
0.34  -0.14  25.4069086952
0.34  -0.12  24.8606450063
0.34  -0.1  24.2054834201
0.34  -0.08  23.5081849557
0.34  -0.06  22.8457163383
0.34  -0.04  22.2976344944
0.34  -0.02  21.9351308974
0.34  6.17561557e-16  21.808257802
0.34  0.02  21.9351308974
0.34  0.04  22.2976344944
0.34  0.06  22.8457163383
0.34  0.08  23.5081849557
0.34  0.1  24.2054834201
0.34  0.12  24.8606450063
0.34  0.14  25.4069086952
0.34  0.16  25.7922541608
0.34  0.18  25.9817885896
0.34  0.2  34.8307711638
0.34  0.22  29.8138560376
0.34  0.24  25.5195616442
0.34  0.26  21.8438039578
0.34  0.28  18.6974908895
0.34  0.3  16.0043628958
0.34  0.32  13.6991446185
0.34  0.34  11.7259627578
0.34  0.36  10.0369918289
0.34  0.38  8.59129497963
0.34  0.4  7.35383177405
0.34  0.42  6.29460889065
0.34  0.44  5.387953152
0.34  0.46  4.61188926468
0.34  0.48  3.94760718768
0.34  0.5  3.37900621932
0.34  0.52  2.89230475257
0.34  0.54  2.47570623988
0.34  0.56  2.11911327142
0.34  0.58  1.81388283665
0.34  0.6  1.55261683718
0.34  0.62  1.32898277353
0.34  0.64  1.13756025958
0.34  0.66  0.973709644657
0.34  0.68  0.833459558839
0.34  0.7  0.713410655868
0.34  0.72  0.610653220674
0.34  0.74  0.522696644425
0.34  0.76  0.447409057781
0.34  0.78  0.382965659183
0.34  0.8  0.327804485767
0.34  0.82  0.280588554906
0.34  0.84  0.240173458762
0.34  0.86  0.205579626415
0.34  0.88  0.175968581268
0.34  0.9  0.15062261827
0.34  0.92  0.128927408354
0.34  0.94  0.110357108486
0.34  0.96  0.094461616415
0.34  0.98  0.0808556612091
0.36  -1  0.0563519994185
0.36  -0.98  0.0658346103871
0.36  -0.96  0.0769129040591
0.36  -0.94  0.0898553933262
0.36  -0.92  0.104975774983
0.36  -0.9  0.122640533032
0.36  -0.88  0.143277821428
0.36  -0.86  0.16738784157
0.36  -0.84  0.195554966053
0.36  -0.82  0.228461902545
0.36  -0.8  0.266906241083
0.36  -0.78  0.311819785862
0.36  -0.76  0.364291140066
0.36  -0.74  0.425592091163
0.36  -0.72  0.497208436162
0.36  -0.7  0.580875993996
0.36  -0.68  0.678622677856
0.36  -0.66  0.792817647244
0.36  -0.64  0.926228731063
0.36  -0.62  1.08208951356
0.36  -0.6  1.26417770912
0.36  -0.58  1.47690672556
0.36  -0.56  1.72543263519
0.36  -0.54  2.01577914642
0.36  -0.52  2.35498360485
0.36  -0.5  2.75126756269
0.36  -0.48  3.2142360507
0.36  -0.46  3.75511038248
0.36  -0.44  4.38700013384
0.36  -0.42  5.1252208894
0.36  -0.4  5.98766545789
0.36  -0.38  6.99523755352
0.36  -0.36  8.17235845494
0.36  -0.34  9.54755892206
0.36  -0.32  11.1541707174
0.36  -0.3  13.031134493
0.36  -0.28  15.223943624
0.36  -0.26  17.7857468658
0.36  -0.24  20.7786365601
0.36  -0.22  24.2751536135
0.36  -0.2  21.1363238605
0.36  -0.18  21.1549927782
0.36  -0.16  21.0006693197
0.36  -0.14  20.6869118386
0.36  -0.12  20.242130897
0.36  -0.1  19.7086826867
0.36  -0.08  19.1409256238
0.36  -0.06  18.6015278541
0.36  -0.04  18.1552665273
0.36  -0.02  17.8601074412
0.36  6.17561557e-16  17.7568043369
0.36  0.02  17.8601074412
0.36  0.04  18.1552665273
0.36  0.06  18.6015278541
0.36  0.08  19.1409256238
0.36  0.1  19.7086826867
0.36  0.12  20.242130897
0.36  0.14  20.6869118386
0.36  0.16  21.0006693197
0.36  0.18  21.1549927782
0.36  0.2  28.3600457254
0.36  0.22  24.2751536135
0.36  0.24  20.7786365601
0.36  0.26  17.7857468658
0.36  0.28  15.223943624
0.36  0.3  13.031134493
0.36  0.32  11.1541707174
0.36  0.34  9.54755892206
0.36  0.36  8.17235845494
0.36  0.38  6.99523755352
0.36  0.4  5.98766545789
0.36  0.42  5.1252208894
0.36  0.44  4.38700013384
0.36  0.46  3.75511038248
0.36  0.48  3.2142360507
0.36  0.5  2.75126756269
0.36  0.52  2.35498360485
0.36  0.54  2.01577914642
0.36  0.56  1.72543263519
0.36  0.58  1.47690672556
0.36  0.6  1.26417770912
0.36  0.62  1.08208951356
0.36  0.64  0.926228731063
0.36  0.66  0.792817647244
0.36  0.68  0.678622677856
0.36  0.7  0.580875993996
0.36  0.72  0.497208436162
0.36  0.74  0.425592091163
0.36  0.76  0.364291140066
0.36  0.78  0.311819785862
0.36  0.8  0.266906241083
0.36  0.82  0.228461902545
0.36  0.84  0.195554966053
0.36  0.86  0.16738784157
0.36  0.88  0.143277821428
0.36  0.9  0.122640533032
0.36  0.92  0.104975774983
0.36  0.94  0.0898553933262
0.36  0.96  0.0769129040591
0.36  0.98  0.065834610387
0.38  -1  0.0458831437499
0.38  -0.98  0.0536041120684
0.38  -0.96  0.0626243233529
0.38  -0.94  0.0731624072124
0.38  -0.92  0.085473783069
0.38  -0.9  0.0998568509498
0.38  -0.88  0.116660224031
0.38  -0.86  0.136291178237
0.38  -0.84  0.15922552369
0.38  -0.82  0.18601913728
0.38  -0.8  0.217321435862
0.38  -0.78  0.253891116667
0.38  -0.76  0.296614546404
0.38  -0.74  0.346527244803
0.38  -0.72  0.404838983275
0.38  -0.7  0.472963107049
0.38  -0.68  0.552550791477
0.38  -0.66  0.645531062807
0.38  -0.64  0.754157553435
0.38  -0.62  0.881063124879
0.38  -0.6  1.02932368241
0.38  -0.58  1.20253272809
0.38  -0.56  1.40488845912
0.38  -0.54  1.64129552274
0.38  -0.52  1.91748389382
0.38  -0.5  2.24014775653
0.38  -0.48  2.61710775629
0.38  -0.46  3.05750055462
0.38  -0.44  3.57200028125
0.38  -0.42  4.17307725094
0.38  -0.4  4.87530021588
0.38  -0.38  5.69568947943
0.38  -0.36  6.65412942989
0.38  -0.34  7.77385049336
0.38  -0.32  9.08199218694
0.38  -0.3  10.6102609195
0.38  -0.28  12.3956984836
0.38  -0.26  14.4815798652
0.38  -0.24  16.9184621318
0.38  -0.22  19.765409822
0.38  -0.2  17.2096996742
0.38  -0.18  17.2249003529
0.38  -0.16  17.0992465074
0.38  -0.14  16.843777673
0.38  -0.12  16.4816264079
0.38  -0.1  16.0472801349
0.38  -0.08  15.5849987749
0.38  -0.06  15.1458082287
0.38  -0.04  14.7824515986
0.38  -0.02  14.5421260216
0.38  6.17561557e-16  14.4580141669
0.38  0.02  14.5421260216
0.38  0.04  14.7824515986
0.38  0.06  15.1458082287
0.38  0.08  15.5849987749
0.38  0.1  16.0472801349
0.38  0.12  16.4816264079
0.38  0.14  16.843777673
0.38  0.16  17.0992465074
0.38  0.18  17.2249003529
0.38  0.2  23.0914265368
0.38  0.22  19.765409822
0.38  0.24  16.9184621318
0.38  0.26  14.4815798652
0.38  0.28  12.3956984836
0.38  0.3  10.6102609195
0.38  0.32  9.08199218694
0.38  0.34  7.77385049336
0.38  0.36  6.65412942988
0.38  0.38  5.69568947942
0.38  0.4  4.87530021588
0.38  0.42  4.17307725094
0.38  0.44  3.57200028125
0.38  0.46  3.05750055462
0.38  0.48  2.61710775629
0.38  0.5  2.24014775653
0.38  0.52  1.91748389382
0.38  0.54  1.64129552274
0.38  0.56  1.40488845912
0.38  0.58  1.20253272809
0.38  0.6  1.02932368241
0.38  0.62  0.881063124879
0.38  0.64  0.754157553435
0.38  0.66  0.645531062807
0.38  0.68  0.552550791477
0.38  0.7  0.472963107049
0.38  0.72  0.404838983275
0.38  0.74  0.346527244803
0.38  0.76  0.296614546404
0.38  0.78  0.253891116667
0.38  0.8  0.217321435862
0.38  0.82  0.18601913728
0.38  0.84  0.15922552369
0.38  0.86  0.136291178237
0.38  0.88  0.116660224031
0.38  0.9  0.0998568509498
0.38  0.92  0.085473783069
0.38  0.94  0.0731624072124
0.38  0.96  0.0626243233529
0.38  0.98  0.0536041120684
0.4  -1  0.0373591514427
0.4  -0.98  0.0436457482431
0.4  -0.96  0.0509902196956
0.4  -0.94  0.0595705792492
0.4  -0.92  0.0695947954974
0.4  -0.9  0.0813058328687
0.4  -0.88  0.094987540537
0.4  -0.86  0.110971532286
0.4  -0.84  0.129645224083
0.4  -0.82  0.151461224164
0.4  -0.8  0.176948303246
0.4  -0.78  0.20672421073
0.4  -0.76  0.241510647562
0.4  -0.74  0.282150758635
0.4  -0.72  0.329629568726
0.4  -0.7  0.385097857273
0.4  -0.68  0.449900050683
0.4  -0.66  0.525606808195
0.4  -0.64  0.614053091131
0.4  -0.62  0.717382638215
0.4  -0.6  0.838099924984
0.4  -0.58  0.979130866625
0.4  -0.56  1.14389373558
0.4  -0.54  1.33638201276
0.4  -0.52  1.56126118055
0.4  -0.5  1.82398180356
0.4  -0.48  2.13091163809
0.4  -0.46  2.48948997215
0.4  -0.44  2.90840793708
0.4  -0.42  3.39781916099
0.4  -0.4  3.96958586985
0.4  -0.38  4.63756640112
0.4  -0.36  5.41795109867
0.4  -0.34  6.32965473022
0.4  -0.32  7.39477493876
0.4  -0.3  8.63912783959
0.4  -0.28  10.0928737449
0.4  -0.26  11.7912481817
0.4  -0.24  13.7754159219
0.4  -0.22  16.0934687233
0.4  -0.2  14.0125484844
0.4  -0.18  14.02492524
0.4  -0.16  13.9226148781
0.4  -0.14  13.7146060519
0.4  -0.12  13.4197338428
0.4  -0.1  13.0660787341
0.4  -0.08  12.6896782103
0.4  -0.06  12.3320787787
0.4  -0.04  12.0362251326
0.4  -0.02  11.8405463082
0.4  6.17561557e-16  11.7720604274
0.4  0.02  11.8405463082
0.4  0.04  12.0362251326
0.4  0.06  12.3320787787
0.4  0.08  12.6896782103
0.4  0.1  13.0660787341
0.4  0.12  13.4197338428
0.4  0.14  13.7146060519
0.4  0.16  13.9226148781
0.4  0.18  14.02492524
0.4  0.2  18.8015909659
0.4  0.22  16.0934687233
0.4  0.24  13.7754159219
0.4  0.26  11.7912481817
0.4  0.28  10.0928737449
0.4  0.3  8.63912783959
0.4  0.32  7.39477493876
0.4  0.34  6.32965473022
0.4  0.36  5.41795109867
0.4  0.38  4.63756640112
0.4  0.4  3.96958586984
0.4  0.42  3.39781916099
0.4  0.44  2.90840793708
0.4  0.46  2.48948997215
0.4  0.48  2.13091163809
0.4  0.5  1.82398180356
0.4  0.52  1.56126118055
0.4  0.54  1.33638201276
0.4  0.56  1.14389373558
0.4  0.58  0.979130866625
0.4  0.6  0.838099924983
0.4  0.62  0.717382638215
0.4  0.64  0.614053091131
0.4  0.66  0.525606808195
0.4  0.68  0.449900050682
0.4  0.7  0.385097857273
0.4  0.72  0.329629568726
0.4  0.74  0.282150758635
0.4  0.76  0.241510647562
0.4  0.78  0.20672421073
0.4  0.8  0.176948303246
0.4  0.82  0.151461224164
0.4  0.84  0.129645224083
0.4  0.86  0.110971532286
0.4  0.88  0.094987540537
0.4  0.9  0.0813058328687
0.4  0.92  0.0695947954974
0.4  0.94  0.0595705792492
0.4  0.96  0.0509902196956
0.4  0.98  0.0436457482431
0.42  -1  0.0304187133324
0.42  -0.98  0.0355374105866
0.42  -0.96  0.0415174546471
0.42  -0.94  0.0485037883156
0.42  -0.92  0.0566657445877
0.42  -0.9  0.0662011509035
0.42  -0.88  0.0773411240396
0.42  -0.86  0.0903556718588
0.42  -0.84  0.105560237693
0.42  -0.82  0.123323345979
0.42  -0.8  0.14407553446
0.42  -0.78  0.168319789455
0.42  -0.76  0.196643737109
0.42  -0.74  0.22973388613
0.42  -0.72  0.268392267215
0.42  -0.7  0.313555872469
0.42  -0.68  0.366319365977
0.42  -0.66  0.427961616007
0.42  -0.64  0.499976691886
0.42  -0.62  0.584110076884
0.42  -0.6  0.682400974794
0.42  -0.58  0.797231735642
0.42  -0.56  0.931385598484
0.42  -0.54  1.08811415086
0.42  -0.52  1.27121613993
0.42  -0.5  1.4851295456
0.42  -0.48  1.73503914711
0.42  -0.46  2.02700219042
0.42  -0.44  2.36809520225
0.42  -0.42  2.76658550909
0.42  -0.4  3.23213161863
0.42  -0.38  3.7760173202
0.42  -0.36  4.41142517844
0.42  -0.34  5.15375604896
0.42  -0.32  6.02100236042
0.42  -0.3  7.03418421046
0.42  -0.28  8.21785884556
0.42  -0.26  9.60071587336
0.42  -0.24  11.2162726342
0.42  -0.22  13.1036865859
0.42  -0.2  11.4093516299
0.42  -0.18  11.4194290799
0.42  -0.16  11.3361255397
0.42  -0.14  11.1667597857
0.42  -0.12  10.9266677908
0.42  -0.1  10.6387133552
0.42  -0.08  10.3322390594
0.42  -0.06  10.0410730618
0.42  -0.04  9.80018195743
0.42  -0.02  9.64085558531
0.42  6.17561557e-16  9.58509274552
0.42  0.02  9.64085558531
0.42  0.04  9.80018195743
0.42  0.06  10.0410730618
0.42  0.08  10.3322390594
0.42  0.1  10.6387133552
0.42  0.12  10.9266677908
0.42  0.14  11.1667597857
0.42  0.16  11.3361255397
0.42  0.18  11.4194290799
0.42  0.2  15.3087043923
0.42  0.22  13.1036865859
0.42  0.24  11.2162726342
0.42  0.26  9.60071587336
0.42  0.28  8.21785884556
0.42  0.3  7.03418421046
0.42  0.32  6.02100236042
0.42  0.34  5.15375604896
0.42  0.36  4.41142517844
0.42  0.38  3.7760173202
0.42  0.4  3.23213161863
0.42  0.42  2.76658550909
0.42  0.44  2.36809520225
0.42  0.46  2.02700219042
0.42  0.48  1.73503914711
0.42  0.5  1.4851295456
0.42  0.52  1.27121613993
0.42  0.54  1.08811415086
0.42  0.56  0.931385598484
0.42  0.58  0.797231735642
0.42  0.6  0.682400974794
0.42  0.62  0.584110076884
0.42  0.64  0.499976691886
0.42  0.66  0.427961616007
0.42  0.68  0.366319365977
0.42  0.7  0.313555872469
0.42  0.72  0.268392267215
0.42  0.74  0.22973388613
0.42  0.76  0.196643737109
0.42  0.78  0.168319789455
0.42  0.8  0.14407553446
0.42  0.82  0.123323345978
0.42  0.84  0.105560237693
0.42  0.86  0.0903556718588
0.42  0.88  0.0773411240396
0.42  0.9  0.0662011509035
0.42  0.92  0.0566657445877
0.42  0.94  0.0485037883156
0.42  0.96  0.0415174546471
0.42  0.98  0.0355374105866
0.44  -1  0.0247676428684
0.44  -0.98  0.0289354084197
0.44  -0.96  0.0338045031119
0.44  -0.94  0.0394929428355
0.44  -0.92  0.0461386025596
0.44  -0.9  0.0539025581108
0.44  -0.88  0.0629729902879
0.44  -0.86  0.0735697459415
0.44  -0.84  0.0859496665657
0.44  -0.82  0.100412813558
0.44  -0.8  0.117309741033
0.44  -0.78  0.137049992462
0.44  -0.76  0.160112027086
0.44  -0.74  0.187054816693
0.44  -0.72  0.218531393829
0.44  -0.7  0.255304679844
0.44  -0.68  0.29826597638
0.44  -0.66  0.348456568521
0.44  -0.64  0.407092963197
0.44  -0.62  0.475596374574
0.44  -0.6  0.555627171079
0.44  -0.58  0.649125119
0.44  -0.56  0.758356398048
0.44  -0.54  0.885968528449
0.44  -0.52  1.03505454088
0.44  -0.5  1.20922794455
0.44  -0.48  1.41271031055
0.44  -0.46  1.65043359321
0.44  -0.44  1.92815966957
0.44  -0.42  2.25261999432
0.44  -0.4  2.63167875508
0.44  -0.38  3.07452348262
0.44  -0.36  3.59188773589
0.44  -0.34  4.19631125934
0.44  -0.32  4.90244391809
0.44  -0.3  5.72740077765
0.44  -0.28  6.69117693459
0.44  -0.26  7.81713215263
0.44  -0.24  9.13255705073
0.44  -0.22  10.6693345662
0.44  -0.2  9.2897665802
0.44  -0.18  9.29797188068
0.44  -0.16  9.23014414882
0.44  -0.14  9.09224250701
0.44  -0.12  8.89675387076
0.44  -0.1  8.66229449223
0.44  -0.08  8.41275580123
0.44  -0.06  8.17568149223
0.44  -0.04  7.97954220202
0.44  -0.02  7.84981486473
0.44  6.17561557e-16  7.80441142882
0.44  0.02  7.84981486473
0.44  0.04  7.97954220202
0.44  0.06  8.17568149223
0.44  0.08  8.41275580123
0.44  0.1  8.66229449223
0.44  0.12  8.89675387076
0.44  0.14  9.09224250701
0.44  0.16  9.23014414882
0.44  0.18  9.29797188068
0.44  0.2  12.4647127255
0.44  0.22  10.6693345662
0.44  0.24  9.13255705073
0.44  0.26  7.81713215263
0.44  0.28  6.69117693459
0.44  0.3  5.72740077765
0.44  0.32  4.90244391809
0.44  0.34  4.19631125934
0.44  0.36  3.59188773589
0.44  0.38  3.07452348262
0.44  0.4  2.63167875508
0.44  0.42  2.25261999432
0.44  0.44  1.92815966957
0.44  0.46  1.6504335932
0.44  0.48  1.41271031055
0.44  0.5  1.20922794455
0.44  0.52  1.03505454088
0.44  0.54  0.885968528449
0.44  0.56  0.758356398048
0.44  0.58  0.649125119
0.44  0.6  0.555627171079
0.44  0.62  0.475596374573
0.44  0.64  0.407092963197
0.44  0.66  0.348456568521
0.44  0.68  0.29826597638
0.44  0.7  0.255304679844
0.44  0.72  0.218531393829
0.44  0.74  0.187054816693
0.44  0.76  0.160112027086
0.44  0.78  0.137049992462
0.44  0.8  0.117309741033
0.44  0.82  0.100412813558
0.44  0.84  0.0859496665657
0.44  0.86  0.0735697459415
0.44  0.88  0.0629729902879
0.44  0.9  0.0539025581108
0.44  0.92  0.0461386025596
0.44  0.94  0.0394929428354
0.44  0.96  0.0338045031119
0.44  0.98  0.0289354084197
0.46  -1  0.0201664063352
0.46  -0.98  0.0235599005836
0.46  -0.96  0.0275244337678
0.46  -0.94  0.0321560972445
0.46  -0.92  0.0375671521065
0.46  -0.9  0.0438887501385
0.46  -0.88  0.0512741126412
0.46  -0.86  0.0599022441707
0.46  -0.84  0.0699822712057
0.46  -0.82  0.0817585109023
0.46  -0.8  0.0955163927921
0.46  -0.78  0.111589376951
0.46  -0.76  0.13036703632
0.46  -0.74  0.152304499077
0.46  -0.72  0.177933479919
0.46  -0.7  0.207875167628
0.46  -0.68  0.242855281288
0.46  -0.66  0.283721660083
0.46  -0.64  0.331464813009
0.46  -0.62  0.38724192658
0.46  -0.6  0.452404912426
0.46  -0.58  0.528533174583
0.46  -0.56  0.617471890693
0.46  -0.54  0.721376734955
0.46  -0.52  0.842766126812
0.46  -0.5  0.984582271767
0.46  -0.48  1.15026247382
0.46  -0.46  1.34382244797
0.46  -0.44  1.56995365212
0.46  -0.42  1.83413699744
0.46  -0.4  2.1427756933
0.46  -0.38  2.50335044668
0.46  -0.36  2.92460077761
0.46  -0.34  3.41673684551
0.46  -0.32  3.99168692044
0.46  -0.3  4.66338649748
0.46  -0.28  5.44811606178
0.46  -0.26  6.36489569087
0.46  -0.24  7.43594605847
0.46  -0.22  8.68722701359
0.46  -0.2  7.56394981191
0.46  -0.18  7.57063076352
0.46  -0.16  7.51540380435
0.46  -0.14  7.40312099416
0.46  -0.12  7.24394947778
0.46  -0.1  7.05304705232
0.46  -0.08  6.84986669051
0.46  -0.06  6.65683512621
0.46  -0.04  6.49713383183
0.46  -0.02  6.39150673561
0.46  6.17561557e-16  6.35453817374
0.46  0.02  6.39150673561
0.46  0.04  6.49713383183
0.46  0.06  6.65683512621
0.46  0.08  6.84986669051
0.46  0.1  7.05304705232
0.46  0.12  7.24394947778
0.46  0.14  7.40312099416
0.46  0.16  7.51540380435
0.46  0.18  7.57063076352
0.46  0.2  10.1490667888
0.46  0.22  8.68722701359
0.46  0.24  7.43594605847
0.46  0.26  6.36489569087
0.46  0.28  5.44811606178
0.46  0.3  4.66338649748
0.46  0.32  3.99168692044
0.46  0.34  3.41673684551
0.46  0.36  2.92460077761
0.46  0.38  2.50335044668
0.46  0.4  2.1427756933
0.46  0.42  1.83413699744
0.46  0.44  1.56995365212
0.46  0.46  1.34382244797
0.46  0.48  1.15026247382
0.46  0.5  0.984582271766
0.46  0.52  0.842766126812
0.46  0.54  0.721376734955
0.46  0.56  0.617471890693
0.46  0.58  0.528533174582
0.46  0.6  0.452404912426
0.46  0.62  0.38724192658
0.46  0.64  0.331464813009
0.46  0.66  0.283721660083
0.46  0.68  0.242855281288
0.46  0.7  0.207875167628
0.46  0.72  0.177933479919
0.46  0.74  0.152304499077
0.46  0.76  0.13036703632
0.46  0.78  0.111589376951
0.46  0.8  0.0955163927921
0.46  0.82  0.0817585109023
0.46  0.84  0.0699822712057
0.46  0.86  0.0599022441707
0.46  0.88  0.0512741126412
0.46  0.9  0.0438887501385
0.46  0.92  0.0375671521065
0.46  0.94  0.0321560972445
0.46  0.96  0.0275244337678
0.46  0.98  0.0235599005836
0.48  -1  0.0164199696611
0.48  -0.98  0.0191830337231
0.48  -0.96  0.0224110513244
0.48  -0.94  0.0261822623426
0.48  -0.92  0.0305880724404
0.48  -0.9  0.0357352685333
0.48  -0.88  0.0417486070635
0.48  -0.86  0.0487738378156
0.48  -0.84  0.0569812365632
0.48  -0.82  0.0665697321695
0.48  -0.8  0.077771728176
0.48  -0.78  0.0908587357402
0.48  -0.76  0.106147954455
0.48  -0.74  0.124009960552
0.48  -0.72  0.144877688836
0.48  -0.7  0.169256926049
0.48  -0.68  0.197738570002
0.48  -0.66  0.231012951606
0.48  -0.64  0.269886566941
0.48  -0.62  0.315301624904
0.48  -0.6  0.368358884231
0.48  -0.58  0.430344333408
0.48  -0.56  0.502760360138
0.48  -0.54  0.587362165838
0.48  -0.52  0.686200307763
0.48  -0.5  0.801670399901
0.48  -0.48  0.936571177259
0.48  -0.46  1.0941723309
0.48  -0.44  1.27829375789
0.48  -0.42  1.49339814699
0.48  -0.4  1.7446991442
0.48  -0.38  2.03828771981
0.48  -0.36  2.38127979974
0.48  -0.34  2.78198873963
0.48  -0.32  3.25012682185
0.48  -0.3  3.7970406593
0.48  -0.28  4.43598621182
0.48  -0.26  5.18245008076
0.48  -0.24  6.05452486935
0.48  -0.22  7.07334770666
0.48  -0.2  6.15874858245
0.48  -0.18  6.16418837281
0.48  -0.16  6.11922126369
0.48  -0.14  6.02779791805
0.48  -0.12  5.89819666801
0.48  -0.1  5.74275935398
0.48  -0.08  5.57732505095
0.48  -0.06  5.42015414123
0.48  -0.04  5.2901215333
0.48  -0.02  5.20411742892
0.48  6.17561557e-16  5.17401674295
0.48  0.02  5.20411742892
0.48  0.04  5.2901215333
0.48  0.06  5.42015414123
0.48  0.08  5.57732505095
0.48  0.1  5.74275935398
0.48  0.12  5.89819666801
0.48  0.14  6.02779791805
0.48  0.16  6.11922126369
0.48  0.18  6.16418837281
0.48  0.2  8.26361256397
0.48  0.22  7.07334770666
0.48  0.24  6.05452486935
0.48  0.26  5.18245008076
0.48  0.28  4.43598621182
0.48  0.3  3.7970406593
0.48  0.32  3.25012682185
0.48  0.34  2.78198873963
0.48  0.36  2.38127979974
0.48  0.38  2.0382877198
0.48  0.4  1.7446991442
0.48  0.42  1.49339814699
0.48  0.44  1.27829375789
0.48  0.46  1.0941723309
0.48  0.48  0.936571177259
0.48  0.5  0.801670399901
0.48  0.52  0.686200307763
0.48  0.54  0.587362165838
0.48  0.56  0.502760360138
0.48  0.58  0.430344333408
0.48  0.6  0.368358884231
0.48  0.62  0.315301624904
0.48  0.64  0.269886566941
0.48  0.66  0.231012951606
0.48  0.68  0.197738570002
0.48  0.7  0.169256926049
0.48  0.72  0.144877688836
0.48  0.74  0.124009960552
0.48  0.76  0.106147954455
0.48  0.78  0.0908587357401
0.48  0.8  0.077771728176
0.48  0.82  0.0665697321695
0.48  0.84  0.0569812365632
0.48  0.86  0.0487738378156
0.48  0.88  0.0417486070635
0.48  0.9  0.0357352685333
0.48  0.92  0.0305880724404
0.48  0.94  0.0261822623426
0.48  0.96  0.0224110513244
0.48  0.98  0.0191830337231
0.5  -1  0.0133695314471
0.5  -0.98  0.015619284195
0.5  -0.96  0.0182476132189
0.5  -0.94  0.0213182232957
0.5  -0.92  0.0249055390989
0.5  -0.9  0.0290965090853
0.5  -0.88  0.0339927129297
0.5  -0.86  0.0397128235878
0.5  -0.84  0.0463954836608
0.5  -0.82  0.0542026657802
0.5  -0.8  0.0633235984597
0.5  -0.78  0.0739793525681
0.5  -0.76  0.0864281995894
0.5  -0.74  0.100971871542
0.5  -0.72  0.117962874283
0.5  -0.7  0.137813031458
0.5  -0.68  0.161003466175
0.5  -0.66  0.188096262351
0.5  -0.64  0.219748088354
0.5  -0.62  0.25672611317
0.5  -0.6  0.29992660085
0.5  -0.58  0.350396633934
0.5  -0.56  0.40935949237
0.5  -0.54  0.478244303068
0.5  -0.52  0.558720678719
0.5  -0.5  0.652739185446
0.5  -0.48  0.762578620131
0.5  -0.46  0.890901243325
0.5  -0.44  1.04081730645
0.5  -0.42  1.21596043727
0.5  -0.4  1.42057571089
0.5  -0.38  1.65962254075
0.5  -0.36  1.93889488372
0.5  -0.34  2.26516167249
0.5  -0.32  2.64633087931
0.5  -0.3  3.09164118741
0.5  -0.28  3.61188591584
0.5  -0.26  4.21967462531
0.5  -0.24  4.92973874546
0.5  -0.22  5.75928863157
0.5  -0.2  5.01460018178
0.5  -0.18  5.01902938901
0.5  -0.16  4.98241609484
0.5  -0.14  4.90797702341
0.5  -0.12  4.80245259043
0.5  -0.1  4.67589181713
0.5  -0.08  4.54119125663
0.5  -0.06  4.41321894831
0.5  -0.04  4.30734329343
0.5  -0.02  4.23731669766
0.5  6.17561557e-16  4.21280800026
0.5  0.02  4.23731669766
0.5  0.04  4.30734329343
0.5  0.06  4.41321894831
0.5  0.08  4.54119125663
0.5  0.1  4.67589181713
0.5  0.12  4.80245259043
0.5  0.14  4.90797702341
0.5  0.16  4.98241609484
0.5  0.18  5.01902938901
0.5  0.2  6.72843070483
0.5  0.22  5.75928863157
0.5  0.24  4.92973874546
0.5  0.26  4.21967462531
0.5  0.28  3.61188591584
0.5  0.3  3.0916411874
0.5  0.32  2.64633087931
0.5  0.34  2.26516167249
0.5  0.36  1.93889488372
0.5  0.38  1.65962254075
0.5  0.4  1.42057571089
0.5  0.42  1.21596043727
0.5  0.44  1.04081730645
0.5  0.46  0.890901243325
0.5  0.48  0.762578620131
0.5  0.5  0.652739185446
0.5  0.52  0.558720678719
0.5  0.54  0.478244303068
0.5  0.56  0.40935949237
0.5  0.58  0.350396633934
0.5  0.6  0.29992660085
0.5  0.62  0.25672611317
0.5  0.64  0.219748088354
0.5  0.66  0.188096262351
0.5  0.68  0.161003466175
0.5  0.7  0.137813031458
0.5  0.72  0.117962874283
0.5  0.74  0.100971871542
0.5  0.76  0.0864281995894
0.5  0.78  0.0739793525681
0.5  0.8  0.0633235984597
0.5  0.82  0.0542026657802
0.5  0.84  0.0463954836608
0.5  0.86  0.0397128235878
0.5  0.88  0.0339927129297
0.5  0.9  0.0290965090852
0.5  0.92  0.0249055390989
0.5  0.94  0.0213182232957
0.5  0.96  0.0182476132189
0.5  0.98  0.015619284195
0.52  -1  0.0108857918013
0.52  -0.98  0.0127175942182
0.52  -0.96  0.0148576424804
0.52  -0.94  0.0173578065386
0.52  -0.92  0.0202786847394
0.52  -0.9  0.0236910725929
0.52  -0.88  0.0276776786964
0.52  -0.86  0.0323351294044
0.52  -0.84  0.037776310834
0.52  -0.82  0.0441331049702
0.52  -0.8  0.051559586188
0.52  -0.78  0.0602357556685
0.52  -0.76  0.0703719042221
0.52  -0.74  0.0822137092644
0.52  -0.72  0.096048189483
0.52  -0.7  0.112210661525
0.52  -0.68  0.131092867316
0.52  -0.66  0.153152469004
0.52  -0.64  0.178924141658
0.52  -0.62  0.209032532589
0.52  -0.6  0.244207401392
0.52  -0.58  0.285301307676
0.52  -0.56  0.333310275192
0.52  -0.54  0.3893979332
0.52  -0.52  0.454923720227
0.52  -0.5  0.531475833795
0.52  -0.48  0.62090972475
0.52  -0.46  0.725393069212
0.52  -0.44  0.847458308167
0.52  -0.42  0.99006402813
0.52  -0.4  1.15666667062
0.52  -0.38  1.35130430852
0.52  -0.36  1.57869451987
0.52  -0.34  1.84434873134
0.52  -0.32  2.15470580278
0.52  -0.3  2.51728809073
0.52  -0.28  2.94088377333
0.52  -0.26  3.43575985606
0.52  -0.24  4.01391102075
0.52  -0.22  4.6893503497
0.52  -0.2  4.0830072289
0.52  -0.18  4.08661359521
0.52  -0.16  4.05680217668
0.52  -0.14  3.99619210693
0.52  -0.12  3.91027159342
0.52  -0.1  3.80722278922
0.52  -0.08  3.69754637588
0.52  -0.06  3.59334826616
0.52  -0.04  3.50714177938
0.52  -0.02  3.4501244527
0.52  6.17561557e-16  3.43016888595
0.52  0.02  3.4501244527
0.52  0.04  3.50714177938
0.52  0.06  3.59334826616
0.52  0.08  3.69754637588
0.52  0.1  3.80722278922
0.52  0.12  3.91027159342
0.52  0.14  3.99619210693
0.52  0.16  4.05680217668
0.52  0.18  4.08661359521
0.52  0.2  5.47844897123
0.52  0.22  4.6893503497
0.52  0.24  4.01391102075
0.52  0.26  3.43575985606
0.52  0.28  2.94088377333
0.52  0.3  2.51728809072
0.52  0.32  2.15470580278
0.52  0.34  1.84434873134
0.52  0.36  1.57869451987
0.52  0.38  1.35130430852
0.52  0.4  1.15666667062
0.52  0.42  0.99006402813
0.52  0.44  0.847458308167
0.52  0.46  0.725393069212
0.52  0.48  0.62090972475
0.52  0.5  0.531475833795
0.52  0.52  0.454923720227
0.52  0.54  0.3893979332
0.52  0.56  0.333310275191
0.52  0.58  0.285301307676
0.52  0.6  0.244207401392
0.52  0.62  0.209032532589
0.52  0.64  0.178924141658
0.52  0.66  0.153152469004
0.52  0.68  0.131092867316
0.52  0.7  0.112210661525
0.52  0.72  0.0960481894829
0.52  0.74  0.0822137092643
0.52  0.76  0.0703719042221
0.52  0.78  0.0602357556685
0.52  0.8  0.051559586188
0.52  0.82  0.0441331049702
0.52  0.84  0.037776310834
0.52  0.86  0.0323351294044
0.52  0.88  0.0276776786964
0.52  0.9  0.0236910725929
0.52  0.92  0.0202786847394
0.52  0.94  0.0173578065386
0.52  0.96  0.0148576424804
0.52  0.98  0.0127175942182
0.54  -1  0.00886347166387
0.54  -0.98  0.0103549689397
0.54  -0.96  0.0120974473443
0.54  -0.94  0.0141331406305
0.54  -0.92  0.0165113894193
0.54  -0.9  0.0192898371058
0.54  -0.88  0.0225358270051
0.54  -0.86  0.0263280346029
0.54  -0.84  0.0307583744716
0.54  -0.82  0.0359342280731
0.54  -0.8  0.0419810464431
0.54  -0.78  0.0490453908422
0.54  -0.76  0.0572984850705
0.54  -0.74  0.0669403655471
0.54  -0.72  0.0782047297423
0.54  -0.7  0.091364600478
0.54  -0.68  0.106738943386
0.54  -0.66  0.124700397918
0.54  -0.64  0.145684309284
0.54  -0.62  0.170199280241
0.54  -0.6  0.198839498482
0.54  -0.58  0.232299138402
0.54  -0.56  0.271389186324
0.54  -0.54  0.317057096985
0.54  -0.52  0.370409757698
0.54  -0.5  0.432740316817
0.54  -0.48  0.505559526732
0.54  -0.46  0.59063236111
0.54  -0.44  0.690020793883
0.54  -0.42  0.80613377685
0.54  -0.4  0.941785627242
0.54  -0.38  1.10026424044
0.54  -0.36  1.28541078116
0.54  -0.34  1.5017127846
0.54  -0.32  1.75441292426
0.54  -0.3  2.04963608245
0.54  -0.28  2.39453780373
0.54  -0.26  2.79747772914
0.54  -0.24  3.26822221509
0.54  -0.22  3.81818104786
0.54  -0.2  3.32448199795
0.54  -0.18  3.32741838753
0.54  -0.16  3.3031452186
0.54  -0.14  3.25379505229
0.54  -0.12  3.1838365182
0.54  -0.1  3.09993172076
0.54  -0.08  3.01063056568
0.54  -0.06  2.92578997623
0.54  -0.04  2.85559859588
0.54  -0.02  2.80917372679
0.54  6.17561557e-16  2.79292542775
0.54  0.02  2.80917372679
0.54  0.04  2.85559859588
0.54  0.06  2.92578997623
0.54  0.08  3.01063056568
0.54  0.1  3.09993172076
0.54  0.12  3.1838365182
0.54  0.14  3.25379505229
0.54  0.16  3.3031452186
0.54  0.18  3.32741838753
0.54  0.2  4.46068399111
0.54  0.22  3.81818104786
0.54  0.24  3.26822221509
0.54  0.26  2.79747772914
0.54  0.28  2.39453780373
0.54  0.3  2.04963608245
0.54  0.32  1.75441292426
0.54  0.34  1.5017127846
0.54  0.36  1.28541078116
0.54  0.38  1.10026424044
0.54  0.4  0.941785627242
0.54  0.42  0.806133776849
0.54  0.44  0.690020793883
0.54  0.46  0.59063236111
0.54  0.48  0.505559526732
0.54  0.5  0.432740316817
0.54  0.52  0.370409757698
0.54  0.54  0.317057096984
0.54  0.56  0.271389186324
0.54  0.58  0.232299138402
0.54  0.6  0.198839498482
0.54  0.62  0.170199280241
0.54  0.64  0.145684309284
0.54  0.66  0.124700397918
0.54  0.68  0.106738943386
0.54  0.7  0.091364600478
0.54  0.72  0.0782047297423
0.54  0.74  0.0669403655471
0.54  0.76  0.0572984850705
0.54  0.78  0.0490453908422
0.54  0.8  0.0419810464431
0.54  0.82  0.035934228073
0.54  0.84  0.0307583744716
0.54  0.86  0.0263280346029
0.54  0.88  0.0225358270051
0.54  0.9  0.0192898371058
0.54  0.92  0.0165113894193
0.54  0.94  0.0141331406305
0.54  0.96  0.0120974473443
0.54  0.98  0.0103549689397
0.56  -1  0.00721685031007
0.56  -0.98  0.00843126301263
0.56  -0.96  0.00985003054434
0.56  -0.94  0.0115075406353
0.56  -0.92  0.0134439675975
0.56  -0.9  0.0157062460599
0.56  -0.88  0.0183492085582
0.56  -0.86  0.0214369145514
0.56  -0.84  0.0250442030799
0.56  -0.82  0.0292585066942
0.56  -0.8  0.0341819706238
0.56  -0.78  0.0399339285474
0.56  -0.76  0.0466537949722
0.56  -0.74  0.0545044443279
0.56  -0.72  0.0636761586761
0.56  -0.7  0.0743912397189
0.56  -0.68  0.0869093968917
0.56  -0.66  0.101534042135
0.56  -0.64  0.118619643916
0.56  -0.62  0.138580318747
0.56  -0.6  0.161899868437
0.56  -0.58  0.189143506357
0.56  -0.56  0.220971556941
0.56  -0.54  0.258155460462
0.56  -0.52  0.301596471007
0.56  -0.5  0.352347500848
0.56  -0.48  0.411638640661
0.56  -0.46  0.480906974159
0.56  -0.44  0.561831409761
0.56  -0.42  0.656373373554
0.56  -0.4  0.766824349841
0.56  -0.38  0.895861421565
0.56  -0.36  1.04661215677
0.56  -0.34  1.22273041379
0.56  -0.32  1.4284849026
0.56  -0.3  1.66886264865
0.56  -0.28  1.94968986721
0.56  -0.26  2.27777317767
0.56  -0.24  2.66106458065
0.56  -0.22  3.10885419666
0.56  -0.2  2.70687263948
0.56  -0.18  2.709263518
0.56  -0.16  2.68949972415
0.56  -0.14  2.64931764014
0.56  -0.12  2.59235573091
0.56  -0.1  2.52403844098
0.56  -0.08  2.45132730778
0.56  -0.06  2.38224807366
0.56  -0.04  2.32509657543
0.56  -0.02  2.28729633828
0.56  6.17561557e-16  2.27406658515
0.56  0.02  2.28729633828
0.56  0.04  2.32509657543
0.56  0.06  2.38224807366
0.56  0.08  2.45132730778
0.56  0.1  2.52403844098
0.56  0.12  2.59235573091
0.56  0.14  2.64931764014
0.56  0.16  2.68949972415
0.56  0.18  2.709263518
0.56  0.2  3.63199543759
0.56  0.22  3.10885419666
0.56  0.24  2.66106458065
0.56  0.26  2.27777317767
0.56  0.28  1.94968986721
0.56  0.3  1.66886264865
0.56  0.32  1.4284849026
0.56  0.34  1.22273041379
0.56  0.36  1.04661215677
0.56  0.38  0.895861421565
0.56  0.4  0.766824349841
0.56  0.42  0.656373373554
0.56  0.44  0.561831409761
0.56  0.46  0.480906974159
0.56  0.48  0.411638640661
0.56  0.5  0.352347500848
0.56  0.52  0.301596471007
0.56  0.54  0.258155460462
0.56  0.56  0.220971556941
0.56  0.58  0.189143506357
0.56  0.6  0.161899868437
0.56  0.62  0.138580318747
0.56  0.64  0.118619643916
0.56  0.66  0.101534042135
0.56  0.68  0.0869093968917
0.56  0.7  0.0743912397189
0.56  0.72  0.0636761586761
0.56  0.74  0.0545044443278
0.56  0.76  0.0466537949722
0.56  0.78  0.0399339285474
0.56  0.8  0.0341819706238
0.56  0.82  0.0292585066942
0.56  0.84  0.0250442030799
0.56  0.86  0.0214369145514
0.56  0.88  0.0183492085582
0.56  0.9  0.0157062460599
0.56  0.92  0.0134439675975
0.56  0.94  0.0115075406353
0.56  0.96  0.00985003054434
0.56  0.98  0.00843126301263
0.58  -1  0.00587613187846
0.58  -0.98  0.00686493570403
0.58  -0.96  0.00802013011198
0.58  -0.94  0.0093697144134
0.58  -0.92  0.0109463994926
0.58  -0.9  0.0127884006455
0.58  -0.88  0.014940363832
0.58  -0.86  0.0174544477936
0.58  -0.84  0.0203915882643
0.58  -0.82  0.023822974915
0.58  -0.8  0.0278317768309
0.58  -0.78  0.032515158343
0.58  -0.76  0.0379866340729
0.58  -0.74  0.0443788202709
0.58  -0.72  0.0518466491362
0.58  -0.7  0.0605711240236
0.58  -0.68  0.0707637065578
0.58  -0.66  0.082671441987
0.58  -0.64  0.0965829470029
0.58  -0.62  0.11283540516
0.58  -0.6  0.131822739446
0.58  -0.58  0.154005160085
0.58  -0.56  0.179920319002
0.58  -0.54  0.210196341291
0.58  -0.52  0.245567049554
0.58  -0.5  0.286889750109
0.58  -0.48  0.335166012162
0.58  -0.46  0.391565943593
0.58  -0.44  0.457456551733
0.58  -0.42  0.534434876546
0.58  -0.4  0.624366699278
0.58  -0.38  0.729431764796
0.58  -0.36  0.852176613693
0.58  -0.34  0.995576304698
0.58  -0.32  1.1631065234
0.58  -0.3  1.35882782504
0.58  -0.28  1.58748405324
0.58  -0.26  1.85461732004
0.58  -0.24  2.16670233429
0.58  -0.22  2.53130333395
0.58  -0.2  2.20400034979
0.58  -0.18  2.20594706018
0.58  -0.16  2.18985490723
0.58  -0.14  2.15713769478
0.58  -0.12  2.11075794789
0.58  -0.1  2.05513237884
0.58  -0.08  1.99592923768
0.58  -0.06  1.93968327547
0.58  -0.04  1.8931491607
0.58  -0.02  1.86237130485
0.58  6.17561557e-16  1.85159932389
0.58  0.02  1.86237130485
0.58  0.04  1.8931491607
0.58  0.06  1.93968327547
0.58  0.08  1.99592923768
0.58  0.1  2.05513237884
0.58  0.12  2.11075794789
0.58  0.14  2.15713769478
0.58  0.16  2.18985490723
0.58  0.18  2.20594706018
0.58  0.2  2.9572574262
0.58  0.22  2.53130333395
0.58  0.24  2.16670233429
0.58  0.26  1.85461732004
0.58  0.28  1.58748405324
0.58  0.3  1.35882782504
0.58  0.32  1.1631065234
0.58  0.34  0.995576304698
0.58  0.36  0.852176613693
0.58  0.38  0.729431764796
0.58  0.4  0.624366699278
0.58  0.42  0.534434876546
0.58  0.44  0.457456551733
0.58  0.46  0.391565943593
0.58  0.48  0.335166012162
0.58  0.5  0.286889750109
0.58  0.52  0.245567049554
0.58  0.54  0.210196341291
0.58  0.56  0.179920319002
0.58  0.58  0.154005160085
0.58  0.6  0.131822739446
0.58  0.62  0.11283540516
0.58  0.64  0.0965829470029
0.58  0.66  0.082671441987
0.58  0.68  0.0707637065578
0.58  0.7  0.0605711240236
0.58  0.72  0.0518466491362
0.58  0.74  0.0443788202709
0.58  0.76  0.0379866340729
0.58  0.78  0.032515158343
0.58  0.8  0.0278317768308
0.58  0.82  0.023822974915
0.58  0.84  0.0203915882643
0.58  0.86  0.0174544477936
0.58  0.88  0.0149403638319
0.58  0.9  0.0127884006455
0.58  0.92  0.0109463994926
0.58  0.94  0.0093697144134
0.58  0.96  0.00802013011198
0.58  0.98  0.00686493570403
0.6  -1  0.00478448691182
0.6  -0.98  0.00558959460165
0.6  -0.96  0.00653018147747
0.6  -0.94  0.00762904524705
0.6  -0.92  0.00891281989366
0.6  -0.9  0.0104126212238
0.6  -0.88  0.0121648010443
0.6  -0.86  0.0142118282484
0.6  -0.84  0.0166033181657
0.6  -0.82  0.0193972351266
0.6  -0.8  0.0226612973865
0.6  -0.78  0.0264746184643
0.6  -0.76  0.0309296246757
0.6  -0.74  0.0361342953392
0.6  -0.72  0.0422147799513
0.6  -0.7  0.0493184557663
0.6  -0.68  0.0576174998895
0.6  -0.66  0.0673130624617
0.6  -0.64  0.0786401420864
0.6  -0.62  0.0918732816664
0.6  -0.6  0.107333222705
0.6  -0.58  0.12539467936
0.6  -0.56  0.146495420668
0.6  -0.54  0.171146881081
0.6  -0.52  0.199946556488
0.6  -0.5  0.233592486166
0.6  -0.48  0.272900171685
0.6  -0.46  0.318822342824
0.6  -0.44  0.372472049601
0.6  -0.42  0.435149640094
0.6  -0.4  0.508374277954
0.6  -0.38  0.593920763509
0.6  -0.36  0.693862550927
0.6  -0.34  0.810622004078
0.6  -0.32  0.947029109177
0.6  -0.3  1.10639006728
0.6  -0.28  1.29256742914
0.6  -0.26  1.51007371477
0.6  -0.24  1.76418078672
0.6  -0.22  2.0610476282
0.6  -0.2  1.79454972171
0.6  -0.18  1.7961347798
0.6  -0.16  1.78303216454
0.6  -0.14  1.7563930288
0.6  -0.12  1.71862953122
0.6  -0.1  1.67333786443
0.6  -0.08  1.62513325298
0.6  -0.06  1.57933644726
0.6  -0.04  1.54144725967
0.6  -0.02  1.51638719438
0.6  6.17561557e-16  1.50761639023
0.6  0.02  1.51638719438
0.6  0.04  1.54144725967
0.6  0.06  1.57933644726
0.6  0.08  1.62513325298
0.6  0.1  1.67333786443
0.6  0.12  1.71862953122
0.6  0.14  1.7563930288
0.6  0.16  1.78303216454
0.6  0.18  1.7961347798
0.6  0.2  2.40786962294
0.6  0.22  2.0610476282
0.6  0.24  1.76418078672
0.6  0.26  1.51007371477
0.6  0.28  1.29256742914
0.6  0.3  1.10639006728
0.6  0.32  0.947029109177
0.6  0.34  0.810622004078
0.6  0.36  0.693862550927
0.6  0.38  0.593920763508
0.6  0.4  0.508374277954
0.6  0.42  0.435149640094
0.6  0.44  0.372472049601
0.6  0.46  0.318822342824
0.6  0.48  0.272900171685
0.6  0.5  0.233592486166
0.6  0.52  0.199946556488
0.6  0.54  0.171146881081
0.6  0.56  0.146495420668
0.6  0.58  0.12539467936
0.6  0.6  0.107333222705
0.6  0.62  0.0918732816663
0.6  0.64  0.0786401420864
0.6  0.66  0.0673130624617
0.6  0.68  0.0576174998895
0.6  0.7  0.0493184557663
0.6  0.72  0.0422147799513
0.6  0.74  0.0361342953392
0.6  0.76  0.0309296246757
0.6  0.78  0.0264746184642
0.6  0.8  0.0226612973865
0.6  0.82  0.0193972351266
0.6  0.84  0.0166033181657
0.6  0.86  0.0142118282484
0.6  0.88  0.0121648010443
0.6  0.9  0.0104126212238
0.6  0.92  0.00891281989366
0.6  0.94  0.00762904524705
0.6  0.96  0.00653018147746
0.6  0.98  0.00558959460164
0.62  -1  0.00389564350883
0.62  -0.98  0.00455118141783
0.62  -0.96  0.00531702971563
0.62  -0.94  0.00621175084038
0.62  -0.92  0.00725703081732
0.62  -0.9  0.00847820487924
0.62  -0.88  0.00990487153545
0.62  -0.86  0.011571609973
0.62  -0.84  0.0135188181783
0.62  -0.82  0.0157936920934
0.62  -0.8  0.0184513695392
0.62  -0.78  0.0215562666321
0.62  -0.76  0.0251836390859
0.62  -0.74  0.0294214062404
0.62  -0.72  0.0343722820283
0.62  -0.7  0.0401562645301
0.62  -0.68  0.0469135444566
0.62  -0.66  0.0548079030566
0.62  -0.64  0.0640306818053
0.62  -0.62  0.074805420091
0.62  -0.6  0.0873932733062
0.62  -0.58  0.102099342666
0.62  -0.56  0.119280070176
0.62  -0.54  0.139351877982
0.62  -0.52  0.162801261504
0.62  -0.5  0.190196580995
0.62  -0.48  0.222201837308
0.62  -0.46  0.259592765783
0.62  -0.44  0.303275638327
0.62  -0.42  0.3543092294
0.62  -0.4  0.413930478329
0.62  -0.38  0.483584469927
0.62  -0.36  0.564959460097
0.62  -0.34  0.660027795353
0.62  -0.32  0.771093718059
0.62  -0.3  0.900849216073
0.62  -0.28  1.05243927047
0.62  -0.26  1.22953808281
0.62  -0.24  1.43643812949
0.62  -0.22  1.67815420173
0.62  -0.2  1.46116524165
0.62  -0.18  1.4624558338
0.62  -0.16  1.45178737153
0.62  -0.14  1.43009715101
0.62  -0.12  1.39934920939
0.62  -0.1  1.36247165262
0.62  -0.08  1.32322230673
0.62  -0.06  1.28593345377
0.62  -0.04  1.25508317235
0.62  -0.02  1.23467866869
0.62  6.17561557e-16  1.22753727048
0.62  0.02  1.23467866869
0.62  0.04  1.25508317235
0.62  0.06  1.28593345377
0.62  0.08  1.32322230673
0.62  0.1  1.36247165262
0.62  0.12  1.39934920939
0.62  0.14  1.43009715101
0.62  0.16  1.45178737153
0.62  0.18  1.4624558338
0.62  0.2  1.9605449528
0.62  0.22  1.67815420173
0.62  0.24  1.43643812949
0.62  0.26  1.22953808281
0.62  0.28  1.05243927047
0.62  0.3  0.900849216073
0.62  0.32  0.771093718059
0.62  0.34  0.660027795353
0.62  0.36  0.564959460096
0.62  0.38  0.483584469926
0.62  0.4  0.413930478329
0.62  0.42  0.3543092294
0.62  0.44  0.303275638327
0.62  0.46  0.259592765783
0.62  0.48  0.222201837308
0.62  0.5  0.190196580995
0.62  0.52  0.162801261504
0.62  0.54  0.139351877982
0.62  0.56  0.119280070176
0.62  0.58  0.102099342666
0.62  0.6  0.0873932733062
0.62  0.62  0.074805420091
0.62  0.64  0.0640306818053
0.62  0.66  0.0548079030566
0.62  0.68  0.0469135444566
0.62  0.7  0.0401562645301
0.62  0.72  0.0343722820283
0.62  0.74  0.0294214062404
0.62  0.76  0.0251836390859
0.62  0.78  0.0215562666321
0.62  0.8  0.0184513695392
0.62  0.82  0.0157936920934
0.62  0.84  0.0135188181783
0.62  0.86  0.011571609973
0.62  0.88  0.00990487153545
0.62  0.9  0.00847820487924
0.62  0.92  0.00725703081732
0.62  0.94  0.00621175084038
0.62  0.96  0.00531702971563
0.62  0.98  0.00455118141783
0.64  -1  0.00317192598237
0.64  -0.98  0.00370568060372
0.64  -0.96  0.00432925257812
0.64  -0.94  0.00505775588601
0.64  -0.92  0.00590884780707
0.64  -0.9  0.00690315689291
0.64  -0.88  0.00806478295668
0.64  -0.86  0.00942188119832
0.64  -0.84  0.0110073446232
0.64  -0.82  0.0128596012944
0.64  -0.8  0.0150235457425
0.64  -0.78  0.0175516271082
0.64  -0.76  0.0205051203905
0.64  -0.74  0.0239556116159
0.64  -0.72  0.0279867329215
0.64  -0.7  0.03269618961
0.64  -0.68  0.0381981283065
0.64  -0.66  0.0446259036152
0.64  -0.64  0.0521353103349
0.64  -0.62  0.0609083595742
0.64  -0.6  0.0711576902906
0.64  -0.58  0.0831317231805
0.64  -0.56  0.0971206818368
0.64  -0.54  0.113463627116
0.64  -0.52  0.132556675208
0.64  -0.5  0.154862598605
0.64  -0.48  0.180922042659
0.64  -0.46  0.21136662961
0.64  -0.44  0.246934267688
0.64  -0.42  0.288487036347
0.64  -0.4  0.337032081126
0.64  -0.38  0.393746024592
0.64  -0.36  0.460003485022
0.64  -0.34  0.537410394052
0.64  -0.32  0.627842920844
0.64  -0.3  0.733492946206
0.64  -0.28  0.856921188838
0.64  -0.26  1.0011192714
0.64  -0.24  1.16958223068
0.64  -0.22  1.36639322947
0.64  -0.2  1.18971563594
0.64  -0.18  1.1907664669
0.64  -0.16  1.18207995013
0.64  -0.14  1.16441925456
0.64  -0.12  1.13938354616
0.64  -0.1  1.10935695871
0.64  -0.08  1.07739920392
0.64  -0.06  1.04703772929
0.64  -0.04  1.02191869337
0.64  -0.02  1.00530485919
