0.12  -0.58  9.51852435564
0.12  -0.56  10.8504947579
0.12  -0.54  12.3688538362
0.12  -0.52  14.0996838057
0.12  -0.5  16.0727166844
0.12  -0.48  18.3218450269
0.12  -0.46  20.8857041273
0.12  -0.44  23.8083356916
0.12  -0.42  27.1399443826
0.12  -0.4  30.9377602295
0.12  -0.38  35.2670217199
0.12  -0.36  40.2020964596
0.12  -0.34  45.8277586518
0.12  -0.32  52.2406453395
0.12  -0.3  59.5509164264
0.12  -0.28  67.8841469928
0.12  -0.26  77.383484411
0.12  -0.24  88.2121073161
0.12  -0.22  100.556028672
0.12  -0.2  87.0604045536
0.12  -0.18  87.4641078107
0.12  -0.16  86.4572975763
0.12  -0.14  84.1091741685
0.12  -0.12  80.5887101447
0.12  -0.1  76.1719666008
0.12  -0.08  71.2526348983
0.12  -0.06  66.3500640718
0.12  -0.04  62.0967194019
0.12  -0.02  59.1679078702
0.12  6.17561557e-16  58.1182451266
0.12  0.02  59.1679078702
0.12  0.04  62.0967194019
0.12  0.06  66.3500640718
0.12  0.08  71.2526348983
0.12  0.1  76.1719666008
0.12  0.12  80.5887101447
0.12  0.14  84.1091741685
0.12  0.16  86.4572975763
0.12  0.18  87.4641078107
0.12  0.2  114.627291081
0.12  0.22  100.556028672
0.12  0.24  88.2121073161
0.12  0.26  77.383484411
0.12  0.28  67.8841469928
0.12  0.3  59.5509164264
0.12  0.32  52.2406453395
0.12  0.34  45.8277586518
0.12  0.36  40.2020964596
0.12  0.38  35.2670217199
0.12  0.4  30.9377602295
0.12  0.42  27.1399443826
0.12  0.44  23.8083356916
0.12  0.46  20.8857041273
0.12  0.48  18.3218450269
0.12  0.5  16.0727166844
0.12  0.52  14.0996838057
0.12  0.54  12.3688538362
0.12  0.56  10.8504947579
0.12  0.58  9.51852435564
0.12  0.6  8.35006217969
0.12  0.62  7.32503650772
0.12  0.64  6.42583955481
0.12  0.66  5.63702500878
0.12  0.68  4.94504269497
0.12  0.7  4.33800581282
0.12  0.72  3.80548674558
0.12  0.74  3.33833793583
0.12  0.76  2.92853474967
0.12  0.78  2.56903763035
0.12  0.8  2.25367117359
0.12  0.82  1.97701804702
0.12  0.84  1.73432593185
0.12  0.86  1.52142588806
0.12  0.88  1.33466074072
0.12  0.9  1.17082225747
0.12  0.92  1.02709603778
0.12  0.94  0.901013167542
0.12  0.96  0.790407808248
0.12  0.98  0.693379992485
0.14  -1  0.617021673111
0.14  -0.98  0.703364321975
0.14  -0.96  0.801789290371
0.14  -0.94  0.913987312221
0.14  -0.92  1.04188571353
0.14  -0.9  1.18768151981
0.14  -0.88  1.35387919631
0.14  -0.86  1.54333366955
0.14  -0.84  1.75929936883
0.14  -0.82  2.00548613061
0.14  -0.8  2.28612292559
0.14  -0.78  2.6060305036
0.14  -0.76  2.97070420391
0.14  -0.74  3.38640835359
0.14  -0.72  3.86028387551
0.14  -0.7  4.40047095435
0.14  -0.68  5.01624886784
0.14  -0.66  5.71819538526
0.14  -0.64  6.51836847123
0.14  -0.62  7.43051341621
0.14  -0.6  8.47029895169
0.14  -0.58  9.65558640597
0.14  -0.56  11.0067365243
0.14  -0.54  12.5469592235
0.14  -0.52  14.3027122898
0.14  -0.5  16.3041558677
0.14  -0.48  18.5856705477
0.14  -0.46  21.186447953
0.14  -0.44  24.1511639687
0.14  -0.42  27.5307461796
0.14  -0.4  31.3832486992
0.14  -0.38  35.7748494172
0.14  -0.36  40.7809867962
0.14  -0.34  46.4876557459
0.14  -0.32  52.9928848351
0.14  -0.3  60.4084202158
0.14  -0.28  68.8616451873
0.14  -0.26  78.4977683734
0.14  -0.24  89.482318101
0.14  -0.22  102.003985828
0.14  -0.2  88.3140313875
0.14  -0.18  88.7235477721
0.14  -0.16  87.7022399675
0.14  -0.14  85.3203047421
0.14  -0.12  81.7491477749
0.14  -0.1  77.268805305
0.14  -0.08  72.2786376552
0.14  -0.06  67.3054722298
0.14  -0.04  62.990881497
0.14  -0.02  60.0198965255
0.14  6.17561557e-16  58.9551191568
0.14  0.02  60.0198965255
0.14  0.04  62.990881497
0.14  0.06  67.3054722298
0.14  0.08  72.2786376552
0.14  0.1  77.268805305
0.14  0.12  81.7491477749
0.14  0.14  85.3203047421
0.14  0.16  87.7022399675
0.14  0.18  88.7235477721
0.14  0.2  116.277867468
0.14  0.22  102.003985828
0.14  0.24  89.482318101
0.14  0.26  78.4977683734
0.14  0.28  68.8616451873
0.14  0.3  60.4084202158
0.14  0.32  52.9928848351
0.14  0.34  46.4876557459
0.14  0.36  40.7809867962
0.14  0.38  35.7748494172
0.14  0.4  31.3832486993
0.14  0.42  27.5307461796
0.14  0.44  24.1511639687
0.14  0.46  21.186447953
0.14  0.48  18.5856705477
0.14  0.5  16.3041558677
0.14  0.52  14.3027122898
0.14  0.54  12.5469592235
0.14  0.56  11.0067365243
0.14  0.58  9.65558640597
0.14  0.6  8.47029895169
0.14  0.62  7.43051341621
0.14  0.64  6.51836847123
0.14  0.66  5.71819538526
0.14  0.68  5.01624886784
0.14  0.7  4.40047095435
0.14  0.72  3.86028387551
0.14  0.74  3.38640835359
0.14  0.76  2.97070420391
0.14  0.78  2.6060305036
0.14  0.8  2.28612292559
0.14  0.82  2.00548613061
0.14  0.84  1.75929936883
0.14  0.86  1.54333366955
0.14  0.88  1.35387919631
0.14  0.9  1.18768151981
0.14  0.92  1.04188571353
0.14  0.94  0.913987312221
0.14  0.96  0.801789290371
0.14  0.98  0.703364321975
0.16  -1  0.615602815967
0.16  -0.98  0.701746917698
0.16  -0.96  0.799945555358
0.16  -0.94  0.911885574982
0.16  -0.92  1.03948987064
0.16  -0.9  1.18495041572
0.16  -0.88  1.35076591642
0.16  -0.86  1.53978473424
0.16  -0.84  1.75525381487
0.16  -0.82  2.00087446388
0.16  -0.8  2.28086592736
0.16  -0.78  2.6000378697
0.16  -0.76  2.96387299349
0.16  -0.74  3.37862122083
0.16  -0.72  3.85140705385
0.16  -0.7  4.39035195866
0.16  -0.68  5.00471387506
0.16  -0.66  5.70504624848
0.16  -0.64  6.50337931594
0.16  -0.62  7.41342676026
0.16  -0.6  8.45082128225
0.16  -0.58  9.63338313767
0.16  -0.56  10.9814262517
0.16  -0.54  12.5181071694
0.16  -0.52  14.2698228365
0.16  -0.5  16.2666640436
0.16  -0.48  18.5429323222
0.16  -0.46  21.1377291732
0.16  -0.44  24.0956277484
0.16  -0.42  27.4674385235
0.16  -0.4  31.3110821149
0.16  -0.38  35.6925842345
0.16  -0.36  40.6872098723
0.16  -0.34  46.3807561906
0.16  -0.32  52.8710263389
0.16  -0.3  60.269509506
0.16  -0.28  68.7032960701
0.16  -0.26  78.3172607441
0.16  -0.24  89.2765512181
0.16  -0.22  101.76942505
0.16  -0.2  88.1109510098
0.16  -0.18  88.519525701
0.16  -0.16  87.5005664199
0.16  -0.14  85.1241085156
0.16  -0.12  81.5611635153
0.16  -0.1  77.0911237077
0.16  -0.08  72.1124310763
0.16  -0.06  67.1507015721
0.16  -0.04  62.8460323513
0.16  -0.02  59.8818792358
0.16  6.17561557e-16  58.81955035
0.16  0.02  59.8818792358
0.16  0.04  62.8460323513
0.16  0.06  67.1507015721
0.16  0.08  72.1124310763
0.16  0.1  77.0911237077
0.16  0.12  81.5611635153
0.16  0.14  85.1241085156
0.16  0.16  87.5005664199
0.16  0.18  88.519525701
0.16  0.2  116.010483533
0.16  0.22  101.76942505
0.16  0.24  89.2765512181
0.16  0.26  78.3172607441
0.16  0.28  68.7032960701
0.16  0.3  60.269509506
0.16  0.32  52.8710263389
0.16  0.34  46.3807561906
0.16  0.36  40.6872098723
0.16  0.38  35.6925842345
0.16  0.4  31.3110821149
0.16  0.42  27.4674385235
0.16  0.44  24.0956277484
0.16  0.46  21.1377291732
0.16  0.48  18.5429323222
0.16  0.5  16.2666640436
0.16  0.52  14.2698228365
0.16  0.54  12.5181071694
0.16  0.56  10.9814262517
0.16  0.58  9.63338313767
0.16  0.6  8.45082128226
0.16  0.62  7.41342676026
0.16  0.64  6.50337931594
0.16  0.66  5.70504624848
0.16  0.68  5.00471387506
0.16  0.7  4.39035195866
0.16  0.72  3.85140705385
0.16  0.74  3.37862122083
0.16  0.76  2.96387299349
0.16  0.78  2.6000378697
0.16  0.8  2.28086592736
0.16  0.82  2.00087446388
0.16  0.84  1.75525381487
0.16  0.86  1.53978473424
0.16  0.88  1.35076591642
0.16  0.9  1.18495041572
0.16  0.92  1.03948987064
0.16  0.94  0.911885574982
0.16  0.96  0.799945555358
0.16  0.98  0.701746917698
0.18  -1  0.604029818566
0.18  -0.98  0.688554458137
0.18  -0.96  0.784907014933
0.18  -0.94  0.894742623202
0.18  -0.92  1.01994802766
0.18  -0.9  1.16267399377
0.18  -0.88  1.32537225343
0.18  -0.86  1.5108376205
0.18  -0.84  1.72225599986
0.18  -0.82  1.96325911455
0.18  -0.8  2.23798689113
0.18  -0.78  2.55115857492
0.18  -0.76  2.90815379669
0.18  -0.74  3.31510498342
0.18  -0.72  3.77900270047
0.18  -0.7  4.30781573483
0.18  -0.68  4.91062798207
0.18  -0.66  5.59779448858
0.18  -0.64  6.38111932951
0.18  -0.62  7.27405837791
0.18  -0.6  8.29195044833
0.18  -0.58  9.45228078543
0.18  -0.56  10.7749814236
0.18  -0.54  12.2827735777
0.18  -0.52  14.0015579451
0.18  -0.5  15.9608596258
0.18  -0.48  18.1943353015
0.18  -0.46  20.740351386
0.18  -0.44  23.6426430802
0.18  -0.42  26.9510656506
0.18  -0.4  30.7224508375
0.18  -0.38  35.0215831054
0.18  -0.36  39.9223125036
0.18  -0.34  45.5088232544
0.18  -0.32  51.8770798614
0.18  -0.3  59.1364755776
0.18  -0.28  67.4117115512
0.18  -0.26  76.8449389295
0.18  -0.24  87.5982007161
0.18  -0.22  99.8562153291
0.18  -0.2  86.4545131564
0.18  -0.18  86.8554068661
0.18  -0.16  85.855603464
0.18  -0.14  83.5238216731
0.18  -0.12  80.0278580967
0.18  -0.1  75.641852601
0.18  -0.08  70.7567566775
0.18  -0.06  65.8883049836
0.18  -0.04  61.6645611978
0.18  -0.02  58.7561325453
0.18  6.17561557e-16  57.7137748634
0.18  0.02  58.7561325453
0.18  0.04  61.6645611978
0.18  0.06  65.8883049836
0.18  0.08  70.7567566775
0.18  0.1  75.641852601
0.18  0.12  80.0278580967
0.18  0.14  83.5238216731
0.18  0.16  85.855603464
0.18  0.18  86.8554068661
0.18  0.2  113.829549675
0.18  0.22  99.8562153291
0.18  0.24  87.5982007161
0.18  0.26  76.8449389295
0.18  0.28  67.4117115512
0.18  0.3  59.1364755776
0.18  0.32  51.8770798614
0.18  0.34  45.5088232544
0.18  0.36  39.9223125036
0.18  0.38  35.0215831054
0.18  0.4  30.7224508375
0.18  0.42  26.9510656506
0.18  0.44  23.6426430802
0.18  0.46  20.740351386
0.18  0.48  18.1943353015
0.18  0.5  15.9608596258
0.18  0.52  14.0015579451
0.18  0.54  12.2827735777
0.18  0.56  10.7749814236
0.18  0.58  9.45228078543
0.18  0.6  8.29195044833
0.18  0.62  7.27405837791
0.18  0.64  6.38111932951
0.18  0.66  5.59779448858
0.18  0.68  4.91062798207
0.18  0.7  4.30781573483
0.18  0.72  3.77900270047
0.18  0.74  3.31510498342
0.18  0.76  2.90815379669
0.18  0.78  2.55115857492
0.18  0.8  2.23798689113
0.18  0.82  1.96325911455
0.18  0.84  1.72225599986
0.18  0.86  1.5108376205
0.18  0.88  1.32537225343
0.18  0.9  1.16267399377
0.18  0.92  1.01994802766
0.18  0.94  0.894742623202
0.18  0.96  0.784907014933
0.18  0.98  0.688554458137
0.2  -1  0.582493573209
0.2  -0.98  0.664004548024
0.2  -0.96  0.756921724247
0.2  -0.94  0.862841223516
0.2  -0.92  0.983582520028
0.2  -0.9  1.12121969528
0.2  -0.88  1.27811706642
0.2  -0.86  1.45696980026
0.2  -0.84  1.66085021054
0.2  -0.82  1.89326053386
0.2  -0.8  2.15819309071
0.2  -0.78  2.46019886511
0.2  -0.76  2.80446568101
0.2  -0.74  3.19690731815
0.2  -0.72  3.64426509836
0.2  -0.7  4.15422368728
0.2  -0.68  4.73554310078
0.2  -0.66  5.39820918359
0.2  -0.64  6.1536051451
0.2  -0.62  7.01470709897
0.2  -0.6  7.99630696543
0.2  -0.58  9.1152665654
0.2  -0.56  10.3908072711
0.2  -0.54  11.8448401888
0.2  -0.52  13.5023425454
0.2  -0.5  15.3917867449
0.2  -0.48  17.5456294643
0.2  -0.46  20.0008691908
0.2  -0.44  22.7996817783
0.2  -0.42  25.99014494
0.2  -0.4  29.6270641217
0.2  -0.38  33.7729139448
0.2  -0.36  38.4989113885
0.2  -0.34  43.8862391479
0.2  -0.32  50.0274401815
0.2  -0.3  57.0280074053
0.2  -0.28  65.0081958385
0.2  -0.26  74.1050883322
0.2  -0.24  84.4749503641
0.2  -0.22  96.2959143512
0.2  -0.2  83.3720401554
0.2  -0.18  83.7586402905
0.2  -0.16  82.794484154
0.2  -0.14  80.5458403526
0.2  -0.12  77.1745228236
0.2  -0.1  72.9448971747
0.2  -0.08  68.2339758054
0.2  -0.06  63.5391052278
0.2  -0.04  59.4659559652
0.2  -0.02  56.6612252281
0.2  6.17561557e-16  55.6560320539
0.2  0.02  56.6612252281
0.2  0.04  59.4659559652
0.2  0.06  63.5391052278
0.2  0.08  68.2339758054
0.2  0.1  72.9448971747
0.2  0.12  77.1745228236
0.2  0.14  80.5458403526
0.2  0.16  82.794484154
0.2  0.18  83.7586402905
0.2  0.2  109.771039589
0.2  0.22  96.2959143512
0.2  0.24  84.4749503641
0.2  0.26  74.1050883322
0.2  0.28  65.0081958385
0.2  0.3  57.0280074053
0.2  0.32  50.0274401815
0.2  0.34  43.8862391479
0.2  0.36  38.4989113885
0.2  0.38  33.7729139448
0.2  0.4  29.6270641217
0.2  0.42  25.99014494
0.2  0.44  22.7996817783
0.2  0.46  20.0008691908
0.2  0.48  17.5456294643
0.2  0.5  15.3917867449
0.2  0.52  13.5023425454
0.2  0.54  11.8448401888
0.2  0.56  10.3908072711
0.2  0.58  9.11526656541
0.2  0.6  7.99630696543
0.2  0.62  7.01470709897
0.2  0.64  6.1536051451
0.2  0.66  5.39820918359
0.2  0.68  4.73554310078
0.2  0.7  4.15422368728
0.2  0.72  3.64426509836
0.2  0.74  3.19690731815
0.2  0.76  2.80446568101
0.2  0.78  2.46019886511
0.2  0.8  2.15819309071
0.2  0.82  1.89326053386
0.2  0.84  1.66085021054
0.2  0.86  1.45696980026
0.2  0.88  1.27811706642
0.2  0.9  1.12121969528
0.2  0.92  0.983582520028
0.2  0.94  0.862841223516
0.2  0.96  0.756921724247
0.2  0.98  0.664004548024
0.22  -1  0.551349312282
0.22  -0.98  0.628502129024
0.22  -0.96  0.716451290296
0.22  -0.94  0.816707577687
0.22  -0.92  0.930993183327
0.22  -0.9  1.06127129352
0.22  -0.88  1.20977981217
0.22  -0.86  1.37906980323
0.22  -0.84  1.57204931265
0.22  -0.82  1.79203332247
0.22  -0.8  2.04280069525
0.22  -0.78  2.32865908697
0.22  -0.76  2.65451894349
0.22  -0.74  3.0259778517
0.22  -0.72  3.4494166943
0.22  -0.7  3.9321092599
0.22  -0.68  4.48234719142
0.22  -0.66  5.10958241913
0.22  -0.64  5.82458952485
0.22  -0.62  6.63965082664
0.22  -0.6  7.5687673632
0.22  -0.58  8.62789940224
0.22  -0.56  9.83524060432
0.22  -0.54  11.2115305517
0.22  -0.52  12.7804110105
0.22  -0.5  14.5688320471
0.22  -0.48  16.6075149729
0.22  -0.46  18.9314800721
0.22  -0.44  21.5806481769
0.22  -0.42  24.6005264227
0.22  -0.4  28.0429899654
0.22  -0.38  31.9671730876
0.22  -0.36  36.4404850009
0.22  -0.34  41.5397677943
0.22  -0.32  47.35261642
0.22  -0.3  53.9788833901
0.22  -0.28  61.5323940327
0.22  -0.26  70.1429017722
0.22  -0.24  79.9583170192
0.22  -0.22  91.1472479612
0.22  -0.2  78.9143762565
0.22  -0.18  79.280305991
0.22  -0.16  78.3677005182
0.22  -0.14  76.2392852524
0.22  -0.12  73.0482224037
0.22  -0.1  69.0447427088
0.22  -0.08  64.5857007955
0.22  -0.06  60.141851484
0.22  -0.04  56.2864818318
0.22  -0.02  53.631712004
0.22  6.17561557e-16  52.6802636262
0.22  0.02  53.631712004
0.22  0.04  56.2864818318
0.22  0.06  60.141851484
0.22  0.08  64.5857007955
0.22  0.1  69.0447427088
0.22  0.12  73.0482224037
0.22  0.14  76.2392852524
0.22  0.16  78.3677005182
0.22  0.18  79.280305991
0.22  0.2  103.901896896
0.22  0.22  91.1472479612
0.22  0.24  79.9583170192
0.22  0.26  70.1429017722
0.22  0.28  61.5323940327
0.22  0.3  53.9788833901
0.22  0.32  47.35261642
0.22  0.34  41.5397677943
0.22  0.36  36.4404850009
0.22  0.38  31.9671730876
0.22  0.4  28.0429899654
0.22  0.42  24.6005264227
0.22  0.44  21.5806481769
0.22  0.46  18.9314800721
0.22  0.48  16.6075149729
0.22  0.5  14.5688320471
0.22  0.52  12.7804110105
0.22  0.54  11.2115305517
0.22  0.56  9.83524060432
0.22  0.58  8.62789940224
0.22  0.6  7.5687673632
0.22  0.62  6.63965082664
0.22  0.64  5.82458952485
0.22  0.66  5.10958241913
0.22  0.68  4.48234719142
0.22  0.7  3.9321092599
0.22  0.72  3.4494166943
0.22  0.74  3.0259778517
0.22  0.76  2.65451894349
0.22  0.78  2.32865908697
0.22  0.8  2.04280069525
0.22  0.82  1.79203332247
0.22  0.84  1.57204931265
0.22  0.86  1.37906980323
0.22  0.88  1.20977981217
0.22  0.9  1.06127129352
0.22  0.92  0.930993183327
0.22  0.94  0.816707577687
0.22  0.96  0.716451290296
0.22  0.98  0.628502129024
0.24  -1  0.511110748823
0.24  -0.98  0.58263280038
0.24  -0.96  0.664163257886
0.24  -0.94  0.757102643102
0.24  -0.92  0.863047459169
0.24  -0.9  0.983817615174
0.24  -0.88  1.12148768836
0.24  -0.86  1.27842256099
0.24  -0.84  1.45731804407
0.24  -0.82  1.6612471857
0.24  -0.8  1.89371305956
0.24  -0.78  2.15870894038
0.24  -0.76  2.46078689997
0.24  -0.74  2.80513600227
0.24  -0.72  3.19767144051
0.24  -0.7  3.64513614783
0.24  -0.68  4.15521662666
0.24  -0.66  4.73667498669
0.24  -0.64  5.39949945945
0.24  -0.62  6.15507597513
0.24  -0.6  7.01638374892
0.24  -0.58  7.99821823663
0.24  -0.56  9.11744528949
0.24  -0.54  10.393290874
0.24  -0.52  11.8476713335
0.24  -0.5  13.5055698651
0.24  -0.48  15.3954656781
0.24  -0.46  17.5498232073
0.24  -0.44  20.0056497833
0.24  -0.42  22.8051313409
0.24  -0.4  25.9963570846
0.24  -0.38  29.63414556
0.24  -0.36  33.780986321
0.24  -0.34  38.508113369
0.24  -0.32  43.8967288034
0.24  -0.3  50.0393977022
0.24  -0.28  57.0416381963
0.24  -0.26  65.023734048
0.24  -0.24  74.122800874
0.24  -0.22  84.4951415025
0.24  -0.2  73.1550489732
0.24  -0.18  73.4942724319
0.24  -0.16  72.6482707118
0.24  -0.14  70.6751914024
0.24  -0.12  67.7170186327
0.24  -0.1  64.0057208054
0.24  -0.08  59.8721085916
0.24  -0.06  55.7525801935
0.24  -0.04  52.1785830449
0.24  -0.02  49.7175635707
0.24  6.17561557e-16  48.8355537776
0.24  0.02  49.7175635707
0.24  0.04  52.1785830449
0.24  0.06  55.7525801935
0.24  0.08  59.8721085916
0.24  0.1  64.0057208054
0.24  0.12  67.7170186327
0.24  0.14  70.6751914024
0.24  0.16  72.6482707118
0.24  0.18  73.4942724319
0.24  0.2  96.3189309274
0.24  0.22  84.4951415025
0.24  0.24  74.122800874
0.24  0.26  65.023734048
0.24  0.28  57.0416381963
0.24  0.3  50.0393977022
0.24  0.32  43.8967288034
0.24  0.34  38.508113369
0.24  0.36  33.780986321
0.24  0.38  29.63414556
0.24  0.4  25.9963570847
0.24  0.42  22.8051313409
0.24  0.44  20.0056497833
0.24  0.46  17.5498232073
0.24  0.48  15.3954656781
0.24  0.5  13.5055698651
0.24  0.52  11.8476713335
0.24  0.54  10.393290874
0.24  0.56  9.11744528949
0.24  0.58  7.99821823664
0.24  0.6  7.01638374892
0.24  0.62  6.15507597513
0.24  0.64  5.39949945945
0.24  0.66  4.73667498669
0.24  0.68  4.15521662666
0.24  0.7  3.64513614783
0.24  0.72  3.19767144051
0.24  0.74  2.80513600227
0.24  0.76  2.46078689997
0.24  0.78  2.15870894038
0.24  0.8  1.89371305956
0.24  0.82  1.6612471857
0.24  0.84  1.45731804407
0.24  0.86  1.27842256099
0.24  0.88  1.12148768836
0.24  0.9  0.983817615174
0.24  0.92  0.863047459169
0.24  0.94  0.757102643102
0.24  0.96  0.664163257886
0.24  0.98  0.58263280038
0.26  -1  0.462441603021
0.26  -0.98  0.527153159664
0.26  -0.96  0.60092009873
0.26  -0.94  0.685009581062
0.26  -0.92  0.780866087087
0.26  -0.9  0.890136229945
0.26  -0.88  1.01469704084
0.26  -0.86  1.15668821249
0.26  -0.84  1.31854885456
0.26  -0.82  1.50305939239
0.26  -0.8  1.71338932891
0.26  -0.78  1.95315169001
0.26  -0.76  2.2264650887
0.26  -0.74  2.53802447428
0.26  -0.72  2.89318178162
0.26  -0.7  3.29803786618
0.26  -0.68  3.75954730391
0.26  -0.66  4.28563785614
0.26  -0.64  4.88534665195
0.26  -0.62  5.56897542697
0.26  -0.6  6.34826748554
0.26  -0.58  7.236609426
0.26  -0.56  8.24926109427
0.26  -0.54  9.40361771591
0.26  -0.52  10.7195087095
0.26  -0.5  12.2195383143
0.26  -0.48  13.9294738837
0.26  -0.46  15.878688514
0.26  -0.44  18.1006656122
0.26  -0.42  20.6335740712
0.26  -0.4  23.5209239301
0.26  -0.38  26.8123137862
0.26  -0.36  30.5642827937
0.26  -0.34  34.8412818879
0.26  -0.32  39.7167809168
0.26  -0.3  45.2745306979
0.26  -0.28  51.610001682
0.26  -0.26  58.8320239338
0.26  -0.24  67.0646566044
0.26  -0.22  76.4493190055
0.26  -0.2  66.1890562744
0.26  -0.18  66.4959780919
0.26  -0.16  65.7305346093
0.26  -0.14  63.9453364681
0.26  -0.12  61.2688477408
0.26  -0.1  57.9109482631
0.26  -0.08  54.1709481499
0.26  -0.06  50.443690759
0.26  -0.04  47.2100178723
0.26  -0.02  44.9833423556
0.26  6.17561557e-16  44.1853195718
0.26  0.02  44.9833423556
0.26  0.04  47.2100178723
0.26  0.06  50.443690759
0.26  0.08  54.1709481499
0.26  0.1  57.9109482631
0.26  0.12  61.2688477408
0.26  0.14  63.9453364681
0.26  0.16  65.7305346093
0.26  0.18  66.4959780919
0.26  0.2  87.1472198969
0.26  0.22  76.4493190055
0.26  0.24  67.0646566044
0.26  0.26  58.8320239338
0.26  0.28  51.610001682
0.26  0.3  45.2745306979
0.26  0.32  39.7167809168
0.26  0.34  34.841281888
0.26  0.36  30.5642827937
0.26  0.38  26.8123137862
0.26  0.4  23.5209239301
0.26  0.42  20.6335740712
0.26  0.44  18.1006656122
0.26  0.46  15.878688514
0.26  0.48  13.9294738838
0.26  0.5  12.2195383143
0.26  0.52  10.7195087095
0.26  0.54  9.40361771591
0.26  0.56  8.24926109427
0.26  0.58  7.236609426
0.26  0.6  6.34826748554
0.26  0.62  5.56897542697
0.26  0.64  4.88534665195
0.26  0.66  4.28563785614
0.26  0.68  3.75954730391
0.26  0.7  3.29803786618
0.26  0.72  2.89318178162
0.26  0.74  2.53802447428
0.26  0.76  2.2264650887
0.26  0.78  1.95315169001
0.26  0.8  1.71338932891
0.26  0.82  1.50305939239
0.26  0.84  1.31854885456
0.26  0.86  1.15668821249
0.26  0.88  1.01469704084
0.26  0.9  0.890136229945
0.26  0.92  0.780866087087
0.26  0.94  0.685009581062
0.26  0.96  0.60092009873
0.26  0.98  0.527153159664
0.28  -1  0.406144654396
0.28  -0.98  0.462978322986
0.28  -0.96  0.527764985294
0.28  -0.94  0.601617539903
0.28  -0.92  0.68580461835
0.28  -0.9  0.781772377559
0.28  -0.88  0.891169341764
0.28  -0.86  1.01587472069
0.28  -0.84  1.15803069045
0.28  -0.82  1.32007919155
0.28  -0.8  1.5048038764
0.28  -0.78  1.7153779265
0.28  -0.76  1.95541856111
0.28  -0.74  2.22904917339
0.28  -0.72  2.54097016168
0.28  -0.7  2.89653967246
0.28  -0.68  3.30186564196
0.28  -0.66  3.76391071776
0.28  -0.64  4.29061186234
0.28  -0.62  4.89101669345
0.28  -0.6  5.57543890316
0.28  -0.58  6.35563542536
0.28  -0.56  7.24500839514
0.28  -0.54  8.25883536936
0.28  -0.52  9.41453176285
0.28  -0.5  10.7319500087
0.28  -0.48  12.2337205811
0.28  -0.46  13.9456407396
0.28  -0.44  15.8971176715
0.28  -0.42  18.1216736456
0.28  -0.4  20.6575218541
0.28  -0.38  23.5482228353
0.28  -0.36  26.8434327513
0.28  -0.34  30.5997563771
0.28  -0.32  34.8817194512
0.28  -0.3  39.7628770922
0.28  -0.28  45.3270773208
0.28  -0.26  51.6699013928
0.28  -0.24  58.9003056836
0.28  -0.22  67.1424933299
0.28  -0.2  58.1312996273
0.28  -0.18  58.4008572421
0.28  -0.16  57.7285977034
0.28  -0.14  56.1607269121
0.28  -0.12  53.8100699166
0.28  -0.1  50.8609560956
0.28  -0.08  47.5762579986
0.28  -0.06  44.302751344
0.28  -0.04  41.4627409548
0.28  -0.02  39.5071375828
0.28  6.17561557e-16  38.8062648984
0.28  0.02  39.5071375828
0.28  0.04  41.4627409548
0.28  0.06  44.302751344
0.28  0.08  47.5762579986
0.28  0.1  50.8609560956
0.28  0.12  53.8100699166
0.28  0.14  56.1607269121
0.28  0.16  57.7285977034
0.28  0.18  58.4008572421
0.28  0.2  76.538047778
0.28  0.22  67.1424933299
0.28  0.24  58.9003056836
0.28  0.26  51.6699013928
0.28  0.28  45.3270773208
0.28  0.3  39.7628770922
0.28  0.32  34.8817194512
0.28  0.34  30.5997563771
0.28  0.36  26.8434327513
0.28  0.38  23.5482228353
0.28  0.4  20.6575218541
0.28  0.42  18.1216736456
0.28  0.44  15.8971176715
0.28  0.46  13.9456407396
0.28  0.48  12.2337205811
0.28  0.5  10.7319500087
0.28  0.52  9.41453176285
0.28  0.54  8.25883536936
0.28  0.56  7.24500839514
0.28  0.58  6.35563542536
0.28  0.6  5.57543890316
0.28  0.62  4.89101669345
0.28  0.64  4.29061186234
0.28  0.66  3.76391071776
0.28  0.68  3.30186564196
0.28  0.7  2.89653967246
0.28  0.72  2.54097016168
0.28  0.74  2.22904917339
0.28  0.76  1.95541856111
0.28  0.78  1.7153779265
0.28  0.8  1.5048038764
0.28  0.82  1.32007919155
0.28  0.84  1.15803069045
0.28  0.86  1.01587472069
0.28  0.88  0.891169341764
0.28  0.9  0.781772377559
0.28  0.92  0.68580461835
0.28  0.94  0.601617539903
0.28  0.96  0.527764985294
0.28  0.98  0.462978322986
0.3  -1  0.343148500246
0.3  -0.98  0.391166830486
0.3  -0.96  0.445904584059
0.3  -0.94  0.508302040431
0.3  -0.92  0.579431056649
0.3  -0.9  0.660513479593
0.3  -0.88  0.752942134734
0.3  -0.86  0.858304751944
0.3  -0.84  0.978411239357
0.3  -0.82  1.11532477378
0.3  -0.8  1.27139724175
0.3  -0.78  1.44930963996
0.3  -0.76  1.65211812918
0.3  -0.74  1.88330653265
0.3  -0.72  2.14684618083
0.3  -0.7  2.44726413052
0.3  -0.68  2.78972093019
0.3  -0.66  3.18009926729
0.3  -0.64  3.6251050205
0.3  -0.62  4.13238245259
0.3  -0.6  4.71064552279
0.3  -0.58  5.36982757428
0.3  -0.56  6.12125196813
0.3  -0.54  6.97782659479
0.3  -0.52  7.95426560458
0.3  -0.5  9.06734216573
0.3  -0.48  10.3361765922
0.3  -0.46  11.7825647906
0.3  -0.44  13.4313526675
0.3  -0.42  15.3108629305
0.3  -0.4  17.4533816125
0.3  -0.38  19.8957126776
0.3  -0.36  22.679810236
0.3  -0.34  25.8534992276
0.3  -0.32  29.4712969533
0.3  -0.3  33.5953495681
0.3  -0.28  38.2964996211
0.3  -0.26  43.6555029812
0.3  -0.24  49.7644160537
0.3  -0.22  56.7281771151
0.3  -0.2  49.1146887409
0.3  -0.18  49.3424359001
0.3  -0.16  48.7744489773
0.3  -0.14  47.4497669833
0.3  -0.12  45.4637149355
0.3  -0.1  42.9720313105
0.3  -0.08  40.1968151072
0.3  -0.06  37.4310544677
0.3  -0.04  35.0315514946
0.3  -0.02  33.3792772202
0.3  6.17561557e-16  32.7871152701
0.3  0.02  33.3792772202
0.3  0.04  35.0315514946
0.3  0.06  37.4310544677
0.3  0.08  40.1968151072
0.3  0.1  42.9720313105
0.3  0.12  45.4637149355
0.3  0.14  47.4497669833
0.3  0.16  48.7744489773
0.3  0.18  49.3424359001
0.3  0.2  64.6664089322
0.3  0.22  56.7281771151
0.3  0.24  49.7644160537
0.3  0.26  43.6555029812
0.3  0.28  38.2964996211
0.3  0.3  33.5953495681
0.3  0.32  29.4712969533
0.3  0.34  25.8534992276
0.3  0.36  22.679810236
0.3  0.38  19.8957126776
0.3  0.4  17.4533816125
0.3  0.42  15.3108629305
0.3  0.44  13.4313526675
0.3  0.46  11.7825647906
0.3  0.48  10.3361765922
0.3  0.5  9.06734216573
0.3  0.52  7.95426560458
0.3  0.54  6.97782659479
0.3  0.56  6.12125196813
0.3  0.58  5.36982757428
0.3  0.6  4.71064552279
0.3  0.62  4.13238245259
0.3  0.64  3.6251050205
0.3  0.66  3.18009926729
0.3  0.68  2.78972093019
0.3  0.7  2.44726413052
0.3  0.72  2.14684618083
0.3  0.74  1.88330653265
0.3  0.76  1.65211812918
0.3  0.78  1.44930963996
0.3  0.8  1.27139724175
0.3  0.82  1.11532477378
0.3  0.84  0.978411239357
0.3  0.86  0.858304751944
0.3  0.88  0.752942134734
0.3  0.9  0.660513479593
0.3  0.92  0.579431056649
0.3  0.94  0.508302040431
0.3  0.96  0.445904584059
0.3  0.98  0.391166830486
0.32  -1  0.283101106751
0.32  -0.98  0.32271673213
0.32  -0.96  0.367875952137
0.32  -0.94  0.419354507178
0.32  -0.92  0.478036690545
0.32  -0.9  0.54493053871
0.32  -0.88  0.621185147275
0.32  -0.86  0.708110410013
0.32  -0.84  0.807199520093
0.32  -0.82  0.920154619993
0.32  -0.8  1.04891604073
0.32  -0.78  1.19569563266
0.32  -0.76  1.36301476043
0.32  -0.74  1.55374761469
0.32  -0.72  1.77117058469
0.32  -0.7  2.01901853969
0.32  -0.68  2.30154898622
0.32  -0.66  2.62361520304
0.32  -0.64  2.99074961031
0.32  -0.62  3.40925880488
0.32  -0.6  3.88633189437
0.32  -0.58  4.43016399095
0.32  -0.56  5.0500969861
0.32  -0.54  5.75678002464
0.32  -0.52  6.56235243467
0.32  -0.5  7.4806522557
0.32  -0.48  8.52745394701
0.32  -0.46  9.72073935972
0.32  -0.44  11.0810066272
0.32  -0.42  12.6316222797
0.32  -0.4  14.3992226325
0.32  -0.38  16.4141713415
0.32  -0.36  18.7110809871
0.32  -0.34  21.3294076455
0.32  -0.32  24.3141286611
0.32  -0.3  27.7165152626
0.32  -0.28  31.5950132949
0.32  -0.26  36.0162471958
0.32  -0.24  41.0561644638
0.32  -0.22  46.8013402761
0.32  -0.2  40.5201326257
0.32  -0.18  40.7080264174
0.32  -0.16  40.2394312571
0.32  -0.14  39.1465547377
0.32  -0.12  37.5080409968
0.32  -0.1  35.452375909
0.32  -0.08  33.1627934744
0.32  -0.06  30.881011979
0.32  -0.04  28.9013968943
0.32  -0.02  27.5382533125
0.32  6.17561557e-16  27.0497135015
0.32  0.02  27.5382533125
0.32  0.04  28.9013968943
0.32  0.06  30.881011979
0.32  0.08  33.1627934744
0.32  0.1  35.452375909
0.32  0.12  37.5080409968
0.32  0.14  39.1465547377
0.32  0.16  40.2394312571
0.32  0.18  40.7080264174
0.32  0.2  53.3504646682
0.32  0.22  46.8013402761
0.32  0.24  41.0561644638
0.32  0.26  36.0162471958
0.32  0.28  31.5950132949
0.32  0.3  27.7165152626
0.32  0.32  24.3141286611
0.32  0.34  21.3294076455
0.32  0.36  18.7110809871
0.32  0.38  16.4141713415
0.32  0.4  14.3992226325
0.32  0.42  12.6316222797
0.32  0.44  11.0810066272
0.32  0.46  9.72073935972
0.32  0.48  8.52745394701
0.32  0.5  7.4806522557
0.32  0.52  6.56235243467
0.32  0.54  5.75678002464
0.32  0.56  5.0500969861
0.32  0.58  4.43016399095
0.32  0.6  3.88633189437
0.32  0.62  3.40925880488
0.32  0.64  2.99074961031
0.32  0.66  2.62361520304
0.32  0.68  2.30154898622
0.32  0.7  2.01901853969
0.32  0.72  1.77117058469
0.32  0.74  1.55374761469
0.32  0.76  1.36301476043
0.32  0.78  1.19569563266
0.32  0.8  1.04891604073
0.32  0.82  0.920154619993
0.32  0.84  0.807199520093
0.32  0.86  0.708110410013
0.32  0.88  0.621185147275
0.32  0.9  0.54493053871
0.32  0.92  0.478036690545
0.32  0.94  0.419354507178
0.32  0.96  0.367875952137
0.32  0.98  0.32271673213
0.34  -1  0.233561378196
0.34  -0.98  0.266244684058
0.34  -0.96  0.30350151355
0.34  -0.94  0.345971860631
0.34  -0.92  0.394385276531
0.34  -0.9  0.449573401896
0.34  -0.88  0.512484252632
0.34  -0.86  0.584198504824
0.34  -0.84  0.665948058474
0.34  -0.82  0.759137198953
0.34  -0.8  0.865366719673
0.34  -0.78  0.986461420348
0.34  -0.76  1.12450145321
0.34  -0.74  1.28185805567
0.34  -0.72  1.46123428314
0.34  -0.7  1.66571144191
0.34  -0.68  1.89880201945
0.34  -0.66  2.16451002157
0.34  -0.64  2.46739975284
0.34  -0.62  2.81267422171
0.34  -0.6  3.20626451728
0.34  -0.58  3.65493169292
0.34  -0.56  4.16638290693
0.34  -0.54  4.74940381534
0.34  -0.52  5.41400949097
0.34  -0.5  6.17161646135
0.34  -0.48  7.03523882061
0.34  -0.46  8.01971178425
0.34  -0.44  9.14194652697
0.34  -0.42  10.421220681
0.34  -0.4  11.8795094855
0.34  -0.38  13.5418632745
0.34  -0.36  15.4368377893
0.34  -0.34  17.5969847062
0.34  -0.32  20.0594108053
0.34  -0.3  22.8664153872
0.34  -0.28  26.0662168862
0.34  -0.26  29.7137811613
0.34  -0.24  33.8717656942
0.34  -0.22  38.6115959128
0.34  -0.2  33.4295338135
0.34  -0.18  33.5845481596
0.34  -0.16  33.1979522444
0.34  -0.14  32.2963176694
0.34  -0.12  30.9445266718
0.34  -0.1  29.2485814438
0.34  -0.08  27.3596519548
0.34  -0.06  25.4771583223
0.34  -0.04  23.8439551435
0.34  -0.02  22.7193474113
0.34  6.17561557e-16  22.3162969504
0.34  0.02  22.7193474113
0.34  0.04  23.8439551435
0.34  0.06  25.4771583223
0.34  0.08  27.3596519548
0.34  0.1  29.2485814438
0.34  0.12  30.9445266718
0.34  0.14  32.2963176694
0.34  0.16  33.1979522444
0.34  0.18  33.5845481596
0.34  0.2  44.0146921301
0.34  0.22  38.6115959128
0.34  0.24  33.8717656942
0.34  0.26  29.7137811613
0.34  0.28  26.0662168862
0.34  0.3  22.8664153872
0.34  0.32  20.0594108053
0.34  0.34  17.5969847062
0.34  0.36  15.4368377893
0.34  0.38  13.5418632745
0.34  0.4  11.8795094855
0.34  0.42  10.421220681
0.34  0.44  9.14194652697
0.34  0.46  8.01971178425
0.34  0.48  7.03523882061
0.34  0.5  6.17161646135
0.34  0.52  5.41400949097
0.34  0.54  4.74940381534
0.34  0.56  4.16638290693
0.34  0.58  3.65493169292
0.34  0.6  3.20626451728
0.34  0.62  2.81267422171
0.34  0.64  2.46739975284
0.34  0.66  2.16451002157
0.34  0.68  1.89880201945
0.34  0.7  1.66571144191
0.34  0.72  1.46123428314
0.34  0.74  1.28185805567
0.34  0.76  1.12450145321
0.34  0.78  0.986461420348
0.34  0.8  0.865366719673
0.34  0.82  0.759137198953
0.34  0.84  0.665948058474
0.34  0.86  0.584198504824
0.34  0.88  0.512484252632
0.34  0.9  0.449573401896
0.34  0.92  0.394385276531
0.34  0.94  0.345971860631
0.34  0.96  0.30350151355
0.34  0.98  0.266244684058
0.36  -1  0.192690583273
0.36  -0.98  0.219654652925
0.36  -0.96  0.250391927474
0.36  -0.94  0.28543040864
0.36  -0.92  0.325371983826
0.36  -0.9  0.370902765278
0.36  -0.88  0.422804876048
0.36  -0.86  0.481969885223
0.36  -0.84  0.549414123207
0.36  -0.82  0.626296140141
0.36  -0.8  0.713936607355
0.36  -0.78  0.813841003726
0.36  -0.76  0.927725476635
0.36  -0.74  1.05754632177
0.36  -0.72  1.20553358818
0.36  -0.7  1.37422938581
0.36  -0.68  1.5665315536
0.36  -0.66  1.78574343831
0.36  -0.64  2.03563063899
0.36  -0.62  2.32048569213
0.36  -0.6  2.64520180833
0.36  -0.58  3.01535692746
0.36  -0.56  3.43730953582
0.36  -0.54  3.91830789167
0.36  -0.52  4.46661453497
0.36  -0.5  5.09164822051
0.36  -0.48  5.80414571225
0.36  -0.46  6.61634621837
0.36  -0.44  7.54220163511
0.36  -0.42  8.597616211
0.36  -0.4  9.8007197484
0.36  -0.38  11.1721790354
0.36  -0.36  12.7355528576
0.36  -0.34  14.5176966888
0.36  -0.32  16.5492240114
0.36  -0.3  18.8650321913
0.36  -0.28  21.5049019419
0.36  -0.26  24.5141806725
0.36  -0.24  27.9445614617
0.36  -0.22  31.8549710358
0.36  -0.2  27.5797155283
0.36  -0.18  27.7076039874
0.36  -0.16  27.3886583083
0.36  -0.14  26.6448003404
0.36  -0.12  25.5295586091
0.36  -0.1  24.1303860332
0.36  -0.08  22.5719994206
0.36  -0.06  21.018922457
0.36  -0.04  19.6715127288
0.36  -0.02  18.7436995708
0.36  6.17561557e-16  18.4111787191
0.36  0.02  18.7436995708
0.36  0.04  19.6715127288
0.36  0.06  21.018922457
0.36  0.08  22.5719994206
0.36  0.1  24.1303860332
0.36  0.12  25.5295586091
0.36  0.14  26.6448003404
0.36  0.16  27.3886583083
0.36  0.18  27.7076039874
0.36  0.2  36.3125820057
0.36  0.22  31.8549710358
0.36  0.24  27.9445614617
0.36  0.26  24.5141806725
0.36  0.28  21.5049019419
0.36  0.3  18.8650321913
0.36  0.32  16.5492240114
0.36  0.34  14.5176966888
0.36  0.36  12.7355528576
0.36  0.38  11.1721790354
0.36  0.4  9.8007197484
0.36  0.42  8.597616211
0.36  0.44  7.54220163511
0.36  0.46  6.61634621837
0.36  0.48  5.80414571225
0.36  0.5  5.09164822051
0.36  0.52  4.46661453497
0.36  0.54  3.91830789167
0.36  0.56  3.43730953582
0.36  0.58  3.01535692746
0.36  0.6  2.64520180833
0.36  0.62  2.32048569213
0.36  0.64  2.03563063899
0.36  0.66  1.78574343831
0.36  0.68  1.5665315536
0.36  0.7  1.37422938581
0.36  0.72  1.20553358818
0.36  0.74  1.05754632177
0.36  0.76  0.927725476636
0.36  0.78  0.813841003726
0.36  0.8  0.713936607355
0.36  0.82  0.626296140141
0.36  0.84  0.549414123207
0.36  0.86  0.481969885223
0.36  0.88  0.422804876048
0.36  0.9  0.370902765278
0.36  0.92  0.325371983826
0.36  0.94  0.28543040864
0.36  0.96  0.250391927474
0.36  0.98  0.219654652925
0.38  -1  0.158971749391
0.38  -0.98  0.181217389269
0.38  -0.96  0.206575962706
0.38  -0.94  0.235483076651
0.38  -0.92  0.268435294518
0.38  -0.9  0.305998666093
0.38  -0.88  0.348818451087
0.38  -0.86  0.397630203335
0.38  -0.84  0.453272406066
0.38  -0.82  0.516700875278
0.38  -0.8  0.589005178654
0.38  -0.78  0.671427352032
0.38  -0.76  0.765383234979
0.38  -0.74  0.872486791926
0.38  -0.72  0.994577836693
0.38  -0.7  1.13375363661
0.38  -0.68  1.29240493916
0.38  -0.66  1.47325704001
0.38  -0.64  1.67941659783
0.38  -0.62  1.91442500017
0.38  -0.6  2.18231919703
0.38  -0.58  2.48770104721
0.38  -0.56  2.83581636853
0.38  -0.54  3.23264504996
0.38  -0.52  3.68500377351
0.38  -0.5  4.20066311052
0.38  -0.48  4.78848100372
0.38  -0.46  5.45855492804
0.38  -0.44  6.22239534402
0.38  -0.42  7.09312342326
0.38  -0.4  8.08569644261
0.38  -0.38  9.21716471867
0.38  -0.36  10.5069644964
0.38  -0.34  11.9772518229
0.38  -0.32  13.6532831416
0.38  -0.3  15.5638491452
0.38  -0.28  17.7417693388
0.38  -0.26  20.2244558099
0.38  -0.24  23.05455589
0.38  -0.22  26.2806847452
0.38  -0.2  22.7535541736
0.38  -0.18  22.8590634918
0.38  -0.16  22.595929966
0.38  -0.14  21.9822393515
0.38  -0.12  21.0621532425
0.38  -0.1  19.9078212127
0.38  -0.08  18.6221359352
0.38  -0.06  17.3408311737
0.38  -0.04  16.2292040355
0.38  -0.02  15.4637484625
0.38  6.17561557e-16  15.1894152772
0.38  0.02  15.4637484625
0.38  0.04  16.2292040355
0.38  0.06  17.3408311737
0.38  0.08  18.6221359352
0.38  0.1  19.9078212127
0.38  0.12  21.0621532425
0.38  0.14  21.9822393515
0.38  0.16  22.595929966
0.38  0.18  22.8590634918
0.38  0.2  29.9582604832
0.38  0.22  26.2806847452
0.38  0.24  23.05455589
0.38  0.26  20.2244558099
0.38  0.28  17.7417693388
0.38  0.3  15.5638491452
0.38  0.32  13.6532831416
0.38  0.34  11.9772518229
0.38  0.36  10.5069644964
0.38  0.38  9.21716471867
0.38  0.4  8.08569644261
0.38  0.42  7.09312342326
0.38  0.44  6.22239534402
0.38  0.46  5.45855492804
0.38  0.48  4.78848100372
0.38  0.5  4.20066311052
0.38  0.52  3.68500377351
0.38  0.54  3.23264504996
0.38  0.56  2.83581636853
0.38  0.58  2.48770104721
0.38  0.6  2.18231919703
0.38  0.62  1.91442500017
0.38  0.64  1.67941659783
0.38  0.66  1.47325704001
0.38  0.68  1.29240493916
0.38  0.7  1.13375363661
0.38  0.72  0.994577836693
0.38  0.74  0.872486791926
0.38  0.76  0.765383234979
0.38  0.78  0.671427352032
0.38  0.8  0.589005178654
0.38  0.82  0.516700875278
0.38  0.84  0.453272406066
0.38  0.86  0.397630203335
0.38  0.88  0.348818451087
0.38  0.9  0.305998666093
0.38  0.92  0.268435294518
0.38  0.94  0.235483076651
0.38  0.96  0.206575962706
0.38  0.98  0.181217389269
0.4  -1  0.131153358276
0.4  -0.98  0.14950624417
0.4  -0.96  0.170427332855
0.4  -0.94  0.194276004626
0.4  -0.92  0.221461929498
0.4  -0.9  0.252452104477
0.4  -0.88  0.28777887558
0.4  -0.86  0.328049082426
0.4  -0.84  0.373954482461
0.4  -0.82  0.426283633895
0.4  -0.8  0.485935441476
0.4  -0.78  0.553934597781
0.4  -0.76  0.631449185281
0.4  -0.74  0.719810741538
0.4  -0.72  0.82053713222
0.4  -0.7  0.935358624842
0.4  -0.68  1.06624761112
0.4  -0.66  1.21545248852
0.4  -0.64  1.38553628298
0.4  -0.62  1.57942067632
0.4  -0.6  1.80043619459
0.4  -0.58  2.05237941948
0.4  -0.56  2.33957820564
0.4  -0.54  2.66696602409
0.4  -0.52  3.04016670891
0.4  -0.5  3.46559106282
0.4  -0.48  3.95054698136
0.4  -0.46  4.50336498711
0.4  -0.44  5.13354133056
0.4  -0.42  5.85190111571
0.4  -0.4  6.67078425263
0.4  -0.38  7.60425743107
0.4  -0.36  8.66835575671
0.4  -0.34  9.88135820046
0.4  -0.32  11.2641015928
0.4  -0.3  12.8403385565
0.4  -0.28  14.6371455271
0.4  -0.26  16.6853878689
0.4  -0.24  19.0202500766
0.4  -0.22  21.6818401718
0.4  -0.2  18.771920508
0.4  -0.18  18.8589668006
0.4  -0.16  18.6418788858
0.4  -0.14  18.1355777013
0.4  -0.12  17.3764970245
0.4  -0.1  16.4241610098
0.4  -0.08  15.3634571899
0.4  -0.06  14.3063673417
0.4  -0.04  13.3892633097
0.4  -0.02  12.7577544448
0.4  6.17561557e-16  12.5314266936
0.4  0.02  12.7577544448
0.4  0.04  13.3892633097
0.4  0.06  14.3063673417
0.4  0.08  15.3634571899
0.4  0.1  16.4241610098
0.4  0.12  17.3764970245
0.4  0.14  18.1355777013
0.4  0.16  18.6418788858
0.4  0.18  18.8589668006
0.4  0.2  24.7158786736
0.4  0.22  21.6818401718
0.4  0.24  19.0202500766
0.4  0.26  16.6853878689
0.4  0.28  14.6371455271
0.4  0.3  12.8403385565
0.4  0.32  11.2641015928
0.4  0.34  9.88135820046
0.4  0.36  8.66835575672
0.4  0.38  7.60425743107
0.4  0.4  6.67078425263
0.4  0.42  5.85190111571
0.4  0.44  5.13354133056
0.4  0.46  4.50336498711
0.4  0.48  3.95054698136
0.4  0.5  3.46559106282
0.4  0.52  3.04016670891
0.4  0.54  2.66696602409
0.4  0.56  2.33957820564
0.4  0.58  2.05237941948
0.4  0.6  1.80043619459
0.4  0.62  1.57942067632
0.4  0.64  1.38553628298
0.4  0.66  1.21545248852
0.4  0.68  1.06624761112
0.4  0.7  0.935358624842
0.4  0.72  0.82053713222
0.4  0.74  0.719810741538
0.4  0.76  0.631449185281
0.4  0.78  0.553934597781
0.4  0.8  0.485935441476
0.4  0.82  0.426283633895
0.4  0.84  0.373954482461
0.4  0.86  0.328049082426
0.4  0.88  0.28777887558
0.4  0.9  0.252452104477
0.4  0.92  0.221461929498
0.4  0.94  0.194276004626
0.4  0.96  0.170427332855
0.4  0.98  0.14950624417
0.42  -1  0.108202894244
0.42  -0.98  0.12334421733
0.42  -0.96  0.140604334617
0.42  -0.94  0.160279738612
0.42  -0.92  0.182708411371
0.42  -0.9  0.208275630311
0.42  -0.88  0.237420586475
0.42  -0.86  0.270643928902
0.42  -0.84  0.308516364732
0.42  -0.82  0.351688462746
0.42  -0.8  0.400901828778
0.42  -0.78  0.457001844936
0.42  -0.76  0.520952191491
0.42  -0.74  0.593851400878
0.42  -0.72  0.676951728173
0.42  -0.7  0.771680662197
0.42  -0.68  0.879665446775
0.42  -0.66  1.00276103336
0.42  -0.64  1.14308194521
0.42  -0.62  1.30303860041
0.42  -0.6  1.48537871783
0.42  -0.58  1.69323451716
0.42  -0.56  1.93017652378
0.42  -0.54  2.20027490298
0.42  -0.52  2.50816937676
0.42  -0.5  2.85914892453
0.42  -0.48  3.25924263662
0.42  -0.46  3.71532328144
0.42  -0.44  4.23522536508
0.42  -0.42  4.82787971175
0.42  -0.4  5.50346687647
0.42  -0.38  6.27359202564
0.42  -0.36  7.15148428938
0.42  -0.34  8.15222401015
0.42  -0.32  9.29300179129
0.42  -0.3  10.5934137955
0.42  -0.28  12.0757983655
0.42  -0.26  13.7656197502
0.42  -0.24  15.6919055263
0.42  -0.22  17.8877452317
0.42  -0.2  15.4870310313
0.42  -0.18  15.5588451344
0.42  -0.16  15.379745331
0.42  -0.14  14.9620415508
0.42  -0.12  14.3357920421
0.42  -0.1  13.5501048555
0.42  -0.08  12.6750130945
0.42  -0.06  11.802902898
0.42  -0.04  11.0462824662
0.42  -0.02  10.5252810384
0.42  6.17561557e-16  10.3385582731
0.42  0.02  10.5252810384
0.42  0.04  11.0462824662
0.42  0.06  11.802902898
0.42  0.08  12.6750130945
0.42  0.1  13.5501048555
0.42  0.12  14.3357920421
0.42  0.14  14.9620415508
0.42  0.16  15.379745331
0.42  0.18  15.5588451344
0.42  0.2  20.3908587734
0.42  0.22  17.8877452317
0.42  0.24  15.6919055263
0.42  0.26  13.7656197502
0.42  0.28  12.0757983655
0.42  0.3  10.5934137955
0.42  0.32  9.29300179129
0.42  0.34  8.15222401015
0.42  0.36  7.15148428938
0.42  0.38  6.27359202564
0.42  0.4  5.50346687647
0.42  0.42  4.82787971175
0.42  0.44  4.23522536508
0.42  0.46  3.71532328144
0.42  0.48  3.25924263662
0.42  0.5  2.85914892453
0.42  0.52  2.50816937676
0.42  0.54  2.20027490298
0.42  0.56  1.93017652378
0.42  0.58  1.69323451716
0.42  0.6  1.48537871783
0.42  0.62  1.30303860041
0.42  0.64  1.14308194521
0.42  0.66  1.00276103336
0.42  0.68  0.879665446775
0.42  0.7  0.771680662197
0.42  0.72  0.676951728173
0.42  0.74  0.593851400878
0.42  0.76  0.520952191491
0.42  0.78  0.457001844936
0.42  0.8  0.400901828778
0.42  0.82  0.351688462746
0.42  0.84  0.308516364732
0.42  0.86  0.270643928902
0.42  0.88  0.237420586475
0.42  0.9  0.208275630311
0.42  0.92  0.182708411371
0.42  0.94  0.160279738612
0.42  0.96  0.140604334617
0.42  0.98  0.12334421733
0.44  -1  0.0892685210399
0.44  -0.98  0.101760271172
0.44  -0.96  0.116000048712
0.44  -0.94  0.132232463083
0.44  -0.92  0.150736353021
0.44  -0.9  0.171829576431
0.44  -0.88  0.195874470523
0.44  -0.86  0.223284075998
0.44  -0.84  0.254529232223
0.44  -0.82  0.290146665259
0.44  -0.8  0.330748207683
0.44  -0.78  0.37703130859
0.44  -0.76  0.429791014297
0.44  -0.74  0.489933625569
0.44  -0.72  0.558492265958
0.44  -0.7  0.636644628694
0.44  -0.68  0.725733206975
0.44  -0.66  0.827288355181
0.44  -0.64  0.943054577136
0.44  -0.62  1.07502049302
0.44  -0.6  1.22545299968
0.44  -0.58  1.39693621115
0.44  -0.56  1.59241584829
0.44  -0.54  1.81524984007
0.44  -0.52  2.06926600574
0.44  -0.5  2.35882780871
0.44  -0.48  2.68890931167
0.44  -0.46  3.06518062051
0.44  -0.44  3.49410528484
0.44  -0.42  3.98305132814
0.44  -0.4  4.54041781496
0.44  -0.38  5.17577912912
0.44  -0.36  5.90004944152
0.44  -0.34  6.72567019263
0.44  -0.32  7.66682381028
0.44  -0.3  8.73967733391
0.44  -0.28  9.96266013032
0.44  -0.26  11.3567804714
0.44  -0.24  12.9459864121
0.44  -0.22  14.7575771677
0.44  -0.2  12.7769628079
0.44  -0.18  12.8362101952
0.44  -0.16  12.6884509815
0.44  -0.14  12.343840988
0.44  -0.12  11.8271785841
0.44  -0.1  11.178978426
0.44  -0.08  10.4570185578
0.44  -0.06  9.73751851138
0.44  -0.04  9.11329873048
0.44  -0.02  8.68346709571
0.44  6.17561557e-16  8.5294188587
0.44  0.02  8.68346709571
0.44  0.04  9.11329873048
0.44  0.06  9.73751851138
0.44  0.08  10.4570185578
0.44  0.1  11.178978426
0.44  0.12  11.8271785841
0.44  0.14  12.343840988
0.44  0.16  12.6884509815
0.44  0.18  12.8362101952
0.44  0.2  16.8226720566
0.44  0.22  14.7575771677
0.44  0.24  12.9459864121
0.44  0.26  11.3567804714
0.44  0.28  9.96266013032
0.44  0.3  8.73967733391
0.44  0.32  7.66682381028
0.44  0.34  6.72567019263
0.44  0.36  5.90004944152
0.44  0.38  5.17577912912
0.44  0.4  4.54041781496
0.44  0.42  3.98305132814
0.44  0.44  3.49410528484
0.44  0.46  3.06518062051
0.44  0.48  2.68890931167
0.44  0.5  2.35882780871
0.44  0.52  2.06926600574
0.44  0.54  1.81524984007
0.44  0.56  1.59241584829
0.44  0.58  1.39693621115
0.44  0.6  1.22545299968
0.44  0.62  1.07502049302
0.44  0.64  0.943054577136
0.44  0.66  0.827288355181
0.44  0.68  0.725733206976
0.44  0.7  0.636644628694
0.44  0.72  0.558492265958
0.44  0.74  0.489933625569
0.44  0.76  0.429791014297
0.44  0.78  0.37703130859
0.44  0.8  0.330748207683
0.44  0.82  0.290146665259
0.44  0.84  0.254529232223
0.44  0.86  0.223284075998
0.44  0.88  0.195874470523
0.44  0.9  0.171829576431
0.44  0.92  0.150736353021
0.44  0.94  0.132232463083
0.44  0.96  0.116000048712
0.44  0.98  0.101760271172
0.46  -1  0.0736474648331
0.46  -0.98  0.0839532895276
0.46  -0.96  0.0957012551414
0.46  -0.94  0.109093167012
0.46  -0.92  0.124359070015
0.46  -0.9  0.141761200254
0.46  -0.88  0.161598489719
0.46  -0.86  0.184211701318
0.46  -0.84  0.209989282457
0.46  -0.82  0.239374037759
0.46  -0.8  0.272870735509
0.46  -0.78  0.311054778514
0.46  -0.76  0.354582088314
0.46  -0.74  0.404200372531
0.46  -0.72  0.460761968918
0.46  -0.7  0.525238486722
0.46  -0.68  0.598737496895
0.46  -0.66  0.682521557826
0.46  -0.64  0.778029903444
0.46  -0.62  0.886903166226
0.46  -0.6  1.01101155981
0.46  -0.58  1.15248700534
0.46  -0.56  1.31375975338
0.46  -0.54  1.49760013051
0.46  -0.52  1.70716612769
0.46  -0.5  1.94605764793
0.46  -0.48  2.21837834506
0.46  -0.46  2.52880611582
0.46  -0.44  2.88267345634
0.46  -0.42  3.28605906316
0.46  -0.4  3.74589225249
0.46  -0.38  4.27007199128
0.46  -0.36  4.86760258483
0.46  -0.34  5.54874835184
0.46  -0.32  6.32520994379
0.46  -0.3  7.21032533757
0.46  -0.28  8.21929895381
0.46  -0.26  9.36946283687
0.46  -0.24  10.6805743829
0.46  -0.22  12.1751557304
0.46  -0.2  10.5411281391
0.46  -0.18  10.5900078541
0.46  -0.16  10.4681049552
0.46  -0.14  10.1837981012
0.46  -0.12  9.75754620665
0.46  -0.1  9.22277428716
0.46  -0.08  8.62714983423
0.46  -0.06  8.03355476012
0.46  -0.04  7.51856690295
0.46  -0.02  7.16395130233
0.46  6.17561557e-16  7.03685989333
0.46  0.02  7.16395130233
0.46  0.04  7.51856690295
0.46  0.06  8.03355476012
0.46  0.08  8.62714983423
0.46  0.1  9.22277428716
0.46  0.12  9.75754620665
0.46  0.14  10.1837981012
0.46  0.16  10.4681049552
0.46  0.18  10.5900078541
0.46  0.2  13.8788806429
0.46  0.22  12.1751557304
0.46  0.24  10.6805743829
0.46  0.26  9.36946283687
0.46  0.28  8.21929895381
0.46  0.3  7.21032533757
0.46  0.32  6.32520994379
0.46  0.34  5.54874835184
0.46  0.36  4.86760258483
0.46  0.38  4.27007199128
0.46  0.4  3.74589225249
0.46  0.42  3.28605906316
0.46  0.44  2.88267345634
0.46  0.46  2.52880611582
0.46  0.48  2.21837834506
0.46  0.5  1.94605764793
0.46  0.52  1.70716612769
0.46  0.54  1.49760013051
0.46  0.56  1.31375975338
0.46  0.58  1.15248700534
0.46  0.6  1.01101155981
0.46  0.62  0.886903166226
0.46  0.64  0.778029903444
0.46  0.66  0.682521557826
0.46  0.68  0.598737496895
0.46  0.7  0.525238486722
0.46  0.72  0.460761968918
0.46  0.74  0.404200372531
0.46  0.76  0.354582088314
0.46  0.78  0.311054778514
0.46  0.8  0.272870735509
0.46  0.82  0.239374037759
0.46  0.84  0.209989282457
0.46  0.86  0.184211701318
0.46  0.88  0.161598489719
0.46  0.9  0.141761200254
0.46  0.92  0.124359070015
0.46  0.94  0.109093167012
0.46  0.96  0.0957012551414
0.46  0.98  0.0839532895276
0.48  -1  0.0607599298516
0.48  -0.98  0.0692623431651
0.48  -0.96  0.0789545378416
0.48  -0.94  0.0900030053981
0.48  -0.92  0.102597535267
0.48  -0.9  0.116954474979
0.48  -0.88  0.133320446559
0.48  -0.86  0.151976582972
0.48  -0.84  0.1732433574
0.48  -0.82  0.197486088292
0.48  -0.8  0.225121214772
0.48  -0.78  0.256623450181
0.48  -0.76  0.292533936659
0.48  -0.74  0.333469540827
0.48  -0.72  0.380133450257
0.48  -0.7  0.433327252756
0.48  -0.68  0.493964705958
0.48  -0.66  0.563087433759
0.48  -0.64  0.641882819224
0.48  -0.62  0.731704401329
0.48  -0.6  0.834095125916
0.48  -0.58  0.950813850257
0.48  -0.56  1.08386555652
0.48  -0.54  1.23553579314
0.48  -0.52  1.40842993575
0.48  -0.5  1.60551794204
0.48  -0.48  1.83018536939
0.48  -0.46  2.08629153161
0.48  -0.44  2.37823579385
0.48  -0.42  2.71103314443
0.48  -0.4  3.0904003418
0.48  -0.38  3.52285411643
0.48  -0.36  4.01582311448
0.48  -0.34  4.57777550641
0.48  -0.32  5.21836445223
0.48  -0.3  5.94859392256
0.48  -0.28  6.78100772369
0.48  -0.26  7.72990497372
0.48  -0.24  8.81158573144
0.48  -0.22  10.0446309969
0.48  -0.2  8.69654111979
0.48  -0.18  8.73686739663
0.48  -0.16  8.63629622827
