-0.24  -0.04  1.61663119479
-0.24  -0.02  1.64904889286
-0.24  6.17561557e-16  1.660091683
-0.24  0.02  1.64904889286
-0.24  0.04  1.61663119479
-0.24  0.06  1.56499255753
-0.24  0.08  1.49779367998
-0.24  0.1  1.42029216098
-0.24  0.12  1.3394056487
-0.24  0.14  1.26360240622
-0.24  0.16  1.2023254905
-0.24  0.18  1.16457910731
-0.24  0.2  1.59918181608
-0.24  0.22  1.256031976
-0.24  0.24  0.986514671982
-0.24  0.26  0.774829953881
-0.24  0.28  0.608568199219
-0.24  0.3  0.477982622182
-0.24  0.32  0.375417886444
-0.24  0.34  0.294861325332
-0.24  0.36  0.231590460433
-0.24  0.38  0.181896155093
-0.24  0.4  0.142865173185
-0.24  0.42  0.112209396063
-0.24  0.44  0.088131685869
-0.24  0.46  0.0692205316726
-0.24  0.48  0.0543673022681
-0.24  0.5  0.0427012547359
-0.24  0.52  0.0335384887599
-0.24  0.54  0.0263418542441
-0.24  0.56  0.0206894618892
-0.24  0.58  0.0162499507172
-0.24  0.6  0.0127630626511
-0.24  0.62  0.0100243853703
-0.24  0.64  0.00787336901794
-0.24  0.66  0.00618391426536
-0.24  0.68  0.00485697997315
-0.24  0.7  0.00381477708896
-0.24  0.72  0.00299620840912
-0.24  0.74  0.0023532868688
-0.24  0.76  0.00184832238973
-0.24  0.78  0.00145171236948
-0.24  0.8  0.00114020628405
-0.24  0.82  0.000895542669129
-0.24  0.84  0.000703378575836
-0.24  0.86  0.000552448741975
-0.24  0.88  0.000433905187042
-0.24  0.9  0.000340798515839
-0.24  0.92  0.000267670523116
-0.24  0.94  0.00021023421645
-0.24  0.96  0.000165122499303
-0.24  0.98  0.000129690781246
-0.22  -1  0.000130771051385
-0.22  -0.98  0.000166497900883
-0.22  -0.96  0.000211985379827
-0.22  -0.94  0.000269900106981
-0.22  -0.92  0.000343637225397
-0.22  -0.9  0.000437519436356
-0.22  -0.88  0.00055705040968
-0.22  -0.86  0.000709237426135
-0.22  -0.84  0.000903002166212
-0.22  -0.82  0.00114970372704
-0.22  -0.8  0.0014638045283
-0.22  -0.78  0.00186371814467
-0.22  -0.76  0.00237288876733
-0.22  -0.74  0.00302116557605
-0.22  -0.72  0.00384655259173
-0.22  -0.7  0.00489743659146
-0.22  -0.68  0.00623542369312
-0.22  -0.66  0.00793895089945
-0.22  -0.64  0.0101078843212
-0.22  -0.62  0.0128693736421
-0.22  -0.6  0.016385306032
-0.22  -0.58  0.0208617964813
-0.22  -0.56  0.0265612709081
-0.22  -0.54  0.0338178503891
-0.22  -0.52  0.0430569383857
-0.22  -0.5  0.0548201592303
-0.22  -0.48  0.0697971098434
-0.22  -0.46  0.0888657860703
-0.22  -0.44  0.113144053552
-0.22  -0.42  0.144055180517
-0.22  -0.4  0.183411274233
-0.22  -0.38  0.233519512418
-0.22  -0.36  0.297317397244
-0.22  -0.34  0.378544960926
-0.22  -0.32  0.481964018154
-0.22  -0.3  0.613637318607
-0.22  -0.28  0.781283964371
-0.22  -0.26  0.994731927922
-0.22  -0.24  1.26649419872
-0.22  -0.22  1.61250233391
-0.22  -0.2  1.484926112
-0.22  -0.18  1.49509452343
-0.22  -0.16  1.5435535851
-0.22  -0.14  1.62222130336
-0.22  -0.12  1.71953801802
-0.22  -0.1  1.82338066878
-0.22  -0.08  1.92287764231
-0.22  -0.06  2.00914801517
-0.22  -0.04  2.07544204645
-0.22  -0.02  2.11706010617
-0.22  6.17561557e-16  2.13123691474
-0.22  0.02  2.11706010617
-0.22  0.04  2.07544204645
-0.22  0.06  2.00914801517
-0.22  0.08  1.92287764231
-0.22  0.1  1.82338066878
-0.22  0.12  1.71953801802
-0.22  0.14  1.62222130336
-0.22  0.16  1.5435535851
-0.22  0.18  1.49509452343
-0.22  0.2  2.0530404162
-0.22  0.22  1.61250233391
-0.22  0.24  1.26649419872
-0.22  0.26  0.994731927921
-0.22  0.28  0.78128396437
-0.22  0.3  0.613637318607
-0.22  0.32  0.481964018154
-0.22  0.34  0.378544960926
-0.22  0.36  0.297317397244
-0.22  0.38  0.233519512418
-0.22  0.4  0.183411274233
-0.22  0.42  0.144055180517
-0.22  0.44  0.113144053552
-0.22  0.46  0.0888657860703
-0.22  0.48  0.0697971098434
-0.22  0.5  0.0548201592302
-0.22  0.52  0.0430569383857
-0.22  0.54  0.033817850389
-0.22  0.56  0.0265612709081
-0.22  0.58  0.0208617964813
-0.22  0.6  0.016385306032
-0.22  0.62  0.0128693736421
-0.22  0.64  0.0101078843212
-0.22  0.66  0.00793895089945
-0.22  0.68  0.00623542369312
-0.22  0.7  0.00489743659146
-0.22  0.72  0.00384655259173
-0.22  0.74  0.00302116557605
-0.22  0.76  0.00237288876733
-0.22  0.78  0.00186371814467
-0.22  0.8  0.0014638045283
-0.22  0.82  0.00114970372704
-0.22  0.84  0.000903002166212
-0.22  0.86  0.000709237426135
-0.22  0.88  0.00055705040968
-0.22  0.9  0.000437519436356
-0.22  0.92  0.000343637225397
-0.22  0.94  0.000269900106981
-0.22  0.96  0.000211985379827
-0.22  0.98  0.000166497900883
-0.2  -1  0.000167884758984
-0.2  -0.98  0.000213751129664
-0.2  -0.96  0.000272148262351
-0.2  -0.94  0.000346499580223
-0.2  -0.92  0.000441163790859
-0.2  -0.9  0.000561690407359
-0.2  -0.88  0.000715145078214
-0.2  -0.86  0.000910523797795
-0.2  -0.84  0.00115928027977
-0.2  -0.82  0.00147599740976
-0.2  -0.8  0.00187924213983
-0.2  -0.78  0.00239265394151
-0.2  -0.76  0.00304633062577
-0.2  -0.74  0.0038785927712
-0.2  -0.72  0.00493823019652
-0.2  -0.7  0.00628736217294
-0.2  -0.68  0.0080050790507
-0.2  -0.66  0.0101920787836
-0.2  -0.64  0.0129765701593
-0.2  -0.62  0.0165217888003
-0.2  -0.6  0.0210355665488
-0.2  -0.58  0.0267825152214
-0.2  -0.56  0.0340995389841
-0.2  -0.54  0.0434155847321
-0.2  -0.52  0.0552767883021
-0.2  -0.5  0.07037849067
-0.2  -0.48  0.0896060010201
-0.2  -0.46  0.114086496348
-0.2  -0.44  0.145255100114
-0.2  -0.42  0.184939013683
-0.2  -0.4  0.235464632603
-0.2  -0.38  0.299793927211
-0.2  -0.36  0.381698082636
-0.2  -0.34  0.485978577495
-0.2  -0.32  0.618748661646
-0.2  -0.3  0.787791734077
-0.2  -0.28  1.00301763018
-0.2  -0.26  1.27704356739
-0.2  -0.24  1.6259338061
-0.2  -0.22  2.07014138696
-0.2  -0.2  1.90635817163
-0.2  -0.18  1.9194124469
-0.2  -0.16  1.98162451757
-0.2  -0.14  2.08261866559
-0.2  -0.12  2.20755452113
-0.2  -0.1  2.34086841753
-0.2  -0.08  2.46860330414
-0.2  -0.06  2.57935779147
-0.2  -0.04  2.66446651658
-0.2  -0.02  2.71789606273
-0.2  6.17561557e-16  2.73609634532
-0.2  0.02  2.71789606273
-0.2  0.04  2.66446651658
-0.2  0.06  2.57935779147
-0.2  0.08  2.46860330414
-0.2  0.1  2.34086841753
-0.2  0.12  2.20755452113
-0.2  0.14  2.08261866559
-0.2  0.16  1.98162451757
-0.2  0.18  1.9194124469
-0.2  0.2  2.63570715237
-0.2  0.22  2.07014138696
-0.2  0.24  1.6259338061
-0.2  0.26  1.27704356739
-0.2  0.28  1.00301763018
-0.2  0.3  0.787791734077
-0.2  0.32  0.618748661646
-0.2  0.34  0.485978577494
-0.2  0.36  0.381698082636
-0.2  0.38  0.299793927211
-0.2  0.4  0.235464632602
-0.2  0.42  0.184939013683
-0.2  0.44  0.145255100114
-0.2  0.46  0.114086496348
-0.2  0.48  0.0896060010201
-0.2  0.5  0.07037849067
-0.2  0.52  0.0552767883021
-0.2  0.54  0.043415584732
-0.2  0.56  0.0340995389841
-0.2  0.58  0.0267825152214
-0.2  0.6  0.0210355665488
-0.2  0.62  0.0165217888003
-0.2  0.64  0.0129765701593
-0.2  0.66  0.0101920787836
-0.2  0.68  0.0080050790507
-0.2  0.7  0.00628736217294
-0.2  0.72  0.00493823019652
-0.2  0.74  0.0038785927712
-0.2  0.76  0.00304633062577
-0.2  0.78  0.00239265394151
-0.2  0.8  0.00187924213983
-0.2  0.82  0.00147599740976
-0.2  0.84  0.00115928027977
-0.2  0.86  0.000910523797795
-0.2  0.88  0.000715145078213
-0.2  0.9  0.000561690407358
-0.2  0.92  0.000441163790859
-0.2  0.94  0.000346499580223
-0.2  0.96  0.000272148262351
-0.2  0.98  0.000213751129664
-0.18  -1  0.000215531587462
-0.18  -0.98  0.000274415143918
-0.18  -0.96  0.00034938577727
-0.18  -0.94  0.000444838501315
-0.18  -0.92  0.000566369054283
-0.18  -0.9  0.000721101938571
-0.18  -0.88  0.000918108081433
-0.18  -0.86  0.0011689366012
-0.18  -0.84  0.00148829185284
-0.18  -0.82  0.0018948954434
-0.18  -0.8  0.00241258375134
-0.18  -0.78  0.00307170528987
-0.18  -0.76  0.003910899832
-0.18  -0.74  0.00497936359531
-0.18  -0.72  0.00633973327864
-0.18  -0.7  0.00807175802187
-0.18  -0.68  0.0102769745508
-0.18  -0.66  0.0130846595788
-0.18  -0.64  0.016659408413
-0.18  -0.62  0.0212107840484
-0.18  -0.6  0.0270056024075
-0.18  -0.58  0.0343835739278
-0.18  -0.56  0.0437772184529
-0.18  -0.54  0.0557372209038
-0.18  -0.52  0.0709647141565
-0.18  -0.5  0.0903523816519
-0.18  -0.48  0.1150367893
-0.18  -0.46  0.146465014541
-0.18  -0.44  0.186479478566
-0.18  -0.42  0.237425954827
-0.18  -0.4  0.302291085641
-0.18  -0.38  0.384877468534
-0.18  -0.36  0.490026576441
-0.18  -0.34  0.623902580041
-0.18  -0.32  0.794353710791
-0.18  -0.3  1.01137234888
-0.18  -0.28  1.28768080791
-0.18  -0.26  1.63947715685
-0.18  -0.24  2.08738480167
-0.18  -0.22  2.65766149412
-0.18  -0.2  2.44739549611
-0.18  -0.18  2.46415466286
-0.18  -0.16  2.54402293936
-0.18  -0.14  2.67367990869
-0.18  -0.12  2.83407340384
-0.18  -0.1  3.00522268443
-0.18  -0.08  3.16920959457
-0.18  -0.06  3.31139695344
-0.18  -0.04  3.42066010954
-0.18  -0.02  3.48925332174
-0.18  6.17561557e-16  3.51261896746
-0.18  0.02  3.48925332174
-0.18  0.04  3.42066010954
-0.18  0.06  3.31139695344
-0.18  0.08  3.16920959457
-0.18  0.1  3.00522268443
-0.18  0.12  2.83407340384
-0.18  0.14  2.67367990869
-0.18  0.16  2.54402293936
-0.18  0.18  2.46415466286
-0.18  0.2  3.38373864352
-0.18  0.22  2.65766149412
-0.18  0.24  2.08738480167
-0.18  0.26  1.63947715685
-0.18  0.28  1.28768080791
-0.18  0.3  1.01137234888
-0.18  0.32  0.794353710791
-0.18  0.34  0.623902580041
-0.18  0.36  0.490026576441
-0.18  0.38  0.384877468534
-0.18  0.4  0.302291085641
-0.18  0.42  0.237425954827
-0.18  0.44  0.186479478566
-0.18  0.46  0.146465014541
-0.18  0.48  0.1150367893
-0.18  0.5  0.0903523816519
-0.18  0.52  0.0709647141565
-0.18  0.54  0.0557372209038
-0.18  0.56  0.0437772184529
-0.18  0.58  0.0343835739278
-0.18  0.6  0.0270056024075
-0.18  0.62  0.0212107840484
-0.18  0.64  0.016659408413
-0.18  0.66  0.0130846595788
-0.18  0.68  0.0102769745508
-0.18  0.7  0.00807175802187
-0.18  0.72  0.00633973327864
-0.18  0.74  0.00497936359531
-0.18  0.76  0.00391089983199
-0.18  0.78  0.00307170528987
-0.18  0.8  0.00241258375134
-0.18  0.82  0.0018948954434
-0.18  0.84  0.00148829185284
-0.18  0.86  0.0011689366012
-0.18  0.88  0.000918108081433
-0.18  0.9  0.000721101938571
-0.18  0.92  0.000566369054283
-0.18  0.94  0.000444838501315
-0.18  0.96  0.00034938577727
-0.18  0.98  0.000274415143918
-0.16  -1  0.000276700907663
-0.16  -0.98  0.000352296015136
-0.16  -0.96  0.000448543820578
-0.16  -0.94  0.000571086672386
-0.16  -0.92  0.000727108417092
-0.16  -0.9  0.000925755538993
-0.16  -0.88  0.00117867335576
-0.16  -0.86  0.00150068870351
-0.16  -0.84  0.00191067913247
-0.16  -0.82  0.00243267956819
-0.16  -0.8  0.00309729131434
-0.16  -0.78  0.00394347599714
-0.16  -0.76  0.00502083961817
-0.16  -0.74  0.00639254061382
-0.16  -0.72  0.00813899240108
-0.16  -0.7  0.0103625774644
-0.16  -0.68  0.0131936493381
-0.16  -0.66  0.0167981743398
-0.16  -0.64  0.0213874610367
-0.16  -0.62  0.027230547817
-0.16  -0.6  0.0346699747641
-0.16  -0.58  0.0441418644319
-0.16  -0.56  0.0562014887171
-0.16  -0.54  0.0715558206403
-0.16  -0.52  0.0911049793231
-0.16  -0.5  0.115994997796
-0.16  -0.48  0.147685007051
-0.16  -0.46  0.188032774879
-0.16  -0.44  0.239403614048
-0.16  -0.42  0.304809044359
-0.16  -0.4  0.388083337392
-0.16  -0.38  0.49410829353
-0.16  -0.36  0.629099428428
-0.16  -0.34  0.800970346036
-0.16  -0.32  1.0197966589
-0.16  -0.3  1.2984066522
-0.16  -0.28  1.65313331807
-0.16  -0.26  2.10477184684
-0.16  -0.24  2.67979870639
-0.16  -0.22  3.41192377575
-0.16  -0.2  3.14198286738
-0.16  -0.18  3.16349839885
-0.16  -0.16  3.26603383165
-0.16  -0.14  3.43248832456
-0.16  -0.12  3.63840257692
-0.16  -0.1  3.85812517926
-0.16  -0.08  4.06865268205
-0.16  -0.06  4.25119377368
-0.16  -0.04  4.39146655144
-0.16  -0.02  4.47952698054
-0.16  6.17561557e-16  4.50952395432
-0.16  0.02  4.47952698054
-0.16  0.04  4.39146655144
-0.16  0.06  4.25119377368
-0.16  0.08  4.06865268205
-0.16  0.1  3.85812517926
-0.16  0.12  3.63840257692
-0.16  0.14  3.43248832456
-0.16  0.16  3.26603383165
-0.16  0.18  3.16349839885
-0.16  0.2  4.34406652401
-0.16  0.22  3.41192377575
-0.16  0.24  2.67979870639
-0.16  0.26  2.10477184684
-0.16  0.28  1.65313331807
-0.16  0.3  1.2984066522
-0.16  0.32  1.0197966589
-0.16  0.34  0.800970346036
-0.16  0.36  0.629099428428
-0.16  0.38  0.49410829353
-0.16  0.4  0.388083337392
-0.16  0.42  0.304809044359
-0.16  0.44  0.239403614048
-0.16  0.46  0.188032774879
-0.16  0.48  0.147685007051
-0.16  0.5  0.115994997796
-0.16  0.52  0.0911049793231
-0.16  0.54  0.0715558206402
-0.16  0.56  0.0562014887171
-0.16  0.58  0.0441418644319
-0.16  0.6  0.0346699747641
-0.16  0.62  0.027230547817
-0.16  0.64  0.0213874610367
-0.16  0.66  0.0167981743398
-0.16  0.68  0.0131936493381
-0.16  0.7  0.0103625774644
-0.16  0.72  0.00813899240108
-0.16  0.74  0.00639254061382
-0.16  0.76  0.00502083961817
-0.16  0.78  0.00394347599714
-0.16  0.8  0.00309729131434
-0.16  0.82  0.00243267956819
-0.16  0.84  0.00191067913247
-0.16  0.86  0.00150068870351
-0.16  0.88  0.00117867335576
-0.16  0.9  0.000925755538992
-0.16  0.92  0.000727108417092
-0.16  0.94  0.000571086672386
-0.16  0.96  0.000448543820578
-0.16  0.98  0.000352296015136
-0.14  -1  0.00035523049407
-0.14  -0.98  0.000452280003606
-0.14  -0.96  0.000575843586281
-0.14  -0.94  0.000733164927075
-0.14  -0.92  0.000933466696685
-0.14  -0.9  0.00118849121342
-0.14  -0.88  0.00151318881477
-0.14  -0.86  0.00192659429308
-0.14  -0.84  0.00245294277481
-0.14  -0.82  0.00312309045973
-0.14  -0.8  0.00397632350816
-0.14  -0.78  0.005062661119
-0.14  -0.76  0.00644578781208
-0.14  -0.74  0.00820678681464
-0.14  -0.72  0.0104488934145
-0.14  -0.7  0.0133035469366
-0.14  -0.68  0.0169380961289
-0.14  -0.66  0.0215656096707
-0.14  -0.64  0.0274573669279
-0.14  -0.62  0.0349587612
-0.14  -0.6  0.0445095477599
-0.14  -0.58  0.0566696236877
-0.14  -0.56  0.0721518507946
-0.14  -0.54  0.0918638458193
-0.14  -0.52  0.11696118777
-0.14  -0.5  0.14891516159
-0.14  -0.48  0.189599009503
-0.14  -0.46  0.241397746345
-0.14  -0.44  0.307347976624
-0.14  -0.42  0.3913159098
-0.14  -0.4  0.498224009622
-0.14  -0.38  0.634339564395
-0.14  -0.36  0.807642095094
-0.14  -0.34  1.02829113992
-0.14  -0.32  1.30922183831
-0.14  -0.3  1.66690322942
-0.14  -0.28  2.12230371884
-0.14  -0.26  2.7021203124
-0.14  -0.24  3.44034367837
-0.14  -0.22  4.38025078712
-0.14  -0.2  4.0336988258
-0.14  -0.18  4.06132061042
-0.14  -0.16  4.19295629156
-0.14  -0.14  4.40665169378
-0.14  -0.12  4.67100580168
-0.14  -0.1  4.95308716255
-0.14  -0.08  5.22336379251
-0.14  -0.06  5.45771127882
-0.14  -0.04  5.63779441829
-0.14  -0.02  5.75084699193
-0.14  6.17561557e-16  5.78935730946
-0.14  0.02  5.75084699193
-0.14  0.04  5.63779441829
-0.14  0.06  5.45771127882
-0.14  0.08  5.22336379251
-0.14  0.1  4.95308716255
-0.14  0.12  4.67100580168
-0.14  0.14  4.40665169378
-0.14  0.16  4.19295629156
-0.14  0.18  4.06132061042
-0.14  0.2  5.57694194294
-0.14  0.22  4.38025078711
-0.14  0.24  3.44034367837
-0.14  0.26  2.7021203124
-0.14  0.28  2.12230371884
-0.14  0.3  1.66690322942
-0.14  0.32  1.30922183831
-0.14  0.34  1.02829113992
-0.14  0.36  0.807642095094
-0.14  0.38  0.634339564395
-0.14  0.4  0.498224009622
-0.14  0.42  0.3913159098
-0.14  0.44  0.307347976624
-0.14  0.46  0.241397746345
-0.14  0.48  0.189599009503
-0.14  0.5  0.14891516159
-0.14  0.52  0.11696118777
-0.14  0.54  0.0918638458192
-0.14  0.56  0.0721518507946
-0.14  0.58  0.0566696236877
-0.14  0.6  0.0445095477599
-0.14  0.62  0.0349587612
-0.14  0.64  0.0274573669279
-0.14  0.66  0.0215656096707
-0.14  0.68  0.0169380961289
-0.14  0.7  0.0133035469366
-0.14  0.72  0.0104488934145
-0.14  0.74  0.00820678681464
-0.14  0.76  0.00644578781208
-0.14  0.78  0.005062661119
-0.14  0.8  0.00397632350816
-0.14  0.82  0.00312309045973
-0.14  0.84  0.00245294277481
-0.14  0.86  0.00192659429308
-0.14  0.88  0.00151318881477
-0.14  0.9  0.00118849121342
-0.14  0.92  0.000933466696685
-0.14  0.94  0.000733164927075
-0.14  0.96  0.000575843586281
-0.14  0.98  0.000452280003606
-0.12  -1  0.00045604730748
-0.12  -0.98  0.000580640123286
-0.12  -0.96  0.000739271885261
-0.12  -0.94  0.000941242085106
-0.12  -0.92  0.00119839084975
-0.12  -0.9  0.00152579304675
-0.12  -0.88  0.00194264202034
-0.12  -0.86  0.00247337476549
-0.12  -0.84  0.00314910450124
-0.12  -0.82  0.00400944462526
-0.12  -0.8  0.0051048309755
-0.12  -0.78  0.00649947853731
-0.12  -0.76  0.0082751459274
-0.12  -0.74  0.0105359283405
-0.12  -0.72  0.0134143599364
-0.12  -0.7  0.0170791834082
-0.12  -0.68  0.0217452422086
-0.12  -0.66  0.0276860753474
-0.12  -0.64  0.0352499531065
-0.12  -0.62  0.0448802937367
-0.12  -0.6  0.0571416580275
-0.12  -0.58  0.0727528456316
-0.12  -0.56  0.0926290333569
-0.12  -0.54  0.117935425703
-0.12  -0.52  0.150155562803
-0.12  -0.5  0.191178290208
-0.12  -0.48  0.243408488934
-0.12  -0.46  0.309908057136
-0.12  -0.44  0.394575408189
-0.12  -0.42  0.502374007913
-0.12  -0.4  0.639623348511
-0.12  -0.38  0.814369417041
-0.12  -0.36  1.03685637642
-0.12  -0.34  1.32012711041
-0.12  -0.32  1.68078783839
-0.12  -0.3  2.13998162403
-0.12  -0.28  2.72462784809
-0.12  -0.26  3.46900030693
-0.12  -0.24  4.41673645005
-0.12  -0.22  5.6233955443
-0.12  -0.2  5.17848979579
-0.12  -0.18  5.21395082943
-0.12  -0.16  5.38294560593
-0.12  -0.14  5.65728920658
-0.12  -0.12  5.99666879573
-0.12  -0.1  6.35880675196
-0.12  -0.08  6.70578971494
-0.12  -0.06  7.00664660062
-0.12  -0.04  7.23783855134
-0.12  -0.02  7.38297620892
-0.12  6.17561557e-16  7.43241601466
-0.12  0.02  7.38297620892
-0.12  0.04  7.23783855134
-0.12  0.06  7.00664660062
-0.12  0.08  6.70578971494
-0.12  0.1  6.35880675196
-0.12  0.12  5.99666879573
-0.12  0.14  5.65728920658
-0.12  0.16  5.38294560593
-0.12  0.18  5.21395082943
-0.12  0.2  7.15971573249
-0.12  0.22  5.6233955443
-0.12  0.24  4.41673645005
-0.12  0.26  3.46900030693
-0.12  0.28  2.72462784809
-0.12  0.3  2.13998162403
-0.12  0.32  1.68078783839
-0.12  0.34  1.32012711041
-0.12  0.36  1.03685637642
-0.12  0.38  0.81436941704
-0.12  0.4  0.639623348511
-0.12  0.42  0.502374007912
-0.12  0.44  0.394575408189
-0.12  0.46  0.309908057136
-0.12  0.48  0.243408488934
-0.12  0.5  0.191178290208
-0.12  0.52  0.150155562803
-0.12  0.54  0.117935425703
-0.12  0.56  0.0926290333569
-0.12  0.58  0.0727528456316
-0.12  0.6  0.0571416580275
-0.12  0.62  0.0448802937367
-0.12  0.64  0.0352499531065
-0.12  0.66  0.0276860753474
-0.12  0.68  0.0217452422086
-0.12  0.7  0.0170791834082
-0.12  0.72  0.0134143599364
-0.12  0.74  0.0105359283405
-0.12  0.76  0.00827514592739
-0.12  0.78  0.00649947853731
-0.12  0.8  0.0051048309755
-0.12  0.82  0.00400944462526
-0.12  0.84  0.00314910450124
-0.12  0.86  0.00247337476549
-0.12  0.88  0.00194264202034
-0.12  0.9  0.00152579304675
-0.12  0.92  0.00119839084975
-0.12  0.94  0.000941242085106
-0.12  0.96  0.000739271885261
-0.12  0.98  0.000580640123286
-0.1  -1  0.000585476613444
-0.1  -0.98  0.000745429711863
-0.1  -0.96  0.000949082239272
-0.1  -0.94  0.00120837294592
-0.1  -0.92  0.00153850226673
-0.1  -0.9  0.00195882341848
-0.1  -0.88  0.00249397694614
-0.1  -0.86  0.00317533522888
-0.1  -0.84  0.00404284162745
-0.1  -0.82  0.00514735208932
-0.1  -0.8  0.00655361648389
-0.1  -0.78  0.00834407444307
-0.1  -0.76  0.0106236882312
-0.1  -0.74  0.0135260959622
-0.1  -0.72  0.0172214458857
-0.1  -0.7  0.0219263710106
-0.1  -0.68  0.0279166888127
-0.1  -0.66  0.0355435705202
-0.1  -0.64  0.045254127873
-0.1  -0.62  0.0576176242165
-0.1  -0.6  0.0733588465051
-0.1  -0.58  0.0934005945877
-0.1  -0.56  0.118917778631
-0.1  -0.54  0.151406296042
-0.1  -0.52  0.192770725664
-0.1  -0.5  0.24543598017
-0.1  -0.48  0.312489462051
-0.1  -0.46  0.397862056841
-0.1  -0.44  0.506558573959
-0.1  -0.42  0.644951144345
-0.1  -0.4  0.821152774774
-0.1  -0.38  1.04549295777
-0.1  -0.36  1.33112321888
-0.1  -0.34  1.69478810036
-0.1  -0.32  2.1578067788
-0.1  -0.3  2.74732286217
-0.1  -0.28  3.49789563326
-0.1  -0.26  4.45352602334
-0.1  -0.24  5.67023608479
-0.1  -0.22  7.21935317966
-0.1  -0.2  6.64818017486
-0.1  -0.18  6.69370528936
-0.1  -0.16  6.91066192481
-0.1  -0.14  7.26286609221
-0.1  -0.12  7.6985639009
-0.1  -0.1  8.16347905495
-0.1  -0.08  8.60893812631
-0.1  -0.06  8.99518022811
-0.1  -0.04  9.29198601589
-0.1  -0.02  9.47831472094
-0.1  6.17561557e-16  9.54178587747
-0.1  0.02  9.47831472094
-0.1  0.04  9.29198601589
-0.1  0.06  8.99518022811
-0.1  0.08  8.60893812631
-0.1  0.1  8.16347905495
-0.1  0.12  7.6985639009
-0.1  0.14  7.26286609221
-0.1  0.16  6.91066192481
-0.1  0.18  6.69370528936
-0.1  0.2  9.19169141342
-0.1  0.22  7.21935317966
-0.1  0.24  5.67023608479
-0.1  0.26  4.45352602334
-0.1  0.28  3.49789563326
-0.1  0.3  2.74732286217
-0.1  0.32  2.1578067788
-0.1  0.34  1.69478810036
-0.1  0.36  1.33112321888
-0.1  0.38  1.04549295777
-0.1  0.4  0.821152774774
-0.1  0.42  0.644951144345
-0.1  0.44  0.506558573959
-0.1  0.46  0.397862056841
-0.1  0.48  0.312489462051
-0.1  0.5  0.24543598017
-0.1  0.52  0.192770725664
-0.1  0.54  0.151406296042
-0.1  0.56  0.118917778631
-0.1  0.58  0.0934005945877
-0.1  0.6  0.073358846505
-0.1  0.62  0.0576176242165
-0.1  0.64  0.045254127873
-0.1  0.66  0.0355435705201
-0.1  0.68  0.0279166888127
-0.1  0.7  0.0219263710106
-0.1  0.72  0.0172214458856
-0.1  0.74  0.0135260959622
-0.1  0.76  0.0106236882311
-0.1  0.78  0.00834407444306
-0.1  0.8  0.00655361648389
-0.1  0.82  0.00514735208932
-0.1  0.84  0.00404284162745
-0.1  0.86  0.00317533522888
-0.1  0.88  0.00249397694614
-0.1  0.9  0.00195882341848
-0.1  0.92  0.00153850226673
-0.1  0.94  0.00120837294592
-0.1  0.96  0.000949082239271
-0.1  0.98  0.000745429711863
-0.08  -1  0.000751638830594
-0.08  -0.98  0.000956987698652
-0.08  -0.96  0.00121843818879
-0.08  -0.94  0.00155131734921
-0.08  -0.92  0.00197513960093
-0.08  -0.9  0.00251475073436
-0.08  -0.88  0.00320178444754
-0.08  -0.86  0.00407651681275
-0.08  -0.84  0.00519022738629
-0.08  -0.82  0.006608205377
-0.08  -0.8  0.00841357710453
-0.08  -0.78  0.0107121791251
-0.08  -0.76  0.0136387627025
-0.08  -0.74  0.0173648933503
-0.08  -0.72  0.02210900854
-0.08  -0.7  0.0281492231921
-0.08  -0.68  0.0358396336445
-0.08  -0.66  0.0456310758917
-0.08  -0.64  0.0580975550054
-0.08  -0.62  0.0739698951132
-0.08  -0.6  0.094178582602
-0.08  -0.58  0.119908314151
-0.08  -0.56  0.152667447367
-0.08  -0.54  0.194376425442
-0.08  -0.52  0.247480359562
-0.08  -0.5  0.315092368993
-0.08  -0.48  0.401176081906
-0.08  -0.46  0.510777995696
-0.08  -0.44  0.650323318497
-0.08  -0.42  0.82799263505
-0.08  -0.4  1.05420147824
-0.08  -0.38  1.34221092035
-0.08  -0.36  1.70890497868
-0.08  -0.34  2.17578040968
-0.08  -0.32  2.77020691625
-0.08  -0.3  3.52703164561
-0.08  -0.28  4.49062203844
-0.08  -0.26  5.71746678746
-0.08  -0.24  7.2794873819
-0.08  -0.22  9.26825437088
-0.08  -0.2  8.53497860968
-0.08  -0.18  8.59342405914
-0.08  -0.16  8.87195445303
-0.08  -0.14  9.3241165419
-0.08  -0.12  9.88346833135
-0.08  -0.1  10.4803295461
-0.08  -0.08  11.0522129105
-0.08  -0.06  11.5480731294
-0.08  -0.04  11.9291144044
-0.08  -0.02  12.1683244544
-0.08  6.17561557e-16  12.2498091538
-0.08  0.02  12.1683244544
-0.08  0.04  11.9291144044
-0.08  0.06  11.5480731294
-0.08  0.08  11.0522129105
-0.08  0.1  10.4803295461
-0.08  0.12  9.88346833135
-0.08  0.14  9.3241165419
-0.08  0.16  8.87195445303
-0.08  0.18  8.59342405914
-0.08  0.2  11.8003555164
-0.08  0.22  9.26825437088
-0.08  0.24  7.2794873819
-0.08  0.26  5.71746678746
-0.08  0.28  4.49062203844
-0.08  0.3  3.52703164561
-0.08  0.32  2.77020691625
-0.08  0.34  2.17578040968
-0.08  0.36  1.70890497868
-0.08  0.38  1.34221092035
-0.08  0.4  1.05420147824
-0.08  0.42  0.827992635049
-0.08  0.44  0.650323318497
-0.08  0.46  0.510777995696
-0.08  0.48  0.401176081906
-0.08  0.5  0.315092368993
-0.08  0.52  0.247480359562
-0.08  0.54  0.194376425442
-0.08  0.56  0.152667447366
-0.08  0.58  0.119908314151
-0.08  0.6  0.0941785826019
-0.08  0.62  0.0739698951131
-0.08  0.64  0.0580975550054
-0.08  0.66  0.0456310758917
-0.08  0.68  0.0358396336445
-0.08  0.7  0.0281492231921
-0.08  0.72  0.02210900854
-0.08  0.74  0.0173648933503
-0.08  0.76  0.0136387627025
-0.08  0.78  0.0107121791251
-0.08  0.8  0.00841357710453
-0.08  0.82  0.006608205377
-0.08  0.84  0.00519022738629
-0.08  0.86  0.00407651681275
-0.08  0.88  0.00320178444754
-0.08  0.9  0.00251475073436
-0.08  0.92  0.00197513960093
-0.08  0.94  0.00155131734921
-0.08  0.96  0.00121843818879
-0.08  0.98  0.000956987698652
-0.06  -1  0.000964959007214
-0.06  -0.98  0.00122858727094
-0.06  -0.96  0.00156423917598
-0.06  -0.94  0.00199159169037
-0.06  -0.92  0.00253569755958
-0.06  -0.9  0.00322845397716
-0.06  -0.88  0.0041104724983
-0.06  -0.86  0.00523345981662
-0.06  -0.84  0.00666324897283
-0.06  -0.82  0.00848365869419
-0.06  -0.8  0.0108014071113
-0.06  -0.78  0.0137523679099
-0.06  -0.76  0.0175095356724
-0.06  -0.74  0.0222931673639
-0.06  -0.72  0.0283836944859
-0.06  -0.7  0.0361381628512
-0.06  -0.68  0.0460111637303
-0.06  -0.66  0.0585814834178
-0.06  -0.64  0.0745860335014
-0.06  -0.62  0.094963050932
-0.06  -0.6  0.120907100418
-0.06  -0.58  0.153939103556
-0.06  -0.56  0.195995500031
-0.06  -0.54  0.249541767783
-0.06  -0.52  0.317716957065
-0.06  -0.5  0.404517711418
-0.06  -0.48  0.515032563457
-0.06  -0.46  0.655740240621
-0.06  -0.44  0.83488946851
-0.06  -0.42  1.06298253706
-0.06  -0.4  1.35339097775
-0.06  -0.38  1.72313944471
-0.06  -0.36  2.19390375341
-0.06  -0.34  2.79328158497
-0.06  -0.32  3.5564103488
-0.06  -0.3  4.52802704788
-0.06  -0.28  5.76509090219
-0.06  -0.26  7.34012247697
-0.06  -0.24  9.34545506586
-0.06  -0.22  11.8986475583
-0.06  -0.2  10.9572631835
-0.06  -0.18  11.0322958463
-0.06  -0.16  11.3898750471
-0.06  -0.14  11.9703637907
-0.06  -0.12  12.6884633958
-0.06  -0.1  13.4547178545
-0.06  -0.08  14.1889055801
-0.06  -0.06  14.8254942782
-0.06  -0.04  15.3146776405
-0.06  -0.02  15.6217771183
-0.06  6.17561557e-16  15.7263877257
-0.06  0.02  15.6217771183
-0.06  0.04  15.3146776405
-0.06  0.06  14.8254942782
-0.06  0.08  14.1889055801
-0.06  0.1  13.4547178545
-0.06  0.12  12.6884633958
-0.06  0.14  11.9703637907
-0.06  0.16  11.3898750471
-0.06  0.18  11.0322958463
-0.06  0.2  15.1493761104
-0.06  0.22  11.8986475583
-0.06  0.24  9.34545506586
-0.06  0.26  7.34012247697
-0.06  0.28  5.76509090219
-0.06  0.3  4.52802704788
-0.06  0.32  3.5564103488
-0.06  0.34  2.79328158497
-0.06  0.36  2.19390375341
-0.06  0.38  1.72313944471
-0.06  0.4  1.35339097775
-0.06  0.42  1.06298253706
-0.06  0.44  0.834889468509
-0.06  0.46  0.655740240621
-0.06  0.48  0.515032563456
-0.06  0.5  0.404517711418
-0.06  0.52  0.317716957065
-0.06  0.54  0.249541767783
-0.06  0.56  0.195995500031
-0.06  0.58  0.153939103556
-0.06  0.6  0.120907100418
-0.06  0.62  0.094963050932
-0.06  0.64  0.0745860335014
-0.06  0.66  0.0585814834178
-0.06  0.68  0.0460111637303
-0.06  0.7  0.0361381628512
-0.06  0.72  0.0283836944859
-0.06  0.74  0.0222931673639
-0.06  0.76  0.0175095356724
-0.06  0.78  0.0137523679099
-0.06  0.8  0.0108014071113
-0.06  0.82  0.00848365869419
-0.06  0.84  0.00666324897283
-0.06  0.86  0.00523345981662
-0.06  0.88  0.0041104724983
-0.06  0.9  0.00322845397716
-0.06  0.92  0.00253569755958
-0.06  0.94  0.00199159169037
-0.06  0.96  0.00156423917598
-0.06  0.98  0.00122858727093
-0.04  -1  0.0012388208907
-0.04  -0.98  0.00157726863619
-0.04  -0.96  0.00200818081885
-0.04  -0.94  0.00255681886312
-0.04  -0.92  0.00325534565285
-0.04  -0.9  0.00414471102055
-0.04  -0.88  0.00527705235506
-0.04  -0.86  0.00671875105887
-0.04  -0.84  0.00855432403428
-0.04  -0.82  0.0108913783294
-0.04  -0.8  0.0138669194012
-0.04  -0.78  0.0176553828049
-0.04  -0.76  0.0224788601541
-0.04  -0.74  0.0286201188278
-0.04  -0.72  0.0364391786818
-0.04  -0.7  0.0463944175421
-0.04  -0.68  0.059069442752
-0.04  -0.66  0.0752073040656
-0.04  -0.64  0.0957540535562
-0.04  -0.62  0.121914206158
-0.04  -0.6  0.155221352111
-0.04  -0.58  0.197628060835
-0.04  -0.56  0.251620346675
-0.04  -0.54  0.320363406861
-0.04  -0.52  0.407887175311
-0.04  -0.5  0.519322569993
-0.04  -0.48  0.661202283447
-0.04  -0.46  0.841843749717
-0.04  -0.44  1.07183673844
-0.04  -0.42  1.36466416036
-0.04  -0.4  1.73749247791
-0.04  -0.38  2.21217805704
-0.04  -0.36  2.81654845605
-0.04  -0.34  3.58603376434
-0.04  -0.32  4.56574362546
-0.04  -0.3  5.81311170594
-0.04  -0.28  7.40126263711
-0.04  -0.26  9.42329881044
-0.04  -0.24  11.9977583319
-0.04  -0.22  15.2755640976
-0.04  -0.2  14.0670084794
-0.04  -0.18  14.1633359186
-0.04  -0.16  14.6223985117
-0.04  -0.14  15.3676338812
-0.04  -0.12  16.2895350042
-0.04  -0.1  17.2732576535
-0.04  -0.08  18.2158128143
-0.04  -0.06  19.0330696843
-0.04  -0.04  19.6610865888
-0.04  -0.02  20.0553429724
-0.04  6.17561557e-16  20.1896427768
-0.04  0.02  20.0553429724
-0.04  0.04  19.6610865888
-0.04  0.06  19.0330696843
-0.04  0.08  18.2158128143
-0.04  0.1  17.2732576535
-0.04  0.12  16.2895350042
-0.04  0.14  15.3676338812
-0.04  0.16  14.6223985117
-0.04  0.18  14.1633359186
-0.04  0.2  19.448871368
-0.04  0.22  15.2755640976
-0.04  0.24  11.9977583319
-0.04  0.26  9.42329881044
-0.04  0.28  7.40126263711
-0.04  0.3  5.81311170594
-0.04  0.32  4.56574362545
-0.04  0.34  3.58603376434
-0.04  0.36  2.81654845605
-0.04  0.38  2.21217805704
-0.04  0.4  1.73749247791
-0.04  0.42  1.36466416036
-0.04  0.44  1.07183673844
-0.04  0.46  0.841843749717
-0.04  0.48  0.661202283447
-0.04  0.5  0.519322569993
-0.04  0.52  0.407887175311
-0.04  0.54  0.320363406861
-0.04  0.56  0.251620346675
-0.04  0.58  0.197628060835
-0.04  0.6  0.155221352111
-0.04  0.62  0.121914206158
-0.04  0.64  0.0957540535562
-0.04  0.66  0.0752073040656
-0.04  0.68  0.059069442752
-0.04  0.7  0.0463944175421
-0.04  0.72  0.0364391786817
-0.04  0.74  0.0286201188278
-0.04  0.76  0.022478860154
-0.04  0.78  0.0176553828049
-0.04  0.8  0.0138669194012
-0.04  0.82  0.0108913783294
-0.04  0.84  0.00855432403428
-0.04  0.86  0.00671875105887
-0.04  0.88  0.00527705235506
-0.04  0.9  0.00414471102055
-0.04  0.92  0.00325534565285
-0.04  0.94  0.00255681886312
-0.04  0.96  0.00200818081885
-0.04  0.98  0.00157726863619
-0.02  -1  0.00159040662637
-0.02  -0.98  0.00202490812786
-0.02  -0.96  0.00257811609831
-0.02  -0.94  0.00328246132498
-0.02  -0.92  0.00417923473543
-0.02  -0.9  0.00532100800118
-0.02  -0.88  0.00677471545414
-0.02  -0.86  0.00862557798719
-0.02  -0.84  0.0109820989703
-0.02  -0.82  0.0139824250587
-0.02  -0.8  0.0178024447831
-0.02  -0.78  0.0226660996877
-0.02  -0.76  0.0288585124859
-0.02  -0.74  0.0367427018487
-0.02  -0.72  0.0467808636984
-0.02  -0.7  0.0595614665841
-0.02  -0.68  0.0758337495545
-0.02  -0.66  0.0965516449025
-0.02  -0.64  0.122929700669
-0.02  -0.62  0.156514281263
-0.02  -0.6  0.199274220191
-0.02  -0.58  0.253716239262
-0.02  -0.56  0.323031900481
-0.02  -0.54  0.411284705433
-0.02  -0.52  0.523648310496
-0.02  -0.5  0.666709822813
-0.02  -0.48  0.848855957188
-0.02  -0.46  1.08076469162
-0.02  -0.44  1.37603124389
-0.02  -0.42  1.75196506589
-0.02  -0.4  2.230604578
-0.02  -0.38  2.84000913047
-0.02  -0.36  3.61590393058
-0.02  -0.34  4.6037743664
-0.02  -0.32  5.86153250296
-0.02  -0.3  7.46291206929
-0.02  -0.28  9.50179096096
-0.02  -0.26  12.0976946569
-0.02  -0.24  15.4028031782
-0.02  -0.22  19.6108723583
-0.02  -0.2  18.0593204931
-0.02  -0.18  18.1829863101
-0.02  -0.16  18.7723339676
-0.02  -0.14  19.7290721683
-0.02  -0.12  20.9126150564
-0.02  -0.1  22.1755248375
-0.02  -0.08  23.3855835189
-0.02  -0.06  24.4347834083
-0.02  -0.04  25.2410357518
-0.02  -0.02  25.7471847599
-0.02  6.17561557e-16  25.9195997559
-0.02  0.02  25.7471847599
-0.02  0.04  25.2410357518
-0.02  0.06  24.4347834083
-0.02  0.08  23.3855835189
-0.02  0.1  22.1755248375
-0.02  0.12  20.9126150564
-0.02  0.14  19.7290721683
-0.02  0.16  18.7723339676
-0.02  0.18  18.1829863101
-0.02  0.2  24.9685924181
-0.02  0.22  19.6108723583
-0.02  0.24  15.4028031782
-0.02  0.26  12.0976946569
-0.02  0.28  9.50179096095
-0.02  0.3  7.46291206929
-0.02  0.32  5.86153250296
-0.02  0.34  4.6037743664
-0.02  0.36  3.61590393058
-0.02  0.38  2.84000913047
-0.02  0.4  2.230604578
-0.02  0.42  1.75196506589
-0.02  0.44  1.37603124389
-0.02  0.46  1.08076469162
-0.02  0.48  0.848855957187
-0.02  0.5  0.666709822813
-0.02  0.52  0.523648310496
-0.02  0.54  0.411284705433
-0.02  0.56  0.323031900481
-0.02  0.58  0.253716239262
-0.02  0.6  0.199274220191
-0.02  0.62  0.156514281263
-0.02  0.64  0.122929700669
-0.02  0.66  0.0965516449024
-0.02  0.68  0.0758337495545
-0.02  0.7  0.0595614665841
-0.02  0.72  0.0467808636984
-0.02  0.74  0.0367427018487
-0.02  0.76  0.0288585124859
-0.02  0.78  0.0226660996877
-0.02  0.8  0.0178024447831
-0.02  0.82  0.0139824250587
-0.02  0.84  0.0109820989703
-0.02  0.86  0.00862557798719
-0.02  0.88  0.00677471545414
-0.02  0.9  0.00532100800118
-0.02  0.92  0.00417923473542
-0.02  0.94  0.00328246132498
-0.02  0.96  0.00257811609831
-0.02  0.98  0.00202490812786
2.8449465e-16  -1  0.00204177476839
2.8449465e-16  -0.98  0.00259959073059
2.8449465e-16  -0.96  0.00330980285936
2.8449465e-16  -0.94  0.00421404601845
2.8449465e-16  -0.92  0.0053653297795
2.8449465e-16  -0.9  0.0068311460095
2.8449465e-16  -0.88  0.00869742545582
2.8449465e-16  -0.86  0.0110735752763
2.8449465e-16  -0.84  0.0140988928302
2.8449465e-16  -0.82  0.0179507317263
2.8449465e-16  -0.8  0.0228548988486
2.8449465e-16  -0.78  0.0290988918638
2.8449465e-16  -0.76  0.0370487532371
2.8449465e-16  -0.74  0.0471705287901
2.8449465e-16  -0.72  0.0600575887696
2.8449465e-16  -0.7  0.0764654130733
2.8449465e-16  -0.68  0.0973558798521
2.8449465e-16  -0.66  0.123953653827
2.8449465e-16  -0.64  0.157817979975
2.8449465e-16  -0.62  0.200934091368
2.8449465e-16  -0.6  0.255829589761
2.8449465e-16  -0.58  0.32572262154
2.8449465e-16  -0.56  0.414710535565
2.8449465e-16  -0.54  0.528010082613
2.8449465e-16  -0.52  0.672263237686
2.8449465e-16  -0.5  0.855926573423
2.8449465e-16  -0.48  1.08976701093
2.8449465e-16  -0.46  1.38749301049
2.8449465e-16  -0.44  1.76655820449
2.8449465e-16  -0.42  2.24918458419
2.8449465e-16  -0.4  2.86366522253
2.8449465e-16  -0.38  3.64602290285
2.8449465e-16  -0.36  4.64212188756
2.8449465e-16  -0.34  5.91035662504
2.8449465e-16  -0.32  7.52507501554
2.8449465e-16  -0.3  9.58093691837
2.8449465e-16  -0.28  12.1984634099
2.8449465e-16  -0.26  15.5311021072
2.8449465e-16  -0.24  19.7742227493
2.8449465e-16  -0.22  25.1765703835
2.8449465e-16  -0.2  23.1846776199
2.8449465e-16  -0.18  23.3434406311
2.8449465e-16  -0.16  24.1000491342
2.8449465e-16  -0.14  25.3283160979
2.8449465e-16  -0.12  26.8477564513
2.8449465e-16  -0.1  28.4690885578
2.8449465e-16  -0.08  30.0225700656
2.8449465e-16  -0.06  31.3695399698
2.8449465e-16  -0.04  32.4046121737
2.8449465e-16  -0.02  33.0544096889
2.8449465e-16  6.17561557e-16  33.2757572251
2.8449465e-16  0.02  33.0544096889
2.8449465e-16  0.04  32.4046121737
2.8449465e-16  0.06  31.3695399698
2.8449465e-16  0.08  30.0225700656
2.8449465e-16  0.1  28.4690885578
2.8449465e-16  0.12  26.8477564513
2.8449465e-16  0.14  25.3283160979
2.8449465e-16  0.16  24.1000491342
2.8449465e-16  0.18  23.3434406311
2.8449465e-16  0.2  32.0548475819
2.8449465e-16  0.22  25.1765703835
2.8449465e-16  0.24  19.7742227492
2.8449465e-16  0.26  15.5311021072
2.8449465e-16  0.28  12.1984634099
2.8449465e-16  0.3  9.58093691836
2.8449465e-16  0.32  7.52507501554
2.8449465e-16  0.34  5.91035662504
2.8449465e-16  0.36  4.64212188756
2.8449465e-16  0.38  3.64602290285
2.8449465e-16  0.4  2.86366522253
2.8449465e-16  0.42  2.24918458419
2.8449465e-16  0.44  1.76655820449
2.8449465e-16  0.46  1.38749301048
2.8449465e-16  0.48  1.08976701093
2.8449465e-16  0.5  0.855926573423
2.8449465e-16  0.52  0.672263237686
2.8449465e-16  0.54  0.528010082613
2.8449465e-16  0.56  0.414710535565
2.8449465e-16  0.58  0.32572262154
2.8449465e-16  0.6  0.255829589761
2.8449465e-16  0.62  0.200934091368
2.8449465e-16  0.64  0.157817979975
2.8449465e-16  0.66  0.123953653827
2.8449465e-16  0.68  0.0973558798521
2.8449465e-16  0.7  0.0764654130732
2.8449465e-16  0.72  0.0600575887696
2.8449465e-16  0.74  0.0471705287901
2.8449465e-16  0.76  0.037048753237
2.8449465e-16  0.78  0.0290988918638
2.8449465e-16  0.8  0.0228548988486
2.8449465e-16  0.82  0.0179507317263
2.8449465e-16  0.84  0.0140988928301
2.8449465e-16  0.86  0.0110735752763
2.8449465e-16  0.88  0.00869742545582
2.8449465e-16  0.9  0.0068311460095
2.8449465e-16  0.92  0.0053653297795
2.8449465e-16  0.94  0.00421404601845
2.8449465e-16  0.96  0.00330980285936
2.8449465e-16  0.98  0.00259959073059
0.02  -1  0.00252951701044
0.02  -0.98  0.00322058489263
0.02  -0.96  0.00410045356794
0.02  -0.94  0.0052207036993
0.02  -0.92  0.00664700786492
0.02  -0.9  0.00846298049098
0.02  -0.88  0.0107750795916
0.02  -0.86  0.0137188476719
0.02  -0.84  0.0174668576546
0.02  -0.82  0.022238829647
0.02  -0.8  0.0283145116222
0.02  -0.78  0.0360500791243
0.02  -0.76  0.0458990153957
0.02  -0.74  0.0584386959882
0.02  -0.72  0.0744042363296
0.02  -0.7  0.0947315864972
0.02  -0.68  0.120612399548
0.02  -0.66  0.153563889962
0.02  -0.64  0.195517777514
0.02  -0.62  0.248933530751
0.02  -0.6  0.316942548754
0.02  -0.58  0.403531733582
0.02  -0.56  0.513777214981
0.02  -0.54  0.654141929039
0.02  -0.52  0.83285449578
0.02  -0.5  1.0603916067
0.02  -0.48  1.35009220128
0.02  -0.46  1.71893943751
0.02  -0.44  2.18855629788
0.02  -0.42  2.78647319647
0.02  -0.4  3.54774189825
0.02  -0.38  4.51699036349
0.02  -0.36  5.7510389789
0.02  -0.34  7.32223154693
0.02  -0.32  9.32267630661
0.02  -0.3  11.8696456074
0.02  -0.28  15.1124507827
0.02  -0.26  19.2411952481
0.02  -0.24  24.497918961
0.02  -0.22  31.1907875618
0.02  -0.2  28.7230684448
0.02  -0.18  28.919757004
0.02  -0.16  29.8571052896
0.02  -0.14  31.3787825217
0.02  -0.12  33.2611890827
0.02  -0.1  35.2698274529
0.02  -0.08  37.1944069708
0.02  -0.06  38.8631430812
0.02  -0.04  40.1454748973
0.02  -0.02  40.9504970248
0.02  6.17561557e-16  41.224720395
0.02  0.02  40.9504970248
0.02  0.04  40.1454748973
0.02  0.06  38.8631430812
0.02  0.08  37.1944069708
0.02  0.1  35.2698274529
0.02  0.12  33.2611890827
0.02  0.14  31.3787825217
0.02  0.16  29.8571052896
0.02  0.18  28.919757004
0.02  0.2  39.7121580112
0.02  0.22  31.1907875618
0.02  0.24  24.497918961
0.02  0.26  19.2411952481
0.02  0.28  15.1124507827
0.02  0.3  11.8696456074
0.02  0.32  9.3226763066
0.02  0.34  7.32223154693
0.02  0.36  5.75103897889
0.02  0.38  4.51699036349
0.02  0.4  3.54774189825
0.02  0.42  2.78647319647
0.02  0.44  2.18855629788
0.02  0.46  1.71893943751
0.02  0.48  1.35009220128
0.02  0.5  1.0603916067
0.02  0.52  0.83285449578
0.02  0.54  0.654141929038
0.02  0.56  0.513777214981
0.02  0.58  0.403531733582
0.02  0.6  0.316942548754
0.02  0.62  0.248933530751
0.02  0.64  0.195517777514
0.02  0.66  0.153563889962
0.02  0.68  0.120612399548
0.02  0.7  0.0947315864972
0.02  0.72  0.0744042363296
0.02  0.74  0.0584386959882
0.02  0.76  0.0458990153957
0.02  0.78  0.0360500791243
0.02  0.8  0.0283145116222
0.02  0.82  0.0222388296469
0.02  0.84  0.0174668576546
0.02  0.86  0.0137188476719
0.02  0.88  0.0107750795916
0.02  0.9  0.00846298049098
0.02  0.92  0.00664700786492
0.02  0.94  0.0052207036993
0.02  0.96  0.00410045356794
0.02  0.98  0.00322058489263
0.04  -1  0.00296613256925
0.04  -0.98  0.00377648448404
0.04  -0.96  0.00480822577052
0.04  -0.94  0.00612184034065
0.04  -0.92  0.00779433640288
0.04  -0.9  0.00992376092495
0.04  -0.88  0.0126349474548
0.04  -0.86  0.016086834255
0.04  -0.84  0.0204817817623
0.04  -0.82  0.0260774355917
0.04  -0.8  0.0332018305306
0.04  -0.78  0.0422726209681
0.04  -0.76  0.053821565105
0.04  -0.74  0.0685256982892
0.04  -0.72  0.0872470229519
0.04  -0.7  0.111083041895
0.04  -0.68  0.141431097351
0.04  -0.66  0.180070287568
0.04  -0.64  0.229265763131
0.04  -0.62  0.291901517203
0.04  -0.6  0.371649454247
0.04  -0.58  0.473184648596
0.04  -0.56  0.602459411976
0.04  -0.54  0.767052236701
0.04  -0.52  0.976612070676
0.04  -0.5  1.243423969
0.04  -0.48  1.58312928246
0.04  -0.46  2.01564260257
0.04  -0.44  2.56631921745
0.04  -0.42  3.26744151839
0.04  -0.4  4.1601114949
0.04  -0.38  5.29666026235
0.04  -0.36  6.74371587615
0.04  -0.34  8.58610927749
0.04  -0.32  10.9318473493
0.04  -0.3  13.9184446186
0.04  -0.28  17.7209847898
0.04  -0.26  22.5623847007
0.04  -0.24  28.7264624072
0.04  -0.22  36.5745754884
0.04  -0.2  33.6809076402
0.04  -0.18  33.9115462715
0.04  -0.16  35.0106886245
0.04  -0.14  36.7950199333
0.04  -0.12  39.0023454371
0.04  -0.1  41.3576914043
0.04  -0.08  43.6144692661
0.04  -0.06  45.571243032
0.04  -0.04  47.0749159263
0.04  -0.02  48.0188915317
0.04  6.17561557e-16  48.3404481238
0.04  0.02  48.0188915317
0.04  0.04  47.0749159263
0.04  0.06  45.571243032
0.04  0.08  43.6144692661
0.04  0.1  41.3576914043
0.04  0.12  39.0023454371
0.04  0.14  36.7950199333
0.04  0.16  35.0106886245
0.04  0.18  33.9115462715
0.04  0.2  46.5668049616
0.04  0.22  36.5745754883
0.04  0.24  28.7264624072
0.04  0.26  22.5623847007
0.04  0.28  17.7209847898
0.04  0.3  13.9184446186
0.04  0.32  10.9318473493
0.04  0.34  8.58610927749
0.04  0.36  6.74371587615
0.04  0.38  5.29666026235
0.04  0.4  4.1601114949
0.04  0.42  3.26744151839
0.04  0.44  2.56631921745
0.04  0.46  2.01564260256
0.04  0.48  1.58312928246
0.04  0.5  1.243423969
0.04  0.52  0.976612070676
0.04  0.54  0.7670522367
0.04  0.56  0.602459411975
0.04  0.58  0.473184648596
0.04  0.6  0.371649454247
0.04  0.62  0.291901517203
0.04  0.64  0.229265763131
0.04  0.66  0.180070287568
0.04  0.68  0.141431097351
0.04  0.7  0.111083041895
0.04  0.72  0.0872470229518
0.04  0.74  0.0685256982892
0.04  0.76  0.053821565105
0.04  0.78  0.042272620968
0.04  0.8  0.0332018305306
0.04  0.82  0.0260774355916
0.04  0.84  0.0204817817623
0.04  0.86  0.016086834255
0.04  0.88  0.0126349474548
0.04  0.9  0.00992376092494
0.04  0.92  0.00779433640288
0.04  0.94  0.00612184034065
0.04  0.96  0.00480822577051
0.04  0.98  0.00377648448404
0.06  -1  0.00334279655638
0.06  -0.98  0.00425605364351
0.06  -0.96  0.00541881395142
0.06  -0.94  0.00689924213827
0.06  -0.92  0.00878412555021
0.06  -0.9  0.0111839619679
0.06  -0.88  0.0142394373333
0.06  -0.86  0.0181296732008
0.06  -0.84  0.0230827274052
0.06  -0.82  0.0293889635274
0.06  -0.8  0.037418072919
0.06  -0.78  0.047640747169
0.06  -0.76  0.0606562715225
0.06  -0.74  0.0772276568619
0.06  -0.72  0.0983263697995
0.06  -0.7  0.125189283099
0.06  -0.68  0.159391185038
0.06  -0.66  0.202937098439
0.06  -0.64  0.2583798214
0.06  -0.62  0.32896958033
0.06  -0.6  0.418844568419
0.06  -0.58  0.53327353951
0.06  -0.56  0.678964678987
0.06  -0.54  0.864458858648
0.06  -0.52  1.10063032941
0.06  -0.5  1.40132420405
0.06  -0.48  1.78416810111
0.06  -0.46  2.27160553126
0.06  -0.44  2.89221160633
0.06  -0.42  3.68236820198
0.06  -0.4  4.68839677751
0.06  -0.38  5.96927388508
0.06  -0.36  7.60008856035
0.06  -0.34  9.67644427734
0.06  -0.32  12.3200635241
0.06  -0.3  15.6859235571
0.06  -0.28  19.9713416539
0.06  -0.26  25.4275424718
0.06  -0.24  32.3743856251
0.06  -0.22  41.2191168599
0.06  -0.2  37.9579871927
0.06  -0.18  38.2179142205
0.06  -0.16  39.4566347384
0.06  -0.14  41.4675551594
0.06  -0.12  43.9551850681
0.06  -0.1  46.6096323002
0.06  -0.08  49.1529944355
0.06  -0.06  51.3582554795
0.06  -0.04  53.0528771647
0.06  -0.02  54.1167265812
0.06  6.17561557e-16  54.4791170826
0.06  0.02  54.1167265812
0.06  0.04  53.0528771647
0.06  0.06  51.3582554795
0.06  0.08  49.1529944355
0.06  0.1  46.6096323002
0.06  0.12  43.9551850681
0.06  0.14  41.4675551594
0.06  0.16  39.4566347384
0.06  0.18  38.2179142205
0.06  0.2  52.4802420772
0.06  0.22  41.2191168599
0.06  0.24  32.3743856251
0.06  0.26  25.4275424718
0.06  0.28  19.9713416539
0.06  0.3  15.6859235571
0.06  0.32  12.3200635241
0.06  0.34  9.67644427734
0.06  0.36  7.60008856035
0.06  0.38  5.96927388508
0.06  0.4  4.68839677751
0.06  0.42  3.68236820198
0.06  0.44  2.89221160632
0.06  0.46  2.27160553126
0.06  0.48  1.78416810111
0.06  0.5  1.40132420405
0.06  0.52  1.10063032941
0.06  0.54  0.864458858647
0.06  0.56  0.678964678987
0.06  0.58  0.53327353951
0.06  0.6  0.418844568419
0.06  0.62  0.32896958033
0.06  0.64  0.2583798214
0.06  0.66  0.202937098439
0.06  0.68  0.159391185038
0.06  0.7  0.125189283099
0.06  0.72  0.0983263697995
0.06  0.74  0.0772276568619
0.06  0.76  0.0606562715225
0.06  0.78  0.047640747169
0.06  0.8  0.037418072919
0.06  0.82  0.0293889635274
0.06  0.84  0.0230827274052
0.06  0.86  0.0181296732008
0.06  0.88  0.0142394373333
0.06  0.9  0.0111839619679
0.06  0.92  0.00878412555021
0.06  0.94  0.00689924213827
0.06  0.96  0.00541881395142
0.06  0.98  0.00425605364351
0.08  -1  0.00365189582662
0.08  -0.98  0.004649599303
0.08  -0.96  0.00591987688172
0.08  -0.94  0.00753719622078
0.08  -0.92  0.00959636965524
0.08  -0.9  0.0122181123939
0.08  -0.88  0.0155561192234
0.08  -0.86  0.0198060745795
0.08  -0.84  0.0252171241821
0.08  -0.82  0.0321064807398
0.08  -0.8  0.0408780199537
0.08  -0.78  0.0520459569792
0.08  -0.76  0.0662649913314
0.08  -0.74  0.0843686874258
0.08  -0.72  0.10741834074
0.08  -0.7  0.136765194284
0.08  -0.68  0.174129652709
0.08  -0.66  0.221702137822
0.08  -0.64  0.282271497993
0.08  -0.62  0.359388499189
0.08  -0.6  0.457573982027
0.08  -0.58  0.582583887633
0.08  -0.56  0.741746688975
0.08  -0.54  0.944393008947
0.08  -0.52  1.20240261076
0.08  -0.5  1.53090082695
0.08  -0.48  1.94914525384
0.08  -0.46  2.48165469224
0.08  -0.44  3.15964651653
0.08  -0.42  4.0228667351
0.08  -0.4  5.1219200261
0.08  -0.38  6.52123634245
0.08  -0.36  8.30284799788
0.08  -0.34  10.5711986586
0.08  -0.32  13.4592661589
0.08  -0.3  17.1363580788
0.08  -0.28  21.8180370859
0.08  -0.26  27.7787578955
0.08  -0.24  35.3679566673
0.08  -0.22  45.0305360492
0.08  -0.2  41.4678586261
0.08  -0.18  41.7518203964
0.08  -0.16  43.1050820184
0.08  -0.14  45.3019467599
0.08  -0.12  48.019601014
0.08  -0.1  50.9194977338
0.08  -0.08  53.6980376212
0.08  -0.06  56.1072131327
0.08  -0.04  57.958531858
0.08  -0.02  59.1207525253
0.08  6.17561557e-16  59.5166522868
0.08  0.02  59.1207525253
0.08  0.04  57.958531858
0.08  0.06  56.1072131327
0.08  0.08  53.6980376212
0.08  0.1  50.9194977338
0.08  0.12  48.019601014
0.08  0.14  45.3019467599
0.08  0.16  43.1050820184
0.08  0.18  41.7518203964
0.08  0.2  57.3329467675
0.08  0.22  45.0305360492
0.08  0.24  35.3679566673
0.08  0.26  27.7787578955
0.08  0.28  21.8180370859
0.08  0.3  17.1363580788
0.08  0.32  13.4592661589
0.08  0.34  10.5711986586
0.08  0.36  8.30284799788
0.08  0.38  6.52123634244
0.08  0.4  5.1219200261
0.08  0.42  4.0228667351
0.08  0.44  3.15964651653
0.08  0.46  2.48165469223
0.08  0.48  1.94914525384
0.08  0.5  1.53090082695
0.08  0.52  1.20240261076
0.08  0.54  0.944393008947
0.08  0.56  0.741746688975
0.08  0.58  0.582583887633
0.08  0.6  0.457573982027
0.08  0.62  0.359388499189
0.08  0.64  0.282271497993
0.08  0.66  0.221702137822
0.08  0.68  0.174129652709
0.08  0.7  0.136765194284
0.08  0.72  0.10741834074
0.08  0.74  0.0843686874258
0.08  0.76  0.0662649913314
0.08  0.78  0.0520459569791
0.08  0.8  0.0408780199537
0.08  0.82  0.0321064807397
0.08  0.84  0.0252171241821
0.08  0.86  0.0198060745795
0.08  0.88  0.0155561192234
0.08  0.9  0.0122181123939
0.08  0.92  0.00959636965524
0.08  0.94  0.00753719622077
0.08  0.96  0.00591987688171
0.08  0.98  0.004649599303
0.1  -1  0.00388718285506
0.1  -0.98  0.00494916710433
0.1  -0.96  0.00630128706054
0.1  -0.94  0.0080228082387
0.1  -0.92  0.0102146516127
0.1  -0.9  0.0130053099194
0.1  -0.88  0.0165583803065
0.1  -0.86  0.0210821549099
0.1  -0.84  0.0268418315934
0.1  -0.82  0.034175060679
0.1  -0.8  0.0435117390684
0.1  -0.78  0.055399212149
0.1  -0.76  0.0705343608974
0.1  -0.74  0.08980445523
0.1  -0.72  0.114339168549
0.1  -0.7  0.145576802743
0.1  -0.68  0.185348605958
0.1  -0.66  0.235986126108
0.1  -0.64  0.300457893534
0.1  -0.62  0.382543445564
0.1  -0.6  0.487054894856
0.1  -0.58  0.620119030543
0.1  -0.56  0.789536489834
0.1  -0.54  1.00523905585
