0.16  0.14  62.0234977862
0.16  0.16  61.896998257
0.16  0.18  61.8287939714
0.16  0.2  84.0156054367
0.16  0.22  70.0775925589
0.16  0.24  58.4518668088
0.16  0.26  48.7548245977
0.16  0.28  40.6665013681
0.16  0.3  33.9200140124
0.16  0.32  28.2927547709
0.16  0.34  23.599046045
0.16  0.36  19.6840137606
0.16  0.38  16.4184771278
0.16  0.4  13.694686179
0.16  0.42  11.4227664407
0.16  0.44  9.52775342587
0.16  0.46  7.94711909899
0.16  0.48  6.62870869455
0.16  0.5  5.52901981332
0.16  0.52  4.61176701297
0.16  0.54  3.84668453
0.16  0.56  3.20852762763
0.16  0.58  2.67623961803
0.16  0.6  2.23225707376
0.16  0.62  1.86193030317
0.16  0.64  1.55303996776
0.16  0.66  1.29539389168
0.16  0.68  1.08049075969
0.16  0.7  0.901239606946
0.16  0.72  0.751725844803
0.16  0.74  0.627016102476
0.16  0.76  0.522995445057
0.16  0.78  0.436231596718
0.16  0.8  0.363861688995
0.16  0.82  0.303497797303
0.16  0.84  0.253148148744
0.16  0.86  0.211151401368
0.16  0.88  0.176121826372
0.16  0.9  0.14690358446
0.16  0.92  0.122532587651
0.16  0.94  0.102204688141
0.16  0.96  0.0852491445595
0.16  0.98  0.0711064901262
0.18  -1  0.0581076039325
0.18  -0.98  0.0696648578612
0.18  -0.96  0.083520780283
0.18  -0.94  0.100132562575
0.18  -0.92  0.120048328738
0.18  -0.9  0.143925221348
0.18  -0.88  0.1725510847
0.18  -0.86  0.206870460592
0.18  -0.84  0.248015754522
0.18  -0.82  0.297344600652
0.18  -0.8  0.356484658432
0.18  -0.78  0.427387319019
0.18  -0.76  0.512392093567
0.18  -0.74  0.614303807966
0.18  -0.72  0.736485151156
0.18  -0.7  0.882967630737
0.18  -0.68  1.058584597
0.18  -0.66  1.2691307246
0.18  -0.64  1.52155321426
0.18  -0.62  1.82418102324
0.18  -0.6  2.18699968846
0.18  -0.58  2.62198081022
0.18  -0.56  3.14347706835
0.18  -0.54  3.76869580461
0.18  -0.52  4.51826679783
0.18  -0.5  5.41692296615
0.18  -0.48  6.49431645675
0.18  -0.46  7.7859970511
0.18  -0.44  9.33458516897
0.18  -0.42  11.191178176
0.18  -0.4  13.4170363974
0.18  -0.38  16.0856044698
0.18  -0.36  19.2849347273
0.18  -0.34  23.1205925854
0.18  -0.32  27.7191397876
0.18  -0.3  33.2323104491
0.18  -0.28  39.8420176906
0.18  -0.26  47.7663560614
0.18  -0.24  57.2667978089
0.18  -0.22  68.6568204422
0.18  -0.2  60.5729338673
0.18  -0.18  60.5752602343
0.18  -0.16  60.6420817278
0.18  -0.14  60.7660165712
0.18  -0.12  60.9334361578
0.18  -0.1  61.1260578013
0.18  -0.08  61.3230261099
0.18  -0.06  61.5032108304
0.18  -0.04  61.647453091
0.18  -0.02  61.7405318803
0.18  6.17561557e-16  61.7726794031
0.18  0.02  61.7405318803
0.18  0.04  61.647453091
0.18  0.06  61.5032108304
0.18  0.08  61.3230261099
0.18  0.1  61.1260578013
0.18  0.12  60.9334361578
0.18  0.14  60.7660165712
0.18  0.16  60.6420817278
0.18  0.18  60.5752602343
0.18  0.2  82.3122502669
0.18  0.22  68.6568204422
0.18  0.24  57.2667978089
0.18  0.26  47.7663560614
0.18  0.28  39.8420176905
0.18  0.3  33.2323104491
0.18  0.32  27.7191397876
0.18  0.34  23.1205925854
0.18  0.36  19.2849347273
0.18  0.38  16.0856044698
0.18  0.4  13.4170363974
0.18  0.42  11.191178176
0.18  0.44  9.33458516896
0.18  0.46  7.7859970511
0.18  0.48  6.49431645675
0.18  0.5  5.41692296615
0.18  0.52  4.51826679783
0.18  0.54  3.7686958046
0.18  0.56  3.14347706835
0.18  0.58  2.62198081022
0.18  0.6  2.18699968845
0.18  0.62  1.82418102324
0.18  0.64  1.52155321426
0.18  0.66  1.2691307246
0.18  0.68  1.058584597
0.18  0.7  0.882967630737
0.18  0.72  0.736485151155
0.18  0.74  0.614303807966
0.18  0.76  0.512392093567
0.18  0.78  0.427387319019
0.18  0.8  0.356484658432
0.18  0.82  0.297344600652
0.18  0.84  0.248015754522
0.18  0.86  0.206870460592
0.18  0.88  0.1725510847
0.18  0.9  0.143925221348
0.18  0.92  0.120048328738
0.18  0.94  0.100132562575
0.18  0.96  0.0835207802829
0.18  0.98  0.0696648578611
0.2  -1  0.0558539609123
0.2  -0.98  0.0669629787601
0.2  -0.96  0.0802815136329
0.2  -0.94  0.0962490252156
0.2  -0.92  0.115392379089
0.2  -0.9  0.138343231237
0.2  -0.88  0.165858870233
0.2  -0.86  0.198847204803
0.2  -0.84  0.238396721276
0.2  -0.82  0.285812399382
0.2  -0.8  0.342658771492
0.2  -0.78  0.410811546086
0.2  -0.76  0.492519498809
0.2  -0.74  0.590478673294
0.2  -0.72  0.707921340086
0.2  -0.7  0.848722648954
0.2  -0.68  1.01752849372
0.2  -0.66  1.21990880861
0.2  -0.64  1.46254135438
0.2  -0.62  1.75343205835
0.2  -0.6  2.10217917875
0.2  -0.58  2.52029000983
0.2  -0.56  3.02156057765
0.2  -0.54  3.62253085509
0.2  -0.52  4.34303051646
0.2  -0.5  5.20683323937
0.2  -0.48  6.24244114331
0.2  -0.46  7.4840252484
0.2  -0.44  8.97255298575
0.2  -0.42  10.7571399628
0.2  -0.4  12.8966705867
0.2  -0.38  15.4617410201
0.2  -0.36  18.5369885791
0.2  -0.34  22.223884434
0.2  -0.32  26.6440817628
0.2  -0.3  31.9434298307
0.2  -0.28  38.2967864471
0.2  -0.26  45.9137875909
0.2  -0.24  55.0457645802
0.2  -0.22  65.9940370247
0.2  -0.2  58.223675588
0.2  -0.18  58.2259117293
0.2  -0.16  58.2901416206
0.2  -0.14  58.40926978
0.2  -0.12  58.5701961719
0.2  -0.1  58.7553471851
0.2  -0.08  58.9446762827
0.2  -0.06  59.1178727261
0.2  -0.04  59.2565207005
0.2  -0.02  59.3459895257
0.2  6.17561557e-16  59.3768902402
0.2  0.02  59.3459895257
0.2  0.04  59.2565207005
0.2  0.06  59.1178727261
0.2  0.08  58.9446762827
0.2  0.1  58.7553471851
0.2  0.12  58.5701961719
0.2  0.14  58.40926978
0.2  0.16  58.2901416206
0.2  0.18  58.2259117293
0.2  0.2  79.1198551974
0.2  0.22  65.9940370247
0.2  0.24  55.0457645802
0.2  0.26  45.9137875909
0.2  0.28  38.296786447
0.2  0.3  31.9434298307
0.2  0.32  26.6440817628
0.2  0.34  22.223884434
0.2  0.36  18.5369885791
0.2  0.38  15.4617410201
0.2  0.4  12.8966705867
0.2  0.42  10.7571399628
0.2  0.44  8.97255298575
0.2  0.46  7.4840252484
0.2  0.48  6.24244114331
0.2  0.5  5.20683323937
0.2  0.52  4.34303051646
0.2  0.54  3.62253085508
0.2  0.56  3.02156057765
0.2  0.58  2.52029000983
0.2  0.6  2.10217917875
0.2  0.62  1.75343205835
0.2  0.64  1.46254135438
0.2  0.66  1.21990880861
0.2  0.68  1.01752849372
0.2  0.7  0.848722648954
0.2  0.72  0.707921340086
0.2  0.74  0.590478673294
0.2  0.76  0.492519498809
0.2  0.78  0.410811546086
0.2  0.8  0.342658771492
0.2  0.82  0.285812399381
0.2  0.84  0.238396721276
0.2  0.86  0.198847204803
0.2  0.88  0.165858870233
0.2  0.9  0.138343231237
0.2  0.92  0.115392379089
0.2  0.94  0.0962490252156
0.2  0.96  0.0802815136329
0.2  0.98  0.0669629787601
0.22  -1  0.0525899120765
0.22  -0.98  0.0630497301867
0.22  -0.96  0.0755899433875
0.22  -0.94  0.0906243297855
0.22  -0.92  0.108648965471
0.22  -0.9  0.130258593094
0.22  -0.88  0.15616624605
0.22  -0.86  0.1872267758
0.22  -0.84  0.224465058636
0.22  -0.82  0.269109812596
0.22  -0.8  0.322634140367
0.22  -0.78  0.386804135926
0.22  -0.76  0.463737158749
0.22  -0.74  0.555971698415
0.22  -0.72  0.666551134855
0.22  -0.7  0.799124158016
0.22  -0.68  0.958065160392
0.22  -0.66  1.14861857491
0.22  -0.64  1.37707192076
0.22  -0.62  1.65096326697
0.22  -0.6  1.97932995931
0.22  -0.58  2.37300681742
0.22  -0.56  2.84498364157
0.22  -0.54  3.41083382542
0.22  -0.52  4.08922821723
0.22  -0.5  4.90255118497
0.22  -0.48  5.87763921318
0.22  -0.46  7.04666640223
0.22  -0.44  8.44820608809
0.22  -0.42  10.1285036119
0.22  -0.4  12.1430022358
0.22  -0.38  14.5581725542
0.22  -0.36  17.4537057644
0.22  -0.34  20.9251431643
0.22  -0.32  25.0870286436
0.22  -0.3  30.0766881843
0.22  -0.28  36.0587610828
0.22  -0.26  43.230632404
0.22  -0.24  51.8289459185
0.22  -0.22  62.1374124237
0.22  -0.2  54.8211430297
0.22  -0.18  54.8232484932
0.22  -0.16  54.8837248547
0.22  -0.14  54.9958912853
0.22  -0.12  55.1474133021
0.22  -0.1  55.3217442778
0.22  -0.08  55.5000091749
0.22  -0.06  55.6630841938
0.22  -0.04  55.7936297212
0.22  -0.02  55.877870079
0.22  6.17561557e-16  55.9069649871
0.22  0.02  55.877870079
0.22  0.04  55.7936297212
0.22  0.06  55.6630841938
0.22  0.08  55.5000091749
0.22  0.1  55.3217442778
0.22  0.12  55.1474133021
0.22  0.14  54.9958912853
0.22  0.16  54.8837248547
0.22  0.18  54.8232484932
0.22  0.2  74.4961710929
0.22  0.22  62.1374124237
0.22  0.24  51.8289459185
0.22  0.26  43.230632404
0.22  0.28  36.0587610828
0.22  0.3  30.0766881843
0.22  0.32  25.0870286436
0.22  0.34  20.9251431643
0.22  0.36  17.4537057643
0.22  0.38  14.5581725542
0.22  0.4  12.1430022358
0.22  0.42  10.1285036119
0.22  0.44  8.44820608808
0.22  0.46  7.04666640223
0.22  0.48  5.87763921318
0.22  0.5  4.90255118497
0.22  0.52  4.08922821723
0.22  0.54  3.41083382542
0.22  0.56  2.84498364157
0.22  0.58  2.37300681742
0.22  0.6  1.97932995931
0.22  0.62  1.65096326697
0.22  0.64  1.37707192076
0.22  0.66  1.14861857491
0.22  0.68  0.958065160392
0.22  0.7  0.799124158016
0.22  0.72  0.666551134855
0.22  0.74  0.555971698415
0.22  0.76  0.463737158749
0.22  0.78  0.386804135926
0.22  0.8  0.322634140367
0.22  0.82  0.269109812596
0.22  0.84  0.224465058636
0.22  0.86  0.1872267758
0.22  0.88  0.15616624605
0.22  0.9  0.130258593094
0.22  0.92  0.108648965471
0.22  0.94  0.0906243297855
0.22  0.96  0.0755899433875
0.22  0.98  0.0630497301867
0.24  -1  0.0483745045166
0.24  -0.98  0.0579959033445
0.24  -0.96  0.0695309406961
0.24  -0.94  0.0833602277969
0.24  -0.92  0.0999400771626
0.24  -0.9  0.119817559131
0.24  -0.88  0.143648553051
0.24  -0.86  0.172219388737
0.24  -0.84  0.206472792292
0.24  -0.82  0.247538992382
0.24  -0.8  0.296773013381
0.24  -0.78  0.355799385881
0.24  -0.76  0.426565749868
0.24  -0.74  0.511407119239
0.24  -0.72  0.613122928151
0.24  -0.7  0.735069401428
0.24  -0.68  0.881270296879
0.24  -0.66  1.05654967361
0.24  -0.64  1.26669106716
0.24  -0.62  1.51862832359
0.24  -0.6  1.82067438936
0.24  -0.58  2.18279560612
0.24  -0.56  2.61694056112
0.24  -0.54  3.13743434393
0.24  -0.52  3.76145121855
0.24  -0.5  4.50958130705
0.24  -0.48  5.40650998334
0.24  -0.46  6.48183239412
0.24  -0.44  7.77102998328
0.24  -0.42  9.31664124112
0.24  -0.4  11.1696653085
0.24  -0.38  13.3912447496
0.24  -0.36  16.0546830179
0.24  -0.34  19.2478631841
0.24  -0.32  23.0761477346
0.24  -0.3  27.6658551226
0.24  -0.28  33.1684277837
0.24  -0.26  39.7654291461
0.24  -0.24  47.6745345148
0.24  -0.22  57.1567135074
0.24  -0.2  50.4268884731
0.24  -0.18  50.4288251706
0.24  -0.16  50.4844539768
0.24  -0.14  50.5876295724
0.24  -0.12  50.72700616
0.24  -0.1  50.887363427
0.24  -0.08  51.0513392872
0.24  -0.06  51.2013428321
0.24  -0.04  51.321424326
0.24  -0.02  51.3989122967
0.24  6.17561557e-16  51.4256750675
0.24  0.02  51.3989122967
0.24  0.04  51.321424326
0.24  0.06  51.2013428321
0.24  0.08  51.0513392872
0.24  0.1  50.887363427
0.24  0.12  50.72700616
0.24  0.14  50.5876295724
0.24  0.16  50.4844539768
0.24  0.18  50.4288251706
0.24  0.2  68.5248410333
0.24  0.22  57.1567135074
0.24  0.24  47.6745345148
0.24  0.26  39.7654291461
0.24  0.28  33.1684277837
0.24  0.3  27.6658551225
0.24  0.32  23.0761477346
0.24  0.34  19.2478631841
0.24  0.36  16.0546830179
0.24  0.38  13.3912447496
0.24  0.4  11.1696653085
0.24  0.42  9.31664124112
0.24  0.44  7.77102998328
0.24  0.46  6.48183239412
0.24  0.48  5.40650998334
0.24  0.5  4.50958130705
0.24  0.52  3.76145121854
0.24  0.54  3.13743434393
0.24  0.56  2.61694056112
0.24  0.58  2.18279560612
0.24  0.6  1.82067438936
0.24  0.62  1.51862832359
0.24  0.64  1.26669106716
0.24  0.66  1.05654967361
0.24  0.68  0.881270296879
0.24  0.7  0.735069401427
0.24  0.72  0.613122928151
0.24  0.74  0.511407119238
0.24  0.76  0.426565749868
0.24  0.78  0.355799385881
0.24  0.8  0.296773013381
0.24  0.82  0.247538992382
0.24  0.84  0.206472792292
0.24  0.86  0.172219388737
0.24  0.88  0.143648553051
0.24  0.9  0.119817559131
0.24  0.92  0.0999400771625
0.24  0.94  0.0833602277969
0.24  0.96  0.0695309406961
0.24  0.98  0.0579959033445
0.26  -1  0.0432839955334
0.26  -0.98  0.0518929226543
0.26  -0.96  0.0622141137486
0.26  -0.94  0.0745881278514
0.26  -0.92  0.0894232591475
0.26  -0.9  0.107209009086
0.26  -0.88  0.12853223802
0.26  -0.86  0.154096529306
0.26  -0.84  0.184745404809
0.26  -0.82  0.221490157836
0.26  -0.8  0.265543221869
0.26  -0.78  0.318358176134
0.26  -0.76  0.381677708051
0.26  -0.74  0.457591115115
0.26  -0.72  0.548603243563
0.26  -0.7  0.657717138524
0.26  -0.68  0.788533132795
0.26  -0.66  0.945367643774
0.26  -0.64  1.13339559839
0.26  -0.62  1.3588211855
0.26  -0.6  1.62908256993
0.26  -0.58  1.95309732285
0.26  -0.56  2.3415566669
0.26  -0.54  2.80727824473
0.26  -0.52  3.36562905129
0.26  -0.5  4.03503248463
0.26  -0.48  4.83757624619
0.26  -0.46  5.79974114876
0.26  -0.44  6.95327487998
0.26  -0.42  8.33623955216
0.26  -0.4  9.99426760347
0.26  -0.38  11.9820674904
0.26  -0.36  14.3652288531
0.26  -0.34  17.2223867183
0.26  -0.32  20.6478161473
0.26  -0.3  24.7545429461
0.26  -0.28  29.6780730757
0.26  -0.26  35.5808638196
0.26  -0.24  42.6576842413
0.26  -0.22  51.1420418025
0.26  -0.2  45.120404586
0.26  -0.18  45.1221374824
0.26  -0.16  45.1719124005
0.26  -0.14  45.2642307005
0.26  -0.12  45.3889405172
0.26  -0.1  45.5324231906
0.26  -0.08  45.679143668
0.26  -0.06  45.8133621542
0.26  -0.04  45.9208073239
0.26  -0.02  45.9901411396
0.26  6.17561557e-16  46.0140876309
0.26  0.02  45.9901411396
0.26  0.04  45.9208073239
0.26  0.06  45.8133621542
0.26  0.08  45.679143668
0.26  0.1  45.5324231906
0.26  0.12  45.3889405172
0.26  0.14  45.2642307005
0.26  0.16  45.1719124005
0.26  0.18  45.1221374824
0.26  0.2  61.3138871986
0.26  0.22  51.1420418025
0.26  0.24  42.6576842413
0.26  0.26  35.5808638196
0.26  0.28  29.6780730756
0.26  0.3  24.7545429461
0.26  0.32  20.6478161473
0.26  0.34  17.2223867183
0.26  0.36  14.3652288531
0.26  0.38  11.9820674904
0.26  0.4  9.99426760347
0.26  0.42  8.33623955216
0.26  0.44  6.95327487998
0.26  0.46  5.79974114876
0.26  0.48  4.83757624619
0.26  0.5  4.03503248463
0.26  0.52  3.36562905129
0.26  0.54  2.80727824473
0.26  0.56  2.3415566669
0.26  0.58  1.95309732285
0.26  0.6  1.62908256993
0.26  0.62  1.3588211855
0.26  0.64  1.13339559839
0.26  0.66  0.945367643773
0.26  0.68  0.788533132795
0.26  0.7  0.657717138524
0.26  0.72  0.548603243563
0.26  0.74  0.457591115115
0.26  0.76  0.381677708051
0.26  0.78  0.318358176134
0.26  0.8  0.265543221868
0.26  0.82  0.221490157836
0.26  0.84  0.184745404808
0.26  0.86  0.154096529305
0.26  0.88  0.12853223802
0.26  0.9  0.107209009086
0.26  0.92  0.0894232591474
0.26  0.94  0.0745881278513
0.26  0.96  0.0622141137486
0.26  0.98  0.0518929226543
0.28  -1  0.037410473133
0.28  -0.98  0.0448511918742
0.28  -0.96  0.0537718249483
0.28  -0.94  0.0644667184403
0.28  -0.92  0.0772887621065
0.28  -0.9  0.0926610333592
0.28  -0.88  0.111090757171
0.28  -0.86  0.133186042518
0.28  -0.84  0.159675947607
0.28  -0.82  0.191434535949
0.28  -0.8  0.229509717043
0.28  -0.78  0.275157823305
0.28  -0.76  0.329885064134
0.28  -0.74  0.395497224943
0.28  -0.72  0.474159251036
0.28  -0.7  0.568466682353
0.28  -0.68  0.681531296161
0.28  -0.66  0.817083783563
0.28  -0.64  0.97959684775
0.28  -0.62  1.17443278575
0.28  -0.6  1.40802042331
0.28  -0.58  1.68806724107
0.28  -0.56  2.02381369134
0.28  -0.54  2.42633809696
0.28  -0.52  2.90892219277
0.28  -0.5  3.48748937099
0.28  -0.48  4.18113009108
0.28  -0.46  5.01273179035
0.28  -0.44  6.00973408019
0.28  -0.42  7.20503414606
0.28  -0.4  8.63807222637
0.28  -0.38  10.3561329864
0.28  -0.36  12.4159057277
0.28  -0.34  14.885354914
0.28  -0.32  17.8459627332
0.28  -0.3  21.3954176918
0.28  -0.28  25.6508379541
0.28  -0.26  30.7526357853
0.28  -0.24  36.8691506077
0.28  -0.22  44.2022035452
0.28  -0.2  38.9976863899
0.28  -0.18  38.9991841369
0.28  -0.16  39.0422047318
0.28  -0.14  39.1219956854
0.28  -0.12  39.2297827137
0.28  -0.1  39.3537951721
0.28  -0.08  39.4806060732
0.28  -0.06  39.5966114699
0.28  -0.04  39.6894766175
0.28  -0.02  39.7494020199
0.28  6.17561557e-16  39.7700990364
0.28  0.02  39.7494020199
0.28  0.04  39.6894766175
0.28  0.06  39.5966114699
0.28  0.08  39.4806060732
0.28  0.1  39.3537951721
0.28  0.12  39.2297827137
0.28  0.14  39.1219956854
0.28  0.16  39.0422047318
0.28  0.18  38.9991841369
0.28  0.2  52.9937567328
0.28  0.22  44.2022035452
0.28  0.24  36.8691506077
0.28  0.26  30.7526357853
0.28  0.28  25.6508379541
0.28  0.3  21.3954176917
0.28  0.32  17.8459627332
0.28  0.34  14.885354914
0.28  0.36  12.4159057277
0.28  0.38  10.3561329864
0.28  0.4  8.63807222637
0.28  0.42  7.20503414606
0.28  0.44  6.00973408018
0.28  0.46  5.01273179035
0.28  0.48  4.18113009107
0.28  0.5  3.48748937099
0.28  0.52  2.90892219277
0.28  0.54  2.42633809696
0.28  0.56  2.02381369134
0.28  0.58  1.68806724107
0.28  0.6  1.40802042331
0.28  0.62  1.17443278575
0.28  0.64  0.97959684775
0.28  0.66  0.817083783563
0.28  0.68  0.681531296161
0.28  0.7  0.568466682353
0.28  0.72  0.474159251036
0.28  0.74  0.395497224943
0.28  0.76  0.329885064134
0.28  0.78  0.275157823305
0.28  0.8  0.229509717043
0.28  0.82  0.191434535949
0.28  0.84  0.159675947607
0.28  0.86  0.133186042518
0.28  0.88  0.111090757171
0.28  0.9  0.0926610333592
0.28  0.92  0.0772887621064
0.28  0.94  0.0644667184402
0.28  0.96  0.0537718249482
0.28  0.98  0.0448511918742
0.3  -1  0.0308601901413
0.3  -0.98  0.03699809688
0.3  -0.96  0.0443567964577
0.3  -0.94  0.0531790972485
0.3  -0.92  0.0637561007558
0.3  -0.9  0.0764368068264
0.3  -0.88  0.0916396292834
0.3  -0.86  0.10986620195
0.3  -0.84  0.131717930608
0.3  -0.82  0.157915837043
0.3  -0.8  0.18932434995
0.3  -0.78  0.226979827704
0.3  -0.76  0.27212475415
0.3  -0.74  0.326248735714
0.3  -0.72  0.391137652609
0.3  -0.7  0.46893258591
0.3  -0.68  0.56220046488
0.3  -0.66  0.674018765613
0.3  -0.64  0.808077055746
0.3  -0.62  0.968798735786
0.3  -0.6  1.16148699408
0.3  -0.58  1.39249979132
0.3  -0.56  1.66945964846
0.3  -0.54  2.00150516015
0.3  -0.52  2.39959253271
0.3  -0.5  2.87685709619
0.3  -0.48  3.44904671901
0.3  -0.46  4.13504142617
0.3  -0.44  4.95747636641
0.3  -0.42  5.94348868381
0.3  -0.4  7.12561293764
0.3  -0.38  8.54285461591
0.3  -0.36  10.2419771643
0.3  -0.34  12.2790449972
0.3  -0.32  14.721273405
0.3  -0.3  17.6492463961
0.3  -0.28  21.159575655
0.3  -0.26  25.3680883507
0.3  -0.24  30.4136489816
0.3  -0.22  36.4627413617
0.3  -0.2  32.1694946969
0.3  -0.18  32.1707302001
0.3  -0.16  32.2062182232
0.3  -0.14  32.2720384013
0.3  -0.12  32.3609527589
0.3  -0.1  32.4632516
0.3  -0.08  32.5678588983
0.3  -0.06  32.6635526519
0.3  -0.04  32.7401578341
0.3  -0.02  32.7895907644
0.3  6.17561557e-16  32.8066638942
0.3  0.02  32.7895907644
0.3  0.04  32.7401578341
0.3  0.06  32.6635526519
0.3  0.08  32.5678588983
0.3  0.1  32.4632516
0.3  0.12  32.3609527589
0.3  0.14  32.2720384013
0.3  0.16  32.2062182232
0.3  0.18  32.1707302001
0.3  0.2  43.7149619375
0.3  0.22  36.4627413617
0.3  0.24  30.4136489816
0.3  0.26  25.3680883507
0.3  0.28  21.159575655
0.3  0.3  17.6492463961
0.3  0.32  14.721273405
0.3  0.34  12.2790449972
0.3  0.36  10.2419771642
0.3  0.38  8.54285461591
0.3  0.4  7.12561293764
0.3  0.42  5.9434886838
0.3  0.44  4.95747636641
0.3  0.46  4.13504142617
0.3  0.48  3.44904671901
0.3  0.5  2.87685709619
0.3  0.52  2.39959253271
0.3  0.54  2.00150516015
0.3  0.56  1.66945964846
0.3  0.58  1.39249979132
0.3  0.6  1.16148699408
0.3  0.62  0.968798735786
0.3  0.64  0.808077055745
0.3  0.66  0.674018765613
0.3  0.68  0.56220046488
0.3  0.7  0.46893258591
0.3  0.72  0.391137652609
0.3  0.74  0.326248735714
0.3  0.76  0.272124754149
0.3  0.78  0.226979827704
0.3  0.8  0.18932434995
0.3  0.82  0.157915837043
0.3  0.84  0.131717930608
0.3  0.86  0.10986620195
0.3  0.88  0.0916396292834
0.3  0.9  0.0764368068264
0.3  0.92  0.0637561007558
0.3  0.94  0.0531790972484
0.3  0.96  0.0443567964577
0.3  0.98  0.03699809688
0.32  -1  0.0247171060876
0.32  -0.98  0.0296331902505
0.32  -0.96  0.0355270540698
0.32  -0.94  0.0425931720549
0.32  -0.92  0.0510646985291
0.32  -0.9  0.061221160812
0.32  -0.88  0.0733976825308
0.32  -0.86  0.0879960413922
0.32  -0.84  0.105497926279
0.32  -0.82  0.126480831105
0.32  -0.8  0.151637109858
0.32  -0.78  0.181796821582
0.32  -0.76  0.21795511909
0.32  -0.74  0.261305085117
0.32  -0.72  0.3132770994
0.32  -0.7  0.375586035628
0.32  -0.68  0.450287845582
0.32  -0.66  0.539847397519
0.32  -0.64  0.647219807215
0.32  -0.62  0.775947945245
0.32  -0.6  0.930279337898
0.32  -0.58  1.11530631896
0.32  -0.56  1.33713405689
0.32  -0.54  1.6030820015
0.32  -0.52  1.9219253973
0.32  -0.5  2.3041848323
0.32  -0.48  2.76247337637
0.32  -0.46  3.31191276332
0.32  -0.44  3.97063234914
0.32  -0.42  4.76036730998
0.32  -0.4  5.70717581819
0.32  -0.38  6.84229886031
0.32  -0.36  8.20319106775
0.32  -0.34  9.83475657345
0.32  -0.32  11.7908306731
0.32  -0.3  14.1359561799
0.32  -0.28  16.9475130853
0.32  -0.26  20.3182717973
0.32  -0.24  24.3594542013
0.32  -0.22  29.204403549
0.32  -0.2  25.7657781617
0.32  -0.18  25.7667677235
0.32  -0.16  25.7951914379
0.32  -0.14  25.8479093348
0.32  -0.12  25.9191242431
0.32  -0.1  26.0010592959
0.32  -0.08  26.0848432803
0.32  -0.06  26.161488066
0.32  -0.04  26.2228440851
0.32  -0.02  26.2624368089
0.32  6.17561557e-16  26.2761113312
0.32  0.02  26.2624368089
0.32  0.04  26.2228440851
0.32  0.06  26.161488066
0.32  0.08  26.0848432803
0.32  0.1  26.0010592959
0.32  0.12  25.9191242431
0.32  0.14  25.8479093348
0.32  0.16  25.7951914379
0.32  0.18  25.7667677235
0.32  0.2  35.0129842649
0.32  0.22  29.204403549
0.32  0.24  24.3594542013
0.32  0.26  20.3182717973
0.32  0.28  16.9475130853
0.32  0.3  14.1359561799
0.32  0.32  11.7908306731
0.32  0.34  9.83475657344
0.32  0.36  8.20319106774
0.32  0.38  6.84229886031
0.32  0.4  5.70717581819
0.32  0.42  4.76036730998
0.32  0.44  3.97063234914
0.32  0.46  3.31191276332
0.32  0.48  2.76247337637
0.32  0.5  2.3041848323
0.32  0.52  1.9219253973
0.32  0.54  1.6030820015
0.32  0.56  1.33713405689
0.32  0.58  1.11530631896
0.32  0.6  0.930279337897
0.32  0.62  0.775947945245
0.32  0.64  0.647219807215
0.32  0.66  0.539847397519
0.32  0.68  0.450287845582
0.32  0.7  0.375586035628
0.32  0.72  0.3132770994
0.32  0.74  0.261305085117
0.32  0.76  0.21795511909
0.32  0.78  0.181796821582
0.32  0.8  0.151637109857
0.32  0.82  0.126480831105
0.32  0.84  0.105497926279
0.32  0.86  0.0879960413922
0.32  0.88  0.0733976825308
0.32  0.9  0.061221160812
0.32  0.92  0.0510646985291
0.32  0.94  0.0425931720549
0.32  0.96  0.0355270540698
0.32  0.98  0.0296331902505
0.34  -1  0.0197968752153
0.34  -0.98  0.0237343549662
0.34  -0.96  0.028454975825
0.34  -0.94  0.0341144998612
0.34  -0.92  0.0408996692858
0.34  -0.9  0.0490343682158
0.34  -0.88  0.0587870099761
0.34  -0.86  0.0704793936922
0.34  -0.84  0.0844973224057
0.34  -0.82  0.101303333069
0.34  -0.8  0.121451958462
0.34  -0.78  0.145608024606
0.34  -0.76  0.174568587434
0.34  -0.74  0.209289232519
0.34  -0.72  0.25091560568
0.34  -0.7  0.300821214813
0.34  -0.68  0.360652750299
0.34  -0.66  0.432384419361
0.34  -0.64  0.518383087198
0.34  -0.62  0.6214863743
0.34  -0.6  0.745096286856
0.34  -0.58  0.893291469685
0.34  -0.56  1.07096178559
0.34  -0.54  1.28396966178
0.34  -0.52  1.53934352705
0.34  -0.5  1.84550972255
0.34  -0.48  2.21257053814
0.34  -0.46  2.65263754854
0.34  -0.44  3.18023124807
0.34  -0.42  3.81276017025
0.34  -0.4  4.57109530153
0.34  -0.38  5.48025874239
0.34  -0.36  6.57024933905
0.34  -0.34  7.87703252829
0.34  -0.32  9.44372705659
0.34  -0.3  11.3220277305
0.34  -0.28  13.5739111436
0.34  -0.26  16.2736806621
0.34  -0.24  19.5104181463
0.34  -0.22  23.3909233041
0.34  -0.2  20.6367967708
0.34  -0.18  20.6375893486
0.34  -0.16  20.6603549882
0.34  -0.14  20.7025787673
0.34  -0.12  20.7596175099
0.34  -0.1  20.8252424261
0.34  -0.08  20.8923482223
0.34  -0.06  20.9537359614
0.34  -0.04  21.0028783428
0.34  -0.02  21.0345896688
0.34  6.17561557e-16  21.0455421166
0.34  0.02  21.0345896688
0.34  0.04  21.0028783428
0.34  0.06  20.9537359614
0.34  0.08  20.8923482223
0.34  0.1  20.8252424261
0.34  0.12  20.7596175099
0.34  0.14  20.7025787673
0.34  0.16  20.6603549882
0.34  0.18  20.6375893486
0.34  0.2  28.043237665
0.34  0.22  23.3909233041
0.34  0.24  19.5104181463
0.34  0.26  16.2736806621
0.34  0.28  13.5739111436
0.34  0.3  11.3220277305
0.34  0.32  9.44372705658
0.34  0.34  7.87703252828
0.34  0.36  6.57024933905
0.34  0.38  5.48025874239
0.34  0.4  4.57109530153
0.34  0.42  3.81276017024
0.34  0.44  3.18023124807
0.34  0.46  2.65263754854
0.34  0.48  2.21257053814
0.34  0.5  1.84550972255
0.34  0.52  1.53934352705
0.34  0.54  1.28396966178
0.34  0.56  1.07096178559
0.34  0.58  0.893291469685
0.34  0.6  0.745096286856
0.34  0.62  0.6214863743
0.34  0.64  0.518383087198
0.34  0.66  0.432384419361
0.34  0.68  0.360652750299
0.34  0.7  0.300821214813
0.34  0.72  0.25091560568
0.34  0.74  0.209289232519
0.34  0.76  0.174568587433
0.34  0.78  0.145608024606
0.34  0.8  0.121451958462
0.34  0.82  0.101303333069
0.34  0.84  0.0844973224057
0.34  0.86  0.0704793936922
0.34  0.88  0.0587870099761
0.34  0.9  0.0490343682158
0.34  0.92  0.0408996692858
0.34  0.94  0.0341144998612
0.34  0.96  0.0284549758249
0.34  0.98  0.0237343549662
0.36  -1  0.0158560742063
0.36  -0.98  0.019009752271
0.36  -0.96  0.0227906779889
0.36  -0.94  0.0273236071565
0.36  -0.92  0.0327581087498
0.36  -0.9  0.0392735001172
0.36  -0.88  0.0470847637523
0.36  -0.86  0.0564496408774
0.36  -0.84  0.0676771358978
0.36  -0.82  0.0811377123422
0.36  -0.8  0.0972755167131
0.36  -0.78  0.116623033589
0.36  -0.76  0.139818655537
0.36  -0.74  0.167627747577
0.36  -0.72  0.200967901242
0.36  -0.7  0.240939211518
0.36  -0.68  0.288860575685
0.36  -0.66  0.346313211781
0.36  -0.64  0.415192832631
0.36  -0.62  0.497772196972
0.36  -0.6  0.596776101619
0.36  -0.58  0.715471289137
0.36  -0.56  0.857774237591
0.36  -0.54  1.02838038905
0.36  -0.52  1.23291908084
0.36  -0.5  1.47813929173
0.36  -0.48  1.77213233189
0.36  -0.46  2.12459882455
0.36  -0.44  2.54716878872
0.36  -0.42  3.05378538445
0.36  -0.4  3.66116498269
0.36  -0.38  4.38934874035
0.36  -0.36  5.2623638802
0.36  -0.34  6.30901649556
0.36  -0.32  7.56384203894
0.36  -0.3  9.06824485723
0.36  -0.28  10.8718643736
0.36  -0.26  13.0342129948
0.36  -0.24  15.6266397883
0.36  -0.22  18.7346847232
0.36  -0.2  16.5287994908
0.36  -0.18  16.5294342967
0.36  -0.16  16.5476681678
0.36  -0.14  16.5814868067
0.36  -0.12  16.6271713162
0.36  -0.1  16.6797328205
0.36  -0.08  16.7334804182
0.36  -0.06  16.7826482053
0.36  -0.04  16.8220082173
0.36  -0.02  16.8474070307
0.36  6.17561557e-16  16.8561792648
0.36  0.02  16.8474070307
0.36  0.04  16.8220082173
0.36  0.06  16.7826482053
0.36  0.08  16.7334804182
0.36  0.1  16.6797328205
0.36  0.12  16.6271713162
0.36  0.14  16.5814868067
0.36  0.16  16.5476681678
0.36  0.18  16.5294342967
0.36  0.2  22.4609011556
0.36  0.22  18.7346847232
0.36  0.24  15.6266397883
0.36  0.26  13.0342129948
0.36  0.28  10.8718643736
0.36  0.3  9.06824485723
0.36  0.32  7.56384203894
0.36  0.34  6.30901649556
0.36  0.36  5.2623638802
0.36  0.38  4.38934874034
0.36  0.4  3.66116498269
0.36  0.42  3.05378538445
0.36  0.44  2.54716878872
0.36  0.46  2.12459882455
0.36  0.48  1.77213233189
0.36  0.5  1.47813929173
0.36  0.52  1.23291908084
0.36  0.54  1.02838038905
0.36  0.56  0.857774237591
0.36  0.58  0.715471289136
0.36  0.6  0.596776101619
0.36  0.62  0.497772196971
0.36  0.64  0.415192832631
0.36  0.66  0.346313211781
0.36  0.68  0.288860575685
0.36  0.7  0.240939211518
0.36  0.72  0.200967901242
0.36  0.74  0.167627747577
0.36  0.76  0.139818655537
0.36  0.78  0.116623033589
0.36  0.8  0.0972755167131
0.36  0.82  0.0811377123421
0.36  0.84  0.0676771358977
0.36  0.86  0.0564496408773
0.36  0.88  0.0470847637523
0.36  0.9  0.0392735001172
0.36  0.92  0.0327581087498
0.36  0.94  0.0273236071565
0.36  0.96  0.0227906779889
0.36  0.98  0.019009752271
0.38  -1  0.012699736019
0.38  -0.98  0.015225637348
0.38  -0.96  0.0182539253025
0.38  -0.94  0.0218845215694
0.38  -0.92  0.0262372216598
0.38  -0.9  0.0314556476932
0.38  -0.88  0.0377119873679
0.38  -0.86  0.0452126754821
0.38  -0.84  0.0542052054778
0.38  -0.82  0.064986295758
0.38  -0.8  0.0779116802366
0.38  -0.78  0.0934078461695
0.38  -0.76  0.11198610657
0.38  -0.74  0.134259471543
0.38  -0.72  0.160962875228
0.38  -0.7  0.192977425755
0.38  -0.68  0.231359478378
0.38  -0.66  0.277375491076
0.38  -0.64  0.332543812724
0.38  -0.62  0.398684782683
0.38  -0.6  0.477980794893
0.38  -0.58  0.573048308364
0.38  -0.56  0.687024180107
0.38  -0.54  0.823669169184
0.38  -0.52  0.987492027076
0.38  -0.5  1.18389826889
0.38  -0.48  1.41936853429
0.38  -0.46  1.70167242326
0.38  -0.44  2.04012486267
0.38  -0.42  2.44589346244
0.38  -0.4  2.93236700316
0.38  -0.38  3.51559721356
0.38  -0.36  4.21482841496
0.38  -0.34  5.05313250876
0.38  -0.32  6.05817025918
0.38  -0.3  7.26310399057
0.38  -0.28  8.70769181468
0.38  -0.26  10.4395994933
0.38  -0.24  12.5159732222
0.38  -0.22  15.005325233
0.38  -0.2  13.238547418
0.38  -0.18  13.2390558584
0.38  -0.16  13.2536600628
0.38  -0.14  13.2807467036
0.38  -0.12  13.3173371739
0.38  -0.1  13.3594356921
0.38  -0.08  13.4024841979
0.38  -0.06  13.4418645583
0.38  -0.04  13.4733894966
0.38  -0.02  13.4937323773
0.38  6.17561557e-16  13.500758395
0.38  0.02  13.4937323773
0.38  0.04  13.4733894966
0.38  0.06  13.4418645583
0.38  0.08  13.4024841979
0.38  0.1  13.3594356921
0.38  0.12  13.3173371739
0.38  0.14  13.2807467036
0.38  0.16  13.2536600628
0.38  0.18  13.2390558584
0.38  0.2  17.9897944292
0.38  0.22  15.005325233
0.38  0.24  12.5159732222
0.38  0.26  10.4395994933
0.38  0.28  8.70769181468
0.38  0.3  7.26310399057
0.38  0.32  6.05817025918
0.38  0.34  5.05313250876
0.38  0.36  4.21482841496
0.38  0.38  3.51559721356
0.38  0.4  2.93236700316
0.38  0.42  2.44589346244
0.38  0.44  2.04012486266
0.38  0.46  1.70167242326
0.38  0.48  1.41936853429
0.38  0.5  1.18389826889
0.38  0.52  0.987492027075
0.38  0.54  0.823669169184
0.38  0.56  0.687024180107
0.38  0.58  0.573048308364
0.38  0.6  0.477980794893
0.38  0.62  0.398684782683
0.38  0.64  0.332543812724
0.38  0.66  0.277375491076
0.38  0.68  0.231359478378
0.38  0.7  0.192977425755
0.38  0.72  0.160962875228
0.38  0.74  0.134259471543
0.38  0.76  0.11198610657
0.38  0.78  0.0934078461695
0.38  0.8  0.0779116802366
0.38  0.82  0.064986295758
0.38  0.84  0.0542052054778
0.38  0.86  0.0452126754821
0.38  0.88  0.0377119873679
0.38  0.9  0.0314556476932
0.38  0.92  0.0262372216598
0.38  0.94  0.0218845215694
0.38  0.96  0.0182539253025
0.38  0.98  0.015225637348
0.4  -1  0.0101717040961
0.4  -0.98  0.0121947950372
0.4  -0.96  0.0146202666333
0.4  -0.94  0.0175281499833
0.4  -0.92  0.0210143938919
0.4  -0.9  0.0251940308057
0.4  -0.88  0.0302049724347
0.4  -0.86  0.0362125603012
0.4  -0.84  0.0434150213645
0.4  -0.82  0.0520500087375
0.4  -0.8  0.0624024433115
0.4  -0.78  0.0748139150349
0.4  -0.76  0.0896939540476
0.4  -0.74  0.107533543579
0.4  -0.72  0.128921320477
0.4  -0.7  0.154562997929
0.4  -0.68  0.185304651244
0.4  -0.66  0.222160635033
0.4  -0.64  0.266347052959
0.4  -0.62  0.319321884408
0.4  -0.6  0.382833092121
0.4  -0.58  0.458976298147
0.4  -0.56  0.550263931192
0.4  -0.54  0.659708126963
0.4  -0.52  0.790920116894
0.4  -0.5  0.948229384694
0.4  -0.48  1.13682652242
0.4  -0.46  1.36293449974
0.4  -0.44  1.6340139977
0.4  -0.42  1.95900958204
0.4  -0.4  2.34864483897
0.4  -0.38  2.81577621172
0.4  -0.36  3.37581721295
0.4  -0.34  4.04724701054
0.4  -0.32  4.85222016804
0.4  -0.3  5.81729765885
0.4  -0.28  6.97432327463
0.4  -0.26  8.36147434627
0.4  -0.24  10.0245214468
0.4  -0.22  12.0183386417
0.4  -0.2  10.6032587447
0.4  -0.18  10.603665974
0.4  -0.16  10.6153630396
0.4  -0.14  10.6370577658
0.4  -0.12  10.6663644723
0.4  -0.1  10.700082785
0.4  -0.08  10.734561979
0.4  -0.06  10.7661032152
0.4  -0.04  10.7913527436
0.4  -0.02  10.8076461344
0.4  6.17561557e-16  10.8132735406
0.4  0.02  10.8076461344
0.4  0.04  10.7913527436
0.4  0.06  10.7661032152
0.4  0.08  10.734561979
0.4  0.1  10.700082785
0.4  0.12  10.6663644723
0.4  0.14  10.6370577658
0.4  0.16  10.6153630396
0.4  0.18  10.603665974
0.4  0.2  14.4087141189
0.4  0.22  12.0183386417
0.4  0.24  10.0245214468
0.4  0.26  8.36147434627
0.4  0.28  6.97432327463
0.4  0.3  5.81729765885
0.4  0.32  4.85222016804
0.4  0.34  4.04724701053
0.4  0.36  3.37581721295
0.4  0.38  2.81577621172
0.4  0.4  2.34864483897
0.4  0.42  1.95900958203
0.4  0.44  1.6340139977
0.4  0.46  1.36293449974
0.4  0.48  1.13682652242
0.4  0.5  0.948229384694
0.4  0.52  0.790920116894
0.4  0.54  0.659708126963
0.4  0.56  0.550263931192
0.4  0.58  0.458976298147
0.4  0.6  0.382833092121
0.4  0.62  0.319321884408
0.4  0.64  0.266347052959
0.4  0.66  0.222160635033
0.4  0.68  0.185304651244
0.4  0.7  0.154562997929
0.4  0.72  0.128921320477
0.4  0.74  0.107533543579
0.4  0.76  0.0896939540476
0.4  0.78  0.0748139150348
0.4  0.8  0.0624024433115
0.4  0.82  0.0520500087374
0.4  0.84  0.0434150213645
0.4  0.86  0.0362125603012
0.4  0.88  0.0302049724347
0.4  0.9  0.0251940308057
0.4  0.92  0.0210143938919
0.4  0.94  0.0175281499833
0.4  0.96  0.0146202666333
0.4  0.98  0.0121947950372
0.42  -1  0.00814690668088
0.42  -0.98  0.00976727755959
0.42  -0.96  0.0117099304881
0.42  -0.94  0.0140389654332
0.42  -0.92  0.0168312314609
0.42  -0.9  0.0201788624551
0.42  -0.88  0.0241923171771
0.42  -0.86  0.029004023973
0.42  -0.84  0.034772750393
0.42  -0.82  0.0416888419007
0.42  -0.8  0.0499805025308
0.42  -0.78  0.059921324732
0.42  -0.76  0.0718393168501
0.42  -0.74  0.0861277261238
0.42  -0.72  0.103258014309
0.42  -0.7  0.123795414077
0.42  -0.68  0.148417579489
0.42  -0.66  0.177936945932
0.42  -0.64  0.213327537322
0.42  -0.62  0.255757105088
0.42  -0.6  0.306625659417
0.42  -0.58  0.367611664124
0.42  -0.56  0.44072741941
0.42  -0.54  0.52838545992
0.42  -0.52  0.633478158969
0.42  -0.5  0.759473165577
0.42  -0.48  0.910527823359
0.42  -0.46  1.09162634664
0.42  -0.44  1.30874428009
0.42  -0.42  1.56904566836
0.42  -0.4  1.88111944163
0.42  -0.38  2.25526281677
0.42  -0.36  2.70382106536
0.42  -0.34  3.24159485941
0.42  -0.32  3.88632863586
0.42  -0.3  4.65929609373
0.42  -0.28  5.58600214319
0.42  -0.26  6.69702446808
0.42  -0.24  8.02902247017
0.42  -0.22  9.62594688637
0.42  -0.2  8.49255529753
0.42  -0.18  8.49288146302
0.42  -0.16  8.50225009009
0.42  -0.14  8.51962622567
0.42  -0.12  8.54309908734
0.42  -0.1  8.57010537305
0.42  -0.08  8.59772107772
0.42  -0.06  8.62298365963
0.42  -0.04  8.64320697219
0.42  -0.02  8.65625697182
0.42  6.17561557e-16  8.66076417657
0.42  0.02  8.65625697182
0.42  0.04  8.64320697219
0.42  0.06  8.62298365963
0.42  0.08  8.59772107772
0.42  0.1  8.57010537305
0.42  0.12  8.54309908734
0.42  0.14  8.51962622567
0.42  0.16  8.50225009009
0.42  0.18  8.49288146302
0.42  0.2  11.5404899916
0.42  0.22  9.62594688636
0.42  0.24  8.02902247017
0.42  0.26  6.69702446808
0.42  0.28  5.58600214319
0.42  0.3  4.65929609373
0.42  0.32  3.88632863586
0.42  0.34  3.24159485941
0.42  0.36  2.70382106536
0.42  0.38  2.25526281677
0.42  0.4  1.88111944163
0.42  0.42  1.56904566836
0.42  0.44  1.30874428009
0.42  0.46  1.09162634664
0.42  0.48  0.910527823359
0.42  0.5  0.759473165577
0.42  0.52  0.633478158969
0.42  0.54  0.52838545992
0.42  0.56  0.44072741941
0.42  0.58  0.367611664124
0.42  0.6  0.306625659417
0.42  0.62  0.255757105088
0.42  0.64  0.213327537322
0.42  0.66  0.177936945932
0.42  0.68  0.148417579489
0.42  0.7  0.123795414077
0.42  0.72  0.103258014309
0.42  0.74  0.0861277261237
0.42  0.76  0.0718393168501
0.42  0.78  0.059921324732
0.42  0.8  0.0499805025308
0.42  0.82  0.0416888419007
0.42  0.84  0.034772750393
0.42  0.86  0.029004023973
0.42  0.88  0.0241923171771
0.42  0.9  0.0201788624551
0.42  0.92  0.0168312314609
0.42  0.94  0.0140389654332
0.42  0.96  0.0117099304881
0.42  0.98  0.00976727755959
0.44  -1  0.00652516902182
0.44  -0.98  0.00782298600633
0.44  -0.96  0.00937893100555
0.44  -0.94  0.0112443441335
0.44  -0.92  0.013480776745
0.44  -0.9  0.0161620223903
0.44  -0.88  0.0193765517138
0.44  -0.86  0.0232304316411
0.44  -0.84  0.0278508251728
0.44  -0.82  0.0333901872676
0.44  -0.8  0.0400312952614
0.44  -0.78  0.0479932798059
0.44  -0.76  0.0575388553252
0.44  -0.74  0.0689829885669
0.44  -0.72  0.0827032912755
0.44  -0.7  0.0991524799069
0.44  -0.68  0.118873313505
0.44  -0.66  0.142516502632
0.44  -0.64  0.17086218028
0.44  -0.62  0.204845643212
0.44  -0.6  0.245588213109
0.44  -0.58  0.29443423581
0.44  -0.56  0.352995439478
0.44  -0.54  0.423204115342
0.44  -0.52  0.507376875766
0.44  -0.5  0.608291093423
0.44  -0.48  0.72927654375
0.44  -0.46  0.874325274552
0.44  -0.44  1.048223328
0.44  -0.42  1.25670866134
0.44  -0.4  1.50666047712
0.44  -0.38  1.80632621
0.44  -0.36  2.16559365994
0.44  -0.34  2.596317251
0.44  -0.32  3.11270918112
0.44  -0.3  3.73180836914
0.44  -0.28  4.47404267268
0.44  -0.26  5.36390292773
0.44  -0.24  6.43075105068
0.44  -0.22  7.70978886699
0.44  -0.2  6.80201221325
0.44  -0.18  6.80227345166
0.44  -0.16  6.80977714325
0.44  -0.14  6.82369435454
0.44  -0.12  6.84249466683
0.44  -0.1  6.86412503352
0.44  -0.08  6.88624350716
0.44  -0.06  6.90647727481
0.44  -0.04  6.92267489898
0.44  -0.02  6.9331271426
0.44  6.17561557e-16  6.93673713519
0.44  0.02  6.9331271426
0.44  0.04  6.92267489898
0.44  0.06  6.90647727481
0.44  0.08  6.88624350716
0.44  0.1  6.86412503352
0.44  0.12  6.84249466683
0.44  0.14  6.82369435454
0.44  0.16  6.80977714325
0.44  0.18  6.80227345166
0.44  0.2  9.24321963407
0.44  0.22  7.70978886698
0.44  0.24  6.43075105068
0.44  0.26  5.36390292773
0.44  0.28  4.47404267268
0.44  0.3  3.73180836914
0.44  0.32  3.11270918112
0.44  0.34  2.596317251
0.44  0.36  2.16559365994
0.44  0.38  1.80632621
0.44  0.4  1.50666047712
0.44  0.42  1.25670866134
0.44  0.44  1.048223328
0.44  0.46  0.874325274552
0.44  0.48  0.72927654375
0.44  0.5  0.608291093423
0.44  0.52  0.507376875766
0.44  0.54  0.423204115342
0.44  0.56  0.352995439478
0.44  0.58  0.29443423581
0.44  0.6  0.245588213109
0.44  0.62  0.204845643212
0.44  0.64  0.17086218028
0.44  0.66  0.142516502632
0.44  0.68  0.118873313505
0.44  0.7  0.0991524799069
0.44  0.72  0.0827032912755
0.44  0.74  0.0689829885669
0.44  0.76  0.0575388553252
0.44  0.78  0.0479932798059
0.44  0.8  0.0400312952614
0.44  0.82  0.0333901872676
0.44  0.84  0.0278508251728
0.44  0.86  0.0232304316411
0.44  0.88  0.0193765517138
0.44  0.9  0.0161620223902
0.44  0.92  0.013480776745
0.44  0.94  0.0112443441335
0.44  0.96  0.00937893100554
0.44  0.98  0.00782298600633
0.46  -1  0.00522625733068
0.46  -0.98  0.00626572856989
0.46  -0.96  0.00751194440447
0.46  -0.94  0.00900602509452
0.46  -0.92  0.0107972694732
0.46  -0.9  0.0129447816161
0.46  -0.88  0.0155194210448
0.46  -0.86  0.0186061408147
0.46  -0.84  0.0223067906345
0.46  -0.82  0.0267434775094
0.46  -0.8  0.0320625947952
0.46  -0.78  0.0384396526083
0.46  -0.76  0.0460850689748
0.46  -0.74  0.055251112804
0.46  -0.72  0.0662402277787
0.46  -0.7  0.0794150118159
0.46  -0.68  0.0952101813839
0.46  -0.66  0.114146915449
0.46  -0.64  0.136850052349
0.46  -0.62  0.16406870702
0.46  -0.6  0.196700988863
0.46  -0.58  0.235823635857
0.46  -0.56  0.282727542704
0.46  -0.54  0.338960355323
0.46  -0.52  0.406377537122
0.46  -0.5  0.487203592054
0.46  -0.48  0.584105464567
0.46  -0.46  0.700280538366
0.46  -0.44  0.839562137596
0.46  -0.42  1.00654601159
0.46  -0.4  1.20674197665
0.46  -0.38  1.44675571852
0.46  -0.36  1.73450675418
0.46  -0.34  2.07948974509
0.46  -0.32  2.49308778389
0.46  -0.3  2.98894799211
0.46  -0.28  3.58343182187
0.46  -0.26  4.29615492003
0.46  -0.24  5.15063436794
0.46  -0.22  6.1750646534
0.46  -0.2  5.44799162657
0.46  -0.18  5.44820086241
0.46  -0.16  5.45421085587
0.46  -0.14  5.46535768246
0.46  -0.12  5.48041557132
0.46  -0.1  5.49774015894
0.46  -0.08  5.51545569008
0.46  -0.06  5.53166168814
0.46  -0.04  5.54463498459
0.46  -0.02  5.5530065861
0.46  6.17561557e-16  5.55589796718
0.46  0.02  5.5530065861
0.46  0.04  5.54463498459
0.46  0.06  5.53166168814
0.46  0.08  5.51545569008
0.46  0.1  5.49774015894
0.46  0.12  5.48041557132
0.46  0.14  5.46535768246
0.46  0.16  5.45421085587
0.46  0.18  5.44820086241
0.46  0.2  7.40324797873
0.46  0.22  6.1750646534
0.46  0.24  5.15063436794
0.46  0.26  4.29615492003
0.46  0.28  3.58343182187
0.46  0.3  2.9889479921
0.46  0.32  2.49308778389
0.46  0.34  2.07948974509
0.46  0.36  1.73450675418
0.46  0.38  1.44675571852
0.46  0.4  1.20674197665
0.46  0.42  1.00654601159
0.46  0.44  0.839562137596
0.46  0.46  0.700280538365
0.46  0.48  0.584105464567
0.46  0.5  0.487203592054
0.46  0.52  0.406377537122
0.46  0.54  0.338960355323
0.46  0.56  0.282727542704
0.46  0.58  0.235823635857
0.46  0.6  0.196700988863
0.46  0.62  0.16406870702
0.46  0.64  0.136850052349
0.46  0.66  0.114146915449
0.46  0.68  0.0952101813839
0.46  0.7  0.0794150118159
0.46  0.72  0.0662402277787
0.46  0.74  0.055251112804
0.46  0.76  0.0460850689747
0.46  0.78  0.0384396526083
0.46  0.8  0.0320625947951
0.46  0.82  0.0267434775094
0.46  0.84  0.0223067906345
0.46  0.86  0.0186061408146
0.46  0.88  0.0155194210447
0.46  0.9  0.0129447816161
0.46  0.92  0.0107972694732
0.46  0.94  0.00900602509451
0.46  0.96  0.00751194440447
0.46  0.98  0.00626572856989
0.48  -1  0.00418590929908
0.48  -0.98  0.00501846155417
0.48  -0.96  0.00601660345966
0.48  -0.94  0.00721326980391
0.48  -0.92  0.00864794590717
0.48  -0.9  0.0103679704831
0.48  -0.88  0.0124300976315
0.48  -0.86  0.0149023695023
0.48  -0.84  0.0178663614211
0.48  -0.82  0.0214198735564
0.48  -0.8  0.0256801579436
0.48  -0.78  0.0307877873448
0.48  -0.76  0.0369112936016
0.48  -0.74  0.0442527285278
0.48  -0.72  0.0530543308314
0.48  -0.7  0.0636065190467
0.48  -0.68  0.0762574742124
0.48  -0.66  0.091424628488
0.48  -0.64  0.109608438786
0.48  -0.62  0.131408899897
0.48  -0.6  0.157545341977
0.48  -0.58  0.188880165636
0.48  -0.56  0.226447297795
0.48  -0.54  0.271486307235
0.48  -0.52  0.325483305537
0.48  -0.5  0.39021998296
0.48  -0.48  0.467832397272
0.48  -0.46  0.56088145532
0.48  -0.44  0.672437412962
0.48  -0.42  0.806181181536
0.48  -0.4  0.966525783567
0.48  -0.38  1.15876196529
0.48  -0.36  1.38923277065
0.48  -0.34  1.66554283697
0.48  -0.32  1.99680931835
0.48  -0.3  2.39396271614
0.48  -0.28  2.87010754287
0.48  -0.26  3.44095472002
0.48  -0.24  4.12533997711
0.48  -0.22  4.94584535731
0.48  -0.2  4.36350477369
0.48  -0.18  4.36367235867
0.48  -0.16  4.3684859922
0.48  -0.14  4.37741391176
0.48  -0.12  4.38947435062
0.48  -0.1  4.40335027518
0.48  -0.08  4.41753932135
0.48  -0.06  4.43051932476
0.48  -0.04  4.44091013386
0.48  -0.02  4.44761526956
0.48  6.17561557e-16  4.44993108721
0.48  0.02  4.44761526956
0.48  0.04  4.44091013386
0.48  0.06  4.43051932476
0.48  0.08  4.41753932135
0.48  0.1  4.40335027518
0.48  0.12  4.38947435062
0.48  0.14  4.37741391176
0.48  0.16  4.3684859922
0.48  0.18  4.36367235867
0.48  0.2  5.92954433675
0.48  0.22  4.94584535731
0.48  0.24  4.12533997711
0.48  0.26  3.44095472002
0.48  0.28  2.87010754287
0.48  0.3  2.39396271614
0.48  0.32  1.99680931835
0.48  0.34  1.66554283697
0.48  0.36  1.38923277065
0.48  0.38  1.15876196529
0.48  0.4  0.966525783567
0.48  0.42  0.806181181536
0.48  0.44  0.672437412962
0.48  0.46  0.56088145532
0.48  0.48  0.467832397272
0.48  0.5  0.39021998296
0.48  0.52  0.325483305537
0.48  0.54  0.271486307235
0.48  0.56  0.226447297794
0.48  0.58  0.188880165636
0.48  0.6  0.157545341977
0.48  0.62  0.131408899897
0.48  0.64  0.109608438786
0.48  0.66  0.091424628488
0.48  0.68  0.0762574742124
0.48  0.7  0.0636065190466
0.48  0.72  0.0530543308314
0.48  0.74  0.0442527285278
0.48  0.76  0.0369112936016
0.48  0.78  0.0307877873448
0.48  0.8  0.0256801579436
0.48  0.82  0.0214198735564
0.48  0.84  0.0178663614211
0.48  0.86  0.0149023695023
0.48  0.88  0.0124300976315
0.48  0.9  0.0103679704831
0.48  0.92  0.00864794590717
0.48  0.94  0.00721326980391
0.48  0.96  0.00601660345966
0.48  0.98  0.00501846155417
0.5  -1  0.00335265478744
0.5  -0.98  0.00401947771751
0.5  -0.96  0.00481892772918
0.5  -0.94  0.00577738355356
0.5  -0.92  0.00692647049319
0.5  -0.9  0.00830410393359
0.5  -0.88  0.00995574040309
0.5  -0.86  0.0119358774609
0.5  -0.84  0.0143098519038
0.5  -0.82  0.0171559956259
0.5  -0.8  0.0205682202648
0.5  -0.78  0.0246591159199
0.5  -0.76  0.0295636661863
0.5  -0.74  0.0354437020861
0.5  -0.72  0.0424932418616
0.5  -0.7  0.0509448928197
0.5  -0.68  0.0610775264655
0.5  -0.66  0.0732254801742
0.5  -0.64  0.0877895890196
0.5  -0.62  0.105250411768
0.5  -0.6  0.126184087442
0.5  -0.58  0.151281345659
0.5  -0.56  0.181370298019
0.5  -0.54  0.217443762548
0.5  -0.52  0.260692022825
0.5  -0.5  0.312542102695
0.5  -0.48  0.374704852487
0.5  -0.46  0.449231400398
0.5  -0.44  0.538580831725
0.5  -0.42  0.64570132908
0.5  -0.4  0.774127450916
0.5  -0.38  0.928096758165
0.5  -0.36  1.11268963721
0.5  -0.34  1.33399693283
0.5  -0.32  1.59932092228
0.5  -0.3  1.91741626198
0.5  -0.28  2.29877885701
0.5  -0.26  2.75599218501
0.5  -0.24  3.30414250187
0.5  -0.22  3.96131662929
0.5  -0.2  3.49489779264
0.5  -0.18  3.49503201786
0.5  -0.16  3.49888744098
0.5  -0.14  3.50603815308
0.5  -0.12  3.51569781964
0.5  -0.1  3.5268115781
0.5  -0.08  3.53817612763
0.5  -0.06  3.5485723086
0.5  -0.04  3.55689470485
0.5  -0.02  3.56226510438
0.5  6.17561557e-16  3.56411993126
0.5  0.02  3.56226510438
0.5  0.04  3.55689470485
0.5  0.06  3.5485723086
0.5  0.08  3.53817612763
0.5  0.1  3.5268115781
0.5  0.12  3.51569781964
0.5  0.14  3.50603815308
0.5  0.16  3.49888744098
0.5  0.18  3.49503201786
0.5  0.2  4.74919874933
0.5  0.22  3.96131662929
0.5  0.24  3.30414250187
0.5  0.26  2.75599218501
0.5  0.28  2.29877885701
0.5  0.3  1.91741626198
0.5  0.32  1.59932092228
0.5  0.34  1.33399693283
0.5  0.36  1.11268963721
0.5  0.38  0.928096758165
0.5  0.4  0.774127450916
0.5  0.42  0.64570132908
0.5  0.44  0.538580831725
0.5  0.46  0.449231400398
0.5  0.48  0.374704852487
0.5  0.5  0.312542102695
0.5  0.52  0.260692022825
0.5  0.54  0.217443762548
0.5  0.56  0.181370298019
0.5  0.58  0.151281345659
0.5  0.6  0.126184087441
0.5  0.62  0.105250411768
0.5  0.64  0.0877895890196
0.5  0.66  0.0732254801742
0.5  0.68  0.0610775264655
0.5  0.7  0.0509448928196
0.5  0.72  0.0424932418616
0.5  0.74  0.0354437020861
0.5  0.76  0.0295636661863
0.5  0.78  0.0246591159199
0.5  0.8  0.0205682202648
0.5  0.82  0.0171559956258
0.5  0.84  0.0143098519038
0.5  0.86  0.0119358774609
0.5  0.88  0.00995574040309
0.5  0.9  0.00830410393359
0.5  0.92  0.00692647049319
0.5  0.94  0.00577738355356
0.5  0.96  0.00481892772918
0.5  0.98  0.00401947771751
0.52  -1  0.00268526939326
0.52  -0.98  0.00321935337099
0.52  -0.96  0.00385966344878
0.52  -0.94  0.00462732736087
0.52  -0.92  0.00554767502109
0.52  -0.9  0.00665107431126
0.52  -0.88  0.00797393310274
0.52  -0.86  0.00955990057414
0.52  -0.84  0.011461307464
0.52  -0.82  0.0137408927807
0.52  -0.8  0.0164738739454
0.52  -0.78  0.019750428673
0.52  -0.76  0.0236786704852
0.52  -0.74  0.0283882160347
0.52  -0.72  0.034034461949
0.52  -0.7  0.0408037123129
0.52  -0.68  0.0489193259765
0.52  -0.66  0.0586490865253
0.52  -0.64  0.0703140380942
0.52  -0.62  0.0842990785709
0.52  -0.6  0.101065659725
0.52  -0.58  0.121167013315
0.52  -0.56  0.145266405578
0.52  -0.54  0.174159022429
0.52  -0.52  0.208798207492
0.52  -0.5  0.25032691872
0.52  -0.48  0.300115441547
0.52  -0.46  0.359806602964
0.52  -0.44  0.431369978395
0.52  -0.42  0.517166880007
0.52  -0.4  0.620028270793
0.52  -0.38  0.743348175307
0.52  -0.36  0.891195669233
0.52  -0.34  1.068449143
0.52  -0.32  1.28095726965
0.52  -0.3  1.53573198819
0.52  -0.28  1.84117987027
0.52  -0.26  2.2073795042
0.52  -0.24  2.64641404909
0.52  -0.22  3.1727699319
0.52  -0.2  2.79919725416
0.52  -0.18  2.79930476026
0.52  -0.16  2.80239271604
0.52  -0.14  2.80811999473
0.52  -0.12  2.81585679097
0.52  -0.1  2.82475822501
0.52  -0.08  2.83386052721
0.52  -0.06  2.84218722599
0.52  -0.04  2.84885295132
0.52  -0.02  2.85315430962
0.52  6.17561557e-16  2.85463991138
0.52  0.02  2.85315430962
0.52  0.04  2.84885295132
