0.42  -0.76  0.463923346852
0.42  -0.74  0.530366453043
0.42  -0.72  0.606325541542
0.42  -0.7  0.693163491425
0.42  -0.68  0.792438373324
0.42  -0.66  0.905931404763
0.42  -0.64  1.03567890925
0.42  -0.62  1.18400885258
0.42  -0.6  1.35358261182
0.42  -0.58  1.54744272649
0.42  -0.56  1.76906748864
0.42  -0.54  2.02243335135
0.42  -0.52  2.31208627536
0.42  -0.5  2.64322329392
0.42  -0.48  3.02178575946
0.42  -0.46  3.45456594495
0.42  -0.44  3.94932891277
0.42  -0.42  4.51495183758
0.42  -0.4  5.16158328313
0.42  -0.38  5.90082529051
0.42  -0.36  6.74594154529
0.42  -0.34  7.71209535819
0.42  -0.32  8.81662172946
0.42  -0.3  10.0793383782
0.42  -0.28  11.5229013176
0.42  -0.26  13.1732113549
0.42  -0.24  15.0598788117
0.42  -0.22  17.2167547998
0.42  -0.2  14.9079246183
0.42  -0.18  14.9678168896
0.42  -0.16  14.7996759305
0.42  -0.14  14.4154099217
0.42  -0.12  13.843489051
0.42  -0.1  13.1299596387
0.42  -0.08  12.3397428639
0.42  -0.06  11.5571406783
0.42  -0.04  10.8826681547
0.42  -0.02  10.4210145869
0.42  6.17561557e-16  10.2561745855
0.42  0.02  10.4210145869
0.42  0.04  10.8826681547
0.42  0.06  11.5571406783
0.42  0.08  12.3397428639
0.42  0.1  13.1299596387
0.42  0.12  13.843489051
0.42  0.14  14.4154099217
0.42  0.16  14.7996759305
0.42  0.18  14.9678168896
0.42  0.2  19.6825385876
0.42  0.22  17.2167547998
0.42  0.24  15.0598788117
0.42  0.26  13.1732113549
0.42  0.28  11.5229013176
0.42  0.3  10.0793383782
0.42  0.32  8.81662172947
0.42  0.34  7.7120953582
0.42  0.36  6.74594154529
0.42  0.38  5.90082529051
0.42  0.4  5.16158328313
0.42  0.42  4.51495183758
0.42  0.44  3.94932891277
0.42  0.46  3.45456594495
0.42  0.48  3.02178575946
0.42  0.5  2.64322329392
0.42  0.52  2.31208627536
0.42  0.54  2.02243335135
0.42  0.56  1.76906748864
0.42  0.58  1.54744272649
0.42  0.6  1.35358261182
0.42  0.62  1.18400885258
0.42  0.64  1.03567890925
0.42  0.66  0.905931404763
0.42  0.68  0.792438373324
0.42  0.7  0.693163491425
0.42  0.72  0.606325541542
0.42  0.74  0.530366453043
0.42  0.76  0.463923346852
0.42  0.78  0.405804082289
0.42  0.8  0.354965867357
0.42  0.82  0.310496548674
0.42  0.84  0.271598245364
0.42  0.86  0.237573033259
0.42  0.88  0.207810422546
0.42  0.9  0.181776404192
0.42  0.92  0.159003868603
0.42  0.94  0.139084224618
0.42  0.96  0.121660068446
0.42  0.98  0.106418771036
0.44  -1  0.0766907096282
0.44  -0.98  0.0876743537978
0.44  -0.96  0.100231075591
0.44  -0.94  0.114586171199
0.44  -0.92  0.130997203739
0.44  -0.9  0.149758624517
0.44  -0.88  0.171207056159
0.44  -0.86  0.195727332386
0.44  -0.84  0.22375940281
0.44  -0.82  0.25580622663
0.44  -0.8  0.292442796864
0.44  -0.78  0.33432645704
0.44  -0.76  0.382208695428
0.44  -0.74  0.436948628458
0.44  -0.72  0.499528415222
0.44  -0.7  0.571070879648
0.44  -0.68  0.652859656516
0.44  -0.66  0.746362222793
0.44  -0.64  0.85325622751
0.44  -0.62  0.975459592608
0.44  -0.6  1.11516492483
0.44  -0.58  1.27487885607
0.44  -0.56  1.45746701809
0.44  -0.54  1.66620545841
0.44  -0.52  1.90483942017
0.44  -0.5  2.17765054022
0.44  -0.48  2.48953367151
0.44  -0.46  2.84608470785
0.44  -0.44  3.25370098705
0.44  -0.42  3.71969607366
0.44  -0.4  4.25243098106
0.44  -0.38  4.861464187
0.44  -0.36  5.55772313456
0.44  -0.34  6.35370029527
0.44  -0.32  7.26367731258
0.44  -0.3  8.30398124705
0.44  -0.28  9.49327752101
0.44  -0.26  10.8529048187
0.44  -0.24  12.4072579511
0.44  -0.22  14.184225554
0.44  -0.2  12.2820687051
0.44  -0.18  12.3314116558
0.44  -0.16  12.1928867529
0.44  -0.14  11.8763046905
0.44  -0.12  11.4051209672
0.44  -0.1  10.8172713846
0.44  -0.08  10.166242018
0.44  -0.06  9.52148602025
0.44  -0.04  8.96581391386
0.44  -0.02  8.58547520257
0.44  6.17561557e-16  8.44966983236
0.44  0.02  8.58547520257
0.44  0.04  8.96581391386
0.44  0.06  9.52148602025
0.44  0.08  10.166242018
0.44  0.1  10.8172713846
0.44  0.12  11.4051209672
0.44  0.14  11.8763046905
0.44  0.16  12.1928867529
0.44  0.18  12.3314116558
0.44  0.2  16.2156904741
0.44  0.22  14.184225554
0.44  0.24  12.4072579511
0.44  0.26  10.8529048187
0.44  0.28  9.49327752101
0.44  0.3  8.30398124705
0.44  0.32  7.26367731258
0.44  0.34  6.35370029527
0.44  0.36  5.55772313456
0.44  0.38  4.861464187
0.44  0.4  4.25243098106
0.44  0.42  3.71969607366
0.44  0.44  3.25370098705
0.44  0.46  2.84608470785
0.44  0.48  2.48953367151
0.44  0.5  2.17765054022
0.44  0.52  1.90483942017
0.44  0.54  1.66620545841
0.44  0.56  1.45746701809
0.44  0.58  1.27487885608
0.44  0.6  1.11516492483
0.44  0.62  0.975459592608
0.44  0.64  0.85325622751
0.44  0.66  0.746362222793
0.44  0.68  0.652859656516
0.44  0.7  0.571070879648
0.44  0.72  0.499528415223
0.44  0.74  0.436948628458
0.44  0.76  0.382208695428
0.44  0.78  0.33432645704
0.44  0.8  0.292442796864
0.44  0.82  0.25580622663
0.44  0.84  0.22375940281
0.44  0.86  0.195727332386
0.44  0.88  0.171207056159
0.44  0.9  0.149758624517
0.44  0.92  0.130997203739
0.44  0.94  0.114586171199
0.44  0.96  0.100231075591
0.44  0.98  0.0876743537978
0.46  -1  0.0631825414207
0.46  -0.98  0.0722315456098
0.46  -0.96  0.0825765482657
0.46  -0.94  0.0944031623014
0.46  -0.92  0.107923584113
0.46  -0.9  0.123380400866
0.46  -0.88  0.141050943063
0.46  -0.86  0.161252260483
0.46  -0.84  0.184346810778
0.46  -0.82  0.210748962789
0.46  -0.8  0.240932431263
0.46  -0.78  0.275438776383
0.46  -0.76  0.314887120582
0.46  -0.74  0.359985257016
0.46  -0.72  0.411542348983
0.46  -0.7  0.470483448157
0.46  -0.68  0.537866092121
0.46  -0.66  0.614899279
0.46  -0.64  0.702965159644
0.46  -0.62  0.80364383656
0.46  -0.6  0.918741714551
0.46  -0.58  1.05032391173
0.46  -0.56  1.20075131246
0.46  -0.54  1.37272292696
0.46  -0.52  1.56932431774
0.46  -0.5  1.7940829616
0.46  -0.48  2.0510315406
0.46  -0.46  2.34478029754
0.46  -0.44  2.68059975427
0.46  -0.42  3.06451527683
0.46  -0.4  3.50341518421
0.46  -0.38  4.00517434053
0.46  -0.36  4.57879544805
0.46  -0.34  5.2345705761
0.46  -0.32  5.98426582428
0.46  -0.3  6.84133243311
0.46  -0.28  7.82114812989
0.46  -0.26  8.94129304017
0.46  -0.24  10.2218651153
0.46  -0.22  11.6858407352
0.46  -0.2  10.1187264853
0.46  -0.18  10.1593782545
0.46  -0.16  10.045252887
0.46  -0.14  9.78443303847
0.46  -0.12  9.39624279672
0.46  -0.1  8.91193601713
0.46  -0.08  8.37557783089
0.46  -0.06  7.84438803314
0.46  -0.04  7.3865910451
0.46  -0.02  7.0732445329
0.46  6.17561557e-16  6.96135968439
0.46  0.02  7.0732445329
0.46  0.04  7.3865910451
0.46  0.06  7.84438803314
0.46  0.08  8.37557783089
0.46  0.1  8.91193601713
0.46  0.12  9.39624279672
0.46  0.14  9.78443303847
0.46  0.16  10.045252887
0.46  0.18  10.1593782545
0.46  0.2  13.3594869576
0.46  0.22  11.6858407352
0.46  0.24  10.2218651153
0.46  0.26  8.94129304017
0.46  0.28  7.82114812989
0.46  0.3  6.84133243311
0.46  0.32  5.98426582428
0.46  0.34  5.2345705761
0.46  0.36  4.57879544805
0.46  0.38  4.00517434054
0.46  0.4  3.50341518421
0.46  0.42  3.06451527683
0.46  0.44  2.68059975427
0.46  0.46  2.34478029754
0.46  0.48  2.0510315406
0.46  0.5  1.7940829616
0.46  0.52  1.56932431774
0.46  0.54  1.37272292696
0.46  0.56  1.20075131246
0.46  0.58  1.05032391173
0.46  0.6  0.918741714551
0.46  0.62  0.80364383656
0.46  0.64  0.702965159644
0.46  0.66  0.614899279
0.46  0.68  0.537866092121
0.46  0.7  0.470483448157
0.46  0.72  0.411542348983
0.46  0.74  0.359985257016
0.46  0.76  0.314887120582
0.46  0.78  0.275438776383
0.46  0.8  0.240932431263
0.46  0.82  0.210748962789
0.46  0.84  0.184346810778
0.46  0.86  0.161252260483
0.46  0.88  0.141050943063
0.46  0.9  0.123380400866
0.46  0.92  0.107923584113
0.46  0.94  0.0944031623014
0.46  0.96  0.0825765482657
0.46  0.98  0.0722315456098
0.48  -1  0.0520536784667
0.48  -0.98  0.0595088067967
0.48  -0.96  0.0680316586776
0.48  -0.94  0.0777751534868
0.48  -0.92  0.0889141117162
0.48  -0.9  0.10164839165
0.48  -0.88  0.116206475279
0.48  -0.86  0.132849567784
0.48  -0.84  0.151876284158
0.48  -0.82  0.173628007034
0.48  -0.8  0.198495011869
0.48  -0.78  0.226923469375
0.48  -0.76  0.259423450838
0.48  -0.74  0.296578079959
0.48  -0.72  0.339053995419
0.48  -0.7  0.387613311899
0.48  -0.68  0.443127294152
0.48  -0.66  0.506591989477
0.48  -0.64  0.579146099075
0.48  -0.62  0.662091408947
0.48  -0.6  0.756916146896
0.48  -0.58  0.865321684724
0.48  -0.56  0.98925306472
0.48  -0.54  1.13093389815
0.48  -0.52  1.29290626191
0.48  -0.5  1.47807630915
0.48  -0.48  1.68976641235
0.48  -0.46  1.93177477415
0.48  -0.44  2.20844357586
0.48  -0.42  2.524736886
0.48  -0.4  2.88632972707
0.48  -0.38  3.2997098983
0.48  -0.36  3.77229438162
0.48  -0.34  4.31256241919
0.48  -0.32  4.93020765029
0.48  -0.3  5.63631203731
0.48  -0.28  6.44354470143
0.48  -0.26  7.36638923545
0.48  -0.24  8.4214035725
0.48  -0.22  9.62751707304
0.48  -0.2  8.33643160141
0.48  -0.18  8.36992303873
0.48  -0.16  8.27589951497
0.48  -0.14  8.06102002091
0.48  -0.12  7.74120493317
0.48  -0.1  7.34220310739
0.48  -0.08  6.9003181192
0.48  -0.06  6.46269116854
0.48  -0.04  6.08552974574
0.48  -0.02  5.8273755432
0.48  6.17561557e-16  5.73519789731
0.48  0.02  5.8273755432
0.48  0.04  6.08552974574
0.48  0.06  6.46269116854
0.48  0.08  6.9003181192
0.48  0.1  7.34220310739
0.48  0.12  7.74120493317
0.48  0.14  8.06102002091
0.48  0.16  8.27589951497
0.48  0.18  8.36992303873
0.48  0.2  11.0063701607
0.48  0.22  9.62751707304
0.48  0.24  8.4214035725
0.48  0.26  7.36638923545
0.48  0.28  6.44354470143
0.48  0.3  5.63631203731
0.48  0.32  4.93020765029
0.48  0.34  4.31256241919
0.48  0.36  3.77229438162
0.48  0.38  3.2997098983
0.48  0.4  2.88632972707
0.48  0.42  2.524736886
0.48  0.44  2.20844357586
0.48  0.46  1.93177477415
0.48  0.48  1.68976641235
0.48  0.5  1.47807630915
0.48  0.52  1.29290626191
0.48  0.54  1.13093389815
0.48  0.56  0.989253064721
0.48  0.58  0.865321684724
0.48  0.6  0.756916146896
0.48  0.62  0.662091408947
0.48  0.64  0.579146099075
0.48  0.66  0.506591989477
0.48  0.68  0.443127294152
0.48  0.7  0.387613311899
0.48  0.72  0.339053995419
0.48  0.74  0.296578079959
0.48  0.76  0.259423450838
0.48  0.78  0.226923469375
0.48  0.8  0.198495011869
0.48  0.82  0.173628007034
0.48  0.84  0.151876284158
0.48  0.86  0.132849567784
0.48  0.88  0.116206475279
0.48  0.9  0.10164839165
0.48  0.92  0.0889141117162
0.48  0.94  0.0777751534868
0.48  0.96  0.0680316586776
0.48  0.98  0.0595088067967
0.5  -1  0.0428850340773
0.5  -0.98  0.0490270290698
0.5  -0.96  0.056048680644
0.5  -0.94  0.0640759732242
0.5  -0.92  0.0732529347247
0.5  -0.9  0.0837442207395
0.5  -0.88  0.0957380688382
0.5  -0.86  0.109449675977
0.5  -0.84  0.125125059621
0.5  -0.82  0.143045471862
0.5  -0.8  0.163532445716
0.5  -0.78  0.186953564162
0.5  -0.76  0.213729055417
0.5  -0.74  0.244339332786
0.5  -0.72  0.279333614375
0.5  -0.7  0.319339777308
0.5  -0.68  0.365075623281
0.5  -0.66  0.417361757554
0.5  -0.64  0.477136312479
0.5  -0.62  0.545471779735
0.5  -0.6  0.623594253268
0.5  -0.58  0.71290542821
0.5  -0.56  0.815007750485
0.5  -0.54  0.931733168337
0.5  -0.52  1.06517600166
0.5  -0.5  1.21773051884
0.5  -0.48  1.39213389545
0.5  -0.46  1.59151532532
0.5  -0.44  1.8194521655
0.5  -0.42  2.08003412212
0.5  -0.4  2.37793662907
0.5  -0.38  2.71850473592
0.5  -0.36  3.10784901031
0.5  -0.34  3.55295517541
0.5  -0.32  4.06180944976
0.5  -0.3  4.64354183816
0.5  -0.28  5.30858994482
0.5  -0.26  6.06888624771
0.5  -0.24  6.93807219439
0.5  -0.22  7.93174296071
0.5  -0.2  6.8680670385
0.5  -0.18  6.8956593523
0.5  -0.16  6.81819696848
0.5  -0.14  6.64116597477
0.5  -0.12  6.37768256034
0.5  -0.1  6.04896022217
0.5  -0.08  5.68490808725
0.5  -0.06  5.32436398652
0.5  -0.04  5.01363512075
0.5  -0.02  4.80095175044
0.5  6.17561557e-16  4.72501011478
0.5  0.02  4.80095175044
0.5  0.04  5.01363512075
0.5  0.06  5.32436398652
0.5  0.08  5.68490808725
0.5  0.1  6.04896022217
0.5  0.12  6.37768256034
0.5  0.14  6.64116597477
0.5  0.16  6.81819696848
0.5  0.18  6.8956593523
0.5  0.2  9.06772726372
0.5  0.22  7.93174296071
0.5  0.24  6.93807219439
0.5  0.26  6.06888624771
0.5  0.28  5.30858994482
0.5  0.3  4.64354183816
0.5  0.32  4.06180944976
0.5  0.34  3.55295517541
0.5  0.36  3.10784901031
0.5  0.38  2.71850473592
0.5  0.4  2.37793662907
0.5  0.42  2.08003412212
0.5  0.44  1.8194521655
0.5  0.46  1.59151532532
0.5  0.48  1.39213389545
0.5  0.5  1.21773051884
0.5  0.52  1.06517600166
0.5  0.54  0.931733168337
0.5  0.56  0.815007750485
0.5  0.58  0.71290542821
0.5  0.6  0.623594253268
0.5  0.62  0.545471779735
0.5  0.64  0.477136312479
0.5  0.66  0.417361757554
0.5  0.68  0.365075623281
0.5  0.7  0.319339777308
0.5  0.72  0.279333614375
0.5  0.74  0.244339332786
0.5  0.76  0.213729055417
0.5  0.78  0.186953564162
0.5  0.8  0.163532445716
0.5  0.82  0.143045471862
0.5  0.84  0.125125059621
0.5  0.86  0.109449675977
0.5  0.88  0.0957380688382
0.5  0.9  0.0837442207396
0.5  0.92  0.0732529347247
0.5  0.94  0.0640759732242
0.5  0.96  0.056048680644
0.5  0.98  0.0490270290698
0.52  -1  0.0353313387639
0.52  -0.98  0.040391493441
0.52  -0.96  0.0461763635195
0.52  -0.94  0.0527897427463
0.52  -0.92  0.0603502902094
0.52  -0.9  0.0689936593528
0.52  -0.88  0.078874931908
0.52  -0.86  0.0901714004134
0.52  -0.84  0.103085749247
0.52  -0.82  0.117849691244
0.52  -0.8  0.134728125156
0.52  -0.78  0.154023888534
0.52  -0.76  0.17608319133
0.52  -0.74  0.201301827683
0.52  -0.72  0.230132277377
0.52  -0.7  0.263091824353
0.52  -0.68  0.300771837964
0.52  -0.66  0.343848383486
0.52  -0.64  0.393094352271
0.52  -0.62  0.449393329179
0.52  -0.6  0.5137554461
0.52  -0.58  0.587335506025
0.52  -0.56  0.671453702838
0.52  -0.54  0.767619308608
0.52  -0.52  0.877557753359
0.52  -0.5  1.00324158322
0.52  -0.48  1.14692585241
0.52  -0.46  1.31118858401
0.52  -0.44  1.4989770256
0.52  -0.42  1.7136605296
0.52  -0.4  1.95909100711
0.52  -0.38  2.23967203997
0.52  -0.36  2.56043789104
0.52  -0.34  2.92714383039
0.52  -0.32  3.34636939789
0.52  -0.3  3.82563645519
0.52  -0.28  4.37354414505
0.52  -0.26  4.99992317951
0.52  -0.24  5.7160122253
0.52  -0.22  6.5346595511
0.52  -0.2  5.6583376558
0.52  -0.18  5.68106990744
0.52  -0.16  5.61725161318
0.52  -0.14  5.4714025508
0.52  -0.12  5.25432864671
0.52  -0.1  4.98350688945
0.52  -0.08  4.68357826438
0.52  -0.06  4.38653977447
0.52  -0.04  4.13054215067
0.52  -0.02  3.9553204593
0.52  6.17561557e-16  3.89275505126
0.52  0.02  3.9553204593
0.52  0.04  4.13054215067
0.52  0.06  4.38653977447
0.52  0.08  4.68357826438
0.52  0.1  4.98350688945
0.52  0.12  5.25432864671
0.52  0.14  5.4714025508
0.52  0.16  5.61725161318
0.52  0.18  5.68106990744
0.52  0.2  7.47055355477
0.52  0.22  6.5346595511
0.52  0.24  5.7160122253
0.52  0.26  4.99992317951
0.52  0.28  4.37354414505
0.52  0.3  3.82563645519
0.52  0.32  3.34636939789
0.52  0.34  2.92714383039
0.52  0.36  2.56043789104
0.52  0.38  2.23967203997
0.52  0.4  1.95909100711
0.52  0.42  1.7136605296
0.52  0.44  1.4989770256
0.52  0.46  1.31118858401
0.52  0.48  1.14692585241
0.52  0.5  1.00324158322
0.52  0.52  0.877557753359
0.52  0.54  0.767619308608
0.52  0.56  0.671453702838
0.52  0.58  0.587335506025
0.52  0.6  0.5137554461
0.52  0.62  0.449393329179
0.52  0.64  0.393094352271
0.52  0.66  0.343848383486
0.52  0.68  0.300771837964
0.52  0.7  0.263091824353
0.52  0.72  0.230132277377
0.52  0.74  0.201301827683
0.52  0.76  0.17608319133
0.52  0.78  0.154023888534
0.52  0.8  0.134728125156
0.52  0.82  0.117849691244
0.52  0.84  0.103085749247
0.52  0.86  0.0901714004134
0.52  0.88  0.078874931908
0.52  0.9  0.0689936593528
0.52  0.92  0.0603502902094
0.52  0.94  0.0527897427463
0.52  0.96  0.0461763635195
0.52  0.98  0.040391493441
0.54  -1  0.029108138205
0.54  -0.98  0.0332770060382
0.54  -0.96  0.0380429391626
0.54  -0.94  0.0434914492749
0.54  -0.92  0.0497202950578
0.54  -0.9  0.0568412361935
0.54  -0.88  0.064982038587
0.54  -0.86  0.0742887667775
0.54  -0.84  0.0849284046689
0.54  -0.82  0.0970918516013
0.54  -0.8  0.11099734752
0.54  -0.78  0.126894388698
0.54  -0.76  0.145068204266
0.54  -0.74  0.165844873874
0.54  -0.72  0.189597178303
0.54  -0.7  0.216751288001
0.54  -0.68  0.24779440955
0.54  -0.66  0.283283527266
0.54  -0.64  0.323855396762
0.54  -0.62  0.370237969796
0.54  -0.6  0.423263455387
0.54  -0.58  0.483883251532
0.54  -0.56  0.553185015464
0.54  -0.54  0.632412178692
0.54  -0.52  0.722986256998
0.54  -0.5  0.826532355669
0.54  -0.48  0.944908327586
0.54  -0.46  1.08023810734
0.54  -0.44  1.23494981945
0.54  -0.42  1.41181934445
0.54  -0.4  1.61402012452
0.54  -0.38  1.84518010225
0.54  -0.36  2.10944681422
0.54  -0.34  2.41156180721
0.54  -0.32  2.7569457124
0.54  -0.3  3.15179550381
0.54  -0.28  3.60319568614
0.54  -0.26  4.11924540692
0.54  -0.24  4.70920377366
0.54  -0.22  5.38365598335
0.54  -0.2  4.66168790252
0.54  -0.18  4.6804161349
0.54  -0.16  4.62783868399
0.54  -0.14  4.50767922178
0.54  -0.12  4.32884033761
0.54  -0.1  4.10572065364
0.54  -0.08  3.85862093493
0.54  -0.06  3.613902288
0.54  -0.04  3.40299564041
0.54  -0.02  3.25863719299
0.54  6.17561557e-16  3.20709194711
0.54  0.02  3.25863719299
0.54  0.04  3.40299564041
0.54  0.06  3.613902288
0.54  0.08  3.85862093493
0.54  0.1  4.10572065364
0.54  0.12  4.32884033761
0.54  0.14  4.50767922178
0.54  0.16  4.62783868399
0.54  0.18  4.6804161349
0.54  0.2  6.15470324499
0.54  0.22  5.38365598335
0.54  0.24  4.70920377366
0.54  0.26  4.11924540692
0.54  0.28  3.60319568614
0.54  0.3  3.15179550381
0.54  0.32  2.7569457124
0.54  0.34  2.41156180721
0.54  0.36  2.10944681422
0.54  0.38  1.84518010225
0.54  0.4  1.61402012452
0.54  0.42  1.41181934445
0.54  0.44  1.23494981945
0.54  0.46  1.08023810734
0.54  0.48  0.944908327586
0.54  0.5  0.826532355669
0.54  0.52  0.722986256998
0.54  0.54  0.632412178692
0.54  0.56  0.553185015464
0.54  0.58  0.483883251532
0.54  0.6  0.423263455387
0.54  0.62  0.370237969796
0.54  0.64  0.323855396762
0.54  0.66  0.283283527266
0.54  0.68  0.24779440955
0.54  0.7  0.216751288001
0.54  0.72  0.189597178303
0.54  0.74  0.165844873874
0.54  0.76  0.145068204266
0.54  0.78  0.126894388698
0.54  0.8  0.11099734752
0.54  0.82  0.0970918516013
0.54  0.84  0.0849284046689
0.54  0.86  0.0742887667776
0.54  0.88  0.064982038587
0.54  0.9  0.0568412361935
0.54  0.92  0.0497202950578
0.54  0.94  0.0434914492749
0.54  0.96  0.0380429391627
0.54  0.98  0.0332770060382
0.56  -1  0.0239810813686
0.56  -0.98  0.0274156520726
0.56  -0.96  0.0313421220257
0.56  -0.94  0.0358309410433
0.56  -0.92  0.0409626487636
0.56  -0.9  0.046829319713
0.56  -0.88  0.053536215332
0.56  -0.86  0.061203672606
0.56  -0.84  0.0699692631845
0.56  -0.82  0.0799902617298
0.56  -0.8  0.091446467783
0.56  -0.78  0.104543431777
0.56  -0.76  0.11951614308
0.56  -0.74  0.13663324624
0.56  -0.72  0.156201861079
0.56  -0.7  0.178573093123
0.56  -0.68  0.204148333235
0.56  -0.66  0.233386459482
0.56  -0.64  0.26681207045
0.56  -0.62  0.305024897743
0.56  -0.6  0.348710566527
0.56  -0.58  0.398652897214
0.56  -0.56  0.455747968982
0.56  -0.54  0.521020197476
0.56  -0.52  0.595640715163
0.56  -0.5  0.680948384109
0.56  -0.48  0.778473818222
0.56  -0.46  0.889966845944
0.56  -0.44  1.01742790617
0.56  -0.42  1.16314394066
0.56  -0.4  1.32972942701
0.56  -0.38  1.52017328832
0.56  -0.36  1.73789252128
0.56  -0.34  1.98679350486
0.56  -0.32  2.27134208971
0.56  -0.3  2.59664372562
0.56  -0.28  2.96853506494
0.56  -0.26  3.39368868545
0.56  -0.24  3.87973281157
0.56  -0.22  4.43538818211
0.56  -0.2  3.84058630334
0.56  -0.18  3.85601577743
0.56  -0.16  3.81269922728
0.56  -0.14  3.71370444376
0.56  -0.12  3.56636592959
0.56  -0.1  3.38254615869
0.56  -0.08  3.17897015466
0.56  -0.06  2.97735582457
0.56  -0.04  2.80359790706
0.56  -0.02  2.68466650549
0.56  6.17561557e-16  2.64220034956
0.56  0.02  2.68466650549
0.56  0.04  2.80359790706
0.56  0.06  2.97735582457
0.56  0.08  3.17897015466
0.56  0.1  3.38254615869
0.56  0.12  3.56636592959
0.56  0.14  3.71370444376
0.56  0.16  3.81269922728
0.56  0.18  3.85601577743
0.56  0.2  5.07062452015
0.56  0.22  4.43538818211
0.56  0.24  3.87973281157
0.56  0.26  3.39368868545
0.56  0.28  2.96853506494
0.56  0.3  2.59664372562
0.56  0.32  2.27134208971
0.56  0.34  1.98679350486
0.56  0.36  1.73789252128
0.56  0.38  1.52017328832
0.56  0.4  1.32972942701
0.56  0.42  1.16314394066
0.56  0.44  1.01742790617
0.56  0.46  0.889966845944
0.56  0.48  0.778473818222
0.56  0.5  0.68094838411
0.56  0.52  0.595640715163
0.56  0.54  0.521020197476
0.56  0.56  0.455747968982
0.56  0.58  0.398652897214
0.56  0.6  0.348710566527
0.56  0.62  0.305024897743
0.56  0.64  0.26681207045
0.56  0.66  0.233386459482
0.56  0.68  0.204148333235
0.56  0.7  0.178573093123
0.56  0.72  0.156201861079
0.56  0.74  0.13663324624
0.56  0.76  0.11951614308
0.56  0.78  0.104543431777
0.56  0.8  0.091446467783
0.56  0.82  0.0799902617298
0.56  0.84  0.0699692631845
0.56  0.86  0.0612036726061
0.56  0.88  0.053536215332
0.56  0.9  0.046829319713
0.56  0.92  0.0409626487636
0.56  0.94  0.0358309410433
0.56  0.96  0.0313421220257
0.56  0.98  0.0274156520726
0.58  -1  0.0197570954061
0.58  -0.98  0.0225867067999
0.58  -0.96  0.0258215751647
0.58  -0.94  0.0295197414078
0.58  -0.92  0.0337475590558
0.58  -0.9  0.0385808847878
0.58  -0.88  0.0441064394777
0.58  -0.86  0.0504233641633
0.58  -0.84  0.0576449988631
0.58  -0.82  0.0659009161539
0.58  -0.8  0.0753392459984
0.58  -0.78  0.0861293335338
0.58  -0.76  0.0984647775098
0.58  -0.74  0.11256690389
0.58  -0.72  0.128688736947
0.58  -0.7  0.147119539088
0.58  -0.68  0.168190000889
0.58  -0.66  0.192278174432
0.58  -0.64  0.219816256421
0.58  -0.62  0.251298342777
0.58  -0.6  0.287289293843
0.58  -0.58  0.328434869266
0.58  -0.56  0.375473314397
0.58  -0.54  0.429248606091
0.58  -0.52  0.490725595578
0.58  -0.5  0.56100732009
0.58  -0.48  0.641354793861
0.58  -0.46  0.733209633598
0.58  -0.44  0.838219924364
0.58  -0.42  0.958269789982
0.58  -0.4  1.09551319851
0.58  -0.38  1.25241260932
0.58  -0.36  1.43178315525
0.58  -0.34  1.6368431525
0.58  -0.32  1.87127184452
0.58  -0.3  2.13927541607
0.58  -0.28  2.4456624617
0.58  -0.26  2.79593026296
0.58  -0.24  3.19636342207
0.58  -0.22  3.65414662208
0.58  -0.2  3.16411211171
0.58  -0.18  3.17682386507
0.58  -0.16  3.14113701672
0.58  -0.14  3.05957900219
0.58  -0.12  2.93819243765
0.58  -0.1  2.78675036148
0.58  -0.08  2.61903188073
0.58  -0.06  2.45292954807
0.58  -0.04  2.30977704794
0.58  -0.02  2.21179401659
0.58  6.17561557e-16  2.17680777551
0.58  0.02  2.21179401659
0.58  0.04  2.30977704794
0.58  0.06  2.45292954807
0.58  0.08  2.61903188073
0.58  0.1  2.78675036148
0.58  0.12  2.93819243765
0.58  0.14  3.05957900219
0.58  0.16  3.14113701672
0.58  0.18  3.17682386507
0.58  0.2  4.17749353639
0.58  0.22  3.65414662208
0.58  0.24  3.19636342207
0.58  0.26  2.79593026296
0.58  0.28  2.4456624617
0.58  0.3  2.13927541607
0.58  0.32  1.87127184452
0.58  0.34  1.6368431525
0.58  0.36  1.43178315525
0.58  0.38  1.25241260932
0.58  0.4  1.09551319851
0.58  0.42  0.958269789982
0.58  0.44  0.838219924364
0.58  0.46  0.733209633598
0.58  0.48  0.641354793861
0.58  0.5  0.56100732009
0.58  0.52  0.490725595578
0.58  0.54  0.429248606091
0.58  0.56  0.375473314397
0.58  0.58  0.328434869266
0.58  0.6  0.287289293843
0.58  0.62  0.251298342777
0.58  0.64  0.219816256421
0.58  0.66  0.192278174432
0.58  0.68  0.168190000889
0.58  0.7  0.147119539088
0.58  0.72  0.128688736947
0.58  0.74  0.11256690389
0.58  0.76  0.0984647775098
0.58  0.78  0.0861293335338
0.58  0.8  0.0753392459984
0.58  0.82  0.0659009161539
0.58  0.84  0.0576449988631
0.58  0.86  0.0504233641633
0.58  0.88  0.0441064394777
0.58  0.9  0.0385808847879
0.58  0.92  0.0337475590558
0.58  0.94  0.0295197414078
0.58  0.96  0.0258215751647
0.58  0.98  0.0225867067999
0.6  -1  0.0162771149843
0.6  -0.98  0.0186083235487
0.6  -0.96  0.0212734078261
0.6  -0.94  0.0243201854992
0.6  -0.92  0.0278033227
0.6  -0.9  0.0317853148441
0.6  -0.88  0.0363376079414
0.6  -0.86  0.0415418804998
0.6  -0.84  0.0474915090239
0.6  -0.82  0.0542932434024
0.6  -0.8  0.062069122244
0.6  -0.78  0.0709586625279
0.6  -0.76  0.0811213628567
0.6  -0.74  0.0927395652241
0.6  -0.72  0.106021726646
0.6  -0.7  0.121206159355
0.6  -0.68  0.138565306662
0.6  -0.66  0.158410631213
0.6  -0.64  0.181098203336
0.6  -0.62  0.207035089757
0.6  -0.6  0.236686657301
0.6  -0.58  0.270584922633
0.6  -0.56  0.309338097851
0.6  -0.54  0.353641503196
0.6  -0.52  0.40429004268
0.6  -0.5  0.462192466476
0.6  -0.48  0.528387675964
0.6  -0.46  0.60406336399
0.6  -0.44  0.690577324782
0.6  -0.42  0.78948181587
0.6  -0.4  0.902551409122
0.6  -0.38  1.0318148306
0.6  -0.36  1.17959136055
0.6  -0.34  1.34853244654
0.6  -0.32  1.54166927649
0.6  -0.3  1.76246716507
0.6  -0.28  2.01488772938
0.6  -0.26  2.30345996933
0.6  -0.24  2.63336152827
0.6  -0.22  3.01051159163
0.6  -0.2  2.60679090762
0.6  -0.18  2.61726363485
0.6  -0.16  2.5878626059
0.6  -0.14  2.5206700782
0.6  -0.12  2.42066433201
0.6  -0.1  2.29589699974
0.6  -0.08  2.15772016048
0.6  -0.06  2.0208748038
0.6  -0.04  1.90293693606
0.6  -0.02  1.82221246543
0.6  6.17561557e-16  1.79338864
0.6  0.02  1.82221246543
0.6  0.04  1.90293693606
0.6  0.06  2.0208748038
0.6  0.08  2.15772016048
0.6  0.1  2.29589699974
0.6  0.12  2.42066433201
0.6  0.14  2.5206700782
0.6  0.16  2.5878626059
0.6  0.18  2.61726363485
0.6  0.2  3.4416770907
0.6  0.22  3.01051159163
0.6  0.24  2.63336152827
0.6  0.26  2.30345996933
0.6  0.28  2.01488772938
0.6  0.3  1.76246716507
0.6  0.32  1.54166927649
0.6  0.34  1.34853244654
0.6  0.36  1.17959136055
0.6  0.38  1.0318148306
0.6  0.4  0.902551409122
0.6  0.42  0.78948181587
0.6  0.44  0.690577324782
0.6  0.46  0.60406336399
0.6  0.48  0.528387675964
0.6  0.5  0.462192466476
0.6  0.52  0.40429004268
0.6  0.54  0.353641503196
0.6  0.56  0.309338097851
0.6  0.58  0.270584922633
0.6  0.6  0.236686657301
0.6  0.62  0.207035089757
0.6  0.64  0.181098203336
0.6  0.66  0.158410631213
0.6  0.68  0.138565306662
0.6  0.7  0.121206159355
0.6  0.72  0.106021726646
0.6  0.74  0.0927395652241
0.6  0.76  0.0811213628567
0.6  0.78  0.0709586625279
0.6  0.8  0.062069122244
0.6  0.82  0.0542932434024
0.6  0.84  0.0474915090239
0.6  0.86  0.0415418804998
0.6  0.88  0.0363376079414
0.6  0.9  0.0317853148441
0.6  0.92  0.0278033227
0.6  0.94  0.0243201854992
0.6  0.96  0.0212734078261
0.6  0.98  0.0186083235487
0.62  -1  0.0134100922614
0.62  -0.98  0.0153306858038
0.62  -0.96  0.0175263467719
0.62  -0.94  0.0200364703249
0.62  -0.92  0.0229060937973
0.62  -0.9  0.0261867047709
0.62  -0.88  0.0299371648797
0.62  -0.86  0.0342247659213
0.62  -0.84  0.0391264372253
0.62  -0.82  0.0447301259405
0.62  -0.8  0.0511363750073
0.62  -0.78  0.058460127127
0.62  -0.76  0.0668327870956
0.62  -0.74  0.0764045795053
0.62  -0.72  0.0873472441158
0.62  -0.7  0.099857117257
0.62  -0.68  0.11415865455
0.62  -0.66  0.130508458151
0.62  -0.64  0.14919988078
0.62  -0.62  0.170568289139
0.62  -0.6  0.194997081147
0.62  -0.58  0.222924564982
0.62  -0.56  0.25485182332
0.62  -0.54  0.291351703903
0.62  -0.52  0.333079097735
0.62  -0.5  0.380782689311
0.62  -0.48  0.435318389732
0.62  -0.46  0.49766469369
0.62  -0.44  0.5689402359
0.62  -0.42  0.65042386195
0.62  -0.4  0.743577573705
0.62  -0.38  0.850072760953
0.62  -0.36  0.971820189941
0.62  -0.34  1.11100428688
0.62  -0.32  1.27012233152
0.62  -0.3  1.45202926403
0.62  -0.28  1.65998890917
0.62  -0.26  1.89773253669
0.62  -0.24  2.16952580882
0.62  -0.22  2.480245316
0.62  -0.2  2.14763529108
0.62  -0.18  2.15626337035
0.62  -0.16  2.13204098751
0.62  -0.14  2.07668363477
0.62  -0.12  1.99429272677
0.62  -0.1  1.8915016954
0.62  -0.08  1.77766308428
0.62  -0.06  1.66492143072
0.62  -0.04  1.56775693387
0.62  -0.02  1.5012511311
0.62  6.17561557e-16  1.47750428415
0.62  0.02  1.5012511311
0.62  0.04  1.56775693387
0.62  0.06  1.66492143072
0.62  0.08  1.77766308428
0.62  0.1  1.8915016954
0.62  0.12  1.99429272677
0.62  0.14  2.07668363477
0.62  0.16  2.13204098751
0.62  0.18  2.15626337035
0.62  0.2  2.83546607397
0.62  0.22  2.480245316
0.62  0.24  2.16952580882
0.62  0.26  1.89773253669
0.62  0.28  1.65998890917
0.62  0.3  1.45202926403
0.62  0.32  1.27012233152
0.62  0.34  1.11100428688
0.62  0.36  0.971820189941
0.62  0.38  0.850072760953
0.62  0.4  0.743577573705
0.62  0.42  0.65042386195
0.62  0.44  0.5689402359
0.62  0.46  0.49766469369
0.62  0.48  0.435318389732
0.62  0.5  0.380782689311
0.62  0.52  0.333079097735
0.62  0.54  0.291351703903
0.62  0.56  0.25485182332
0.62  0.58  0.222924564982
0.62  0.6  0.194997081147
0.62  0.62  0.170568289139
0.62  0.64  0.14919988078
0.62  0.66  0.130508458151
0.62  0.68  0.11415865455
0.62  0.7  0.099857117257
0.62  0.72  0.0873472441158
0.62  0.74  0.0764045795053
0.62  0.76  0.0668327870956
0.62  0.78  0.058460127127
0.62  0.8  0.0511363750073
0.62  0.82  0.0447301259405
0.62  0.84  0.0391264372253
0.62  0.86  0.0342247659213
0.62  0.88  0.0299371648797
0.62  0.9  0.0261867047709
0.62  0.92  0.0229060937973
0.62  0.94  0.0200364703249
0.62  0.96  0.0175263467719
0.62  0.98  0.0153306858039
0.64  -1  0.0110480619343
0.64  -0.98  0.0126303654707
0.64  -0.96  0.0144392865347
0.64  -0.94  0.0165072812908
0.64  -0.92  0.0188714542759
0.64  -0.9  0.0215742241385
0.64  -0.88  0.0246640847268
0.64  -0.86  0.0281964751783
0.64  -0.84  0.0322347746241
0.64  -0.82  0.0368514393554
0.64  -0.8  0.0421293028538
0.64  -0.78  0.0481630620131
0.64  -0.76  0.0550609762172
0.64  -0.74  0.0629468097599
0.64  -0.72  0.0719620524583
0.64  -0.7  0.0822684583025
0.64  -0.68  0.0940509476907
0.64  -0.66  0.107520925322
0.64  -0.64  0.12292007328
0.64  -0.62  0.140524687355
0.64  -0.6  0.160650634428
0.64  -0.58  0.183659019834
0.64  -0.56  0.209962666418
0.64  -0.54  0.240033521519
0.64  -0.52  0.274411124776
0.64  -0.5  0.313712288702
0.64  -0.48  0.358642165703
0.64  -0.46  0.41000690012
0.64  -0.44  0.468728092293
0.64  -0.42  0.535859334173
0.64  -0.4  0.61260511316
0.64  -0.38  0.70034242335
0.64  -0.36  0.800645471949
0.64  -0.34  0.915313924131
0.64  -0.32  1.04640519314
0.64  -0.3  1.19627135495
0.64  -0.28  1.36760134989
0.64  -0.26  1.56346922836
0.64  -0.24  1.78738930626
0.64  -0.22  2.04337921987
0.64  -0.2  1.76935454624
0.64  -0.18  1.77646289064
0.64  -0.16  1.75650699618
0.64  -0.14  1.71090019127
0.64  -0.12  1.64302147451
0.64  -0.1  1.55833587662
0.64  -0.08  1.46454860046
0.64  -0.06  1.37166506567
0.64  -0.04  1.2916149543
0.64  -0.02  1.23682336796
0.64  6.17561557e-16  1.21725924933
0.64  0.02  1.23682336796
0.64  0.04  1.2916149543
0.64  0.06  1.37166506567
0.64  0.08  1.46454860046
0.64  0.1  1.55833587662
0.64  0.12  1.64302147451
0.64  0.14  1.71090019127
0.64  0.16  1.75650699618
0.64  0.18  1.77646289064
0.64  0.2  2.33603201136
0.64  0.22  2.04337921987
0.64  0.24  1.78738930626
0.64  0.26  1.56346922836
0.64  0.28  1.36760134989
0.64  0.3  1.19627135495
0.64  0.32  1.04640519314
0.64  0.34  0.915313924131
0.64  0.36  0.800645471949
0.64  0.38  0.70034242335
0.64  0.4  0.61260511316
0.64  0.42  0.535859334173
0.64  0.44  0.468728092293
0.64  0.46  0.41000690012
0.64  0.48  0.358642165703
0.64  0.5  0.313712288702
0.64  0.52  0.274411124776
0.64  0.54  0.240033521519
0.64  0.56  0.209962666418
0.64  0.58  0.183659019834
0.64  0.6  0.160650634428
0.64  0.62  0.140524687355
0.64  0.64  0.12292007328
0.64  0.66  0.107520925322
0.64  0.68  0.0940509476907
0.64  0.7  0.0822684583025
0.64  0.72  0.0719620524583
0.64  0.74  0.0629468097599
0.64  0.76  0.0550609762172
0.64  0.78  0.0481630620131
0.64  0.8  0.0421293028538
0.64  0.82  0.0368514393554
0.64  0.84  0.0322347746241
0.64  0.86  0.0281964751783
0.64  0.88  0.0246640847268
0.64  0.9  0.0215742241385
0.64  0.92  0.0188714542759
0.64  0.94  0.0165072812908
0.64  0.96  0.0144392865347
0.64  0.98  0.0126303654707
0.66  -1  0.00910207552084
0.66  -0.98  0.0104056748644
0.66  -0.96  0.0118959757184
0.66  -0.94  0.013599717475
0.66  -0.92  0.0155474691424
0.66  -0.9  0.0177741778223
0.66  -0.88  0.0203197957407
0.66  -0.86  0.0232299970818
0.66  -0.84  0.026556997487
0.66  -0.82  0.0303604909222
0.66  -0.8  0.0347087207236
0.66  -0.78  0.039679704039
0.66  -0.76  0.0453626316326
0.66  -0.74  0.0518594681707
0.66  -0.72  0.0592867817002
0.66  -0.7  0.0677778351447
0.66  -0.68  0.077484977345
0.66  -0.66  0.0885823765446
0.66  -0.64  0.101269145364
0.66  -0.62  0.115772913336
0.66  -0.6  0.132353911096
0.66  -0.58  0.151309639514
0.66  -0.56  0.172980207538
0.66  -0.54  0.197754434523
0.66  -0.52  0.226076826535
0.66  -0.5  0.258455551803
0.66  -0.48  0.295471558414
0.66  -0.46  0.337788997848
0.66  -0.44  0.386167141364
0.66  -0.42  0.441474003059
0.66  -0.4  0.504701914017
0.66  -0.38  0.57698532699
0.66  -0.36  0.659621171063
0.66  -0.34  0.754092121518
0.66  -0.32  0.862093202405
0.66  -0.3  0.985562199133
0.66  -0.28  1.12671442676
0.66  -0.26  1.28808247778
0.66  -0.24  1.47256166262
0.66  -0.22  1.68346195808
0.66  -0.2  1.45770351386
0.66  -0.18  1.46355980684
0.66  -0.16  1.44711890892
0.66  -0.14  1.4095452073
0.66  -0.12  1.35362252966
0.66  -0.1  1.28385330569
0.66  -0.08  1.20658555723
0.66  -0.06  1.13006236671
0.66  -0.04  1.06411214273
0.66  -0.02  1.0189714511
0.66  6.17561557e-16  1.0028533223
0.66  0.02  1.0189714511
0.66  0.04  1.06411214273
0.66  0.06  1.13006236671
0.66  0.08  1.20658555723
0.66  0.1  1.28385330569
0.66  0.12  1.35362252966
0.66  0.14  1.4095452073
0.66  0.16  1.44711890892
0.66  0.18  1.46355980684
0.66  0.2  1.92456739589
0.66  0.22  1.68346195808
0.66  0.24  1.47256166262
0.66  0.26  1.28808247778
0.66  0.28  1.12671442676
0.66  0.3  0.985562199133
0.66  0.32  0.862093202405
0.66  0.34  0.754092121518
0.66  0.36  0.659621171063
0.66  0.38  0.57698532699
0.66  0.4  0.504701914017
0.66  0.42  0.441474003059
0.66  0.44  0.386167141364
0.66  0.46  0.337788997848
0.66  0.48  0.295471558414
0.66  0.5  0.258455551803
0.66  0.52  0.226076826535
0.66  0.54  0.197754434523
0.66  0.56  0.172980207538
0.66  0.58  0.151309639514
0.66  0.6  0.132353911096
0.66  0.62  0.115772913336
0.66  0.64  0.101269145364
0.66  0.66  0.0885823765446
0.66  0.68  0.0774849773451
0.66  0.7  0.0677778351447
0.66  0.72  0.0592867817002
0.66  0.74  0.0518594681707
0.66  0.76  0.0453626316326
0.66  0.78  0.039679704039
0.66  0.8  0.0347087207236
0.66  0.82  0.0303604909222
0.66  0.84  0.026556997487
0.66  0.86  0.0232299970818
0.66  0.88  0.0203197957407
0.66  0.9  0.0177741778223
0.66  0.92  0.0155474691424
0.66  0.94  0.013599717475
0.66  0.96  0.0118959757184
0.66  0.98  0.0104056748644
0.68  -1  0.00749885176962
0.68  -0.98  0.00857283739209
0.68  -0.96  0.00980063924572
0.68  -0.94  0.0112042868926
0.68  -0.92  0.012808964969
0.68  -0.9  0.0146434650549
0.68  -0.88  0.0167407022607
0.68  -0.86  0.0191383057992
0.68  -0.84  0.0218792941396
0.68  -0.82  0.0250128468564
0.68  -0.8  0.0285951870234
0.68  -0.78  0.0326905899836
0.68  -0.76  0.037372536595
0.68  -0.74  0.042725031645
0.68  -0.72  0.0488441110876
0.68  -0.7  0.0558395651467
0.68  -0.68  0.0638369082033
0.68  -0.66  0.0729796308093
0.68  -0.64  0.0834317742347
0.68  -0.62  0.0953808737419
0.68  -0.6  0.109041323395
0.68  -0.58  0.124658222779
0.68  -0.56  0.142511774643
0.68  -0.54  0.162922312376
0.68  -0.52  0.186256047519
0.68  -0.5  0.212931640434
0.68  -0.48  0.243427712022
0.68  -0.46  0.278291431276
0.68  -0.44  0.318148332736
0.68  -0.42  0.363713540006
0.68  -0.4  0.415804596698
0.68  -0.38  0.475356135031
0.68  -0.36  0.543436645256
0.68  -0.34  0.621267646809
0.68  -0.32  0.710245605151
0.68  -0.3  0.811966987543
0.68  -0.28  0.928256907297
0.68  -0.26  1.06120187048
0.68  -0.24  1.21318721256
0.68  -0.22  1.38693989679
0.68  -0.2  1.20094615228
0.68  -0.18  1.205770928
0.68  -0.16  1.19222590124
0.68  -0.14  1.16127036608
0.68  -0.12  1.11519781161
0.68  -0.1  1.0577176174
0.68  -0.08  0.994059675767
0.68  -0.06  0.931015146926
0.68  -0.04  0.876681280692
0.68  -0.02  0.839491591979
0.68  6.17561557e-16  0.826212482349
0.68  0.02  0.839491591979
0.68  0.04  0.876681280692
0.68  0.06  0.931015146926
0.68  0.08  0.994059675767
0.68  0.1  1.0577176174
0.68  0.12  1.11519781161
0.68  0.14  1.16127036608
0.68  0.16  1.19222590124
0.68  0.18  1.205770928
0.68  0.2  1.58557744213
0.68  0.22  1.38693989679
0.68  0.24  1.21318721256
0.68  0.26  1.06120187048
0.68  0.28  0.928256907297
0.68  0.3  0.811966987543
0.68  0.32  0.710245605151
0.68  0.34  0.621267646809
0.68  0.36  0.543436645256
0.68  0.38  0.475356135031
0.68  0.4  0.415804596698
0.68  0.42  0.363713540006
0.68  0.44  0.318148332736
0.68  0.46  0.278291431276
0.68  0.48  0.243427712022
0.68  0.5  0.212931640434
0.68  0.52  0.186256047519
0.68  0.54  0.162922312376
0.68  0.56  0.142511774643
0.68  0.58  0.124658222779
0.68  0.6  0.109041323395
0.68  0.62  0.0953808737419
0.68  0.64  0.0834317742347
0.68  0.66  0.0729796308093
0.68  0.68  0.0638369082033
0.68  0.7  0.0558395651467
0.68  0.72  0.0488441110876
0.68  0.74  0.042725031645
0.68  0.76  0.037372536595
0.68  0.78  0.0326905899836
0.68  0.8  0.0285951870234
0.68  0.82  0.0250128468564
0.68  0.84  0.0218792941396
0.68  0.86  0.0191383057992
0.68  0.88  0.0167407022607
0.68  0.9  0.0146434650549
0.68  0.92  0.012808964969
0.68  0.94  0.0112042868926
0.68  0.96  0.00980063924572
0.68  0.98  0.00857283739209
0.7  -1  0.0061780170615
0.7  -0.98  0.00706283272438
0.7  -0.96  0.008074371695
0.7  -0.94  0.00923078328671
0.7  -0.92  0.0105528161577
0.7  -0.9  0.0120641905891
0.7  -0.88  0.0137920240812
0.7  -0.86  0.0157673179026
0.7  -0.84  0.018025513324
0.7  -0.82  0.0206071275154
0.7  -0.8  0.0235584805161
0.7  -0.78  0.0269325263218
0.7  -0.76  0.0307898030003
0.7  -0.74  0.0351995188817
0.7  -0.72  0.040240794314
0.7  -0.7  0.0460040812622
0.7  -0.68  0.0525927862224
0.7  -0.66  0.0601251255703
0.7  -0.64  0.0687362466319
0.7  -0.62  0.0785806525347
0.7  -0.6  0.0898349743454
0.7  -0.58  0.102701140234
0.7  -0.56  0.117409998525
0.7  -0.54  0.134225459641
0.7  -0.52  0.15344923126
0.7  -0.5  0.175426231635
0.7  -0.48  0.200550778214
0.7  -0.46  0.229273662596
0.7  -0.44  0.262110238755
0.7  -0.42  0.299649669667
0.7  -0.4  0.342565498235
0.7  -0.38  0.391627732182
0.7  -0.36  0.447716659747
0.7  -0.34  0.511838644056
0.7  -0.32  0.585144179573
0.7  -0.3  0.668948534592
0.7  -0.28  0.764755350141
0.7  -0.26  0.874283618733
0.7  -0.24  0.999498527005
0.7  -0.22  1.14264671564
0.7  -0.2  0.989413585794
0.7  -0.18  0.99338853391
0.7  -0.16  0.982229304609
0.7  -0.14  0.956726223567
0.7  -0.12  0.918768808706
0.7  -0.1  0.871413075935
0.7  -0.08  0.818967733422
0.7  -0.06  0.767027758239
0.7  -0.04  0.722264164702
0.7  -0.02  0.691625003076
0.7  6.17561557e-16  0.68068485272
0.7  0.02  0.691625003076
0.7  0.04  0.722264164702
0.7  0.06  0.767027758239
0.7  0.08  0.818967733422
0.7  0.1  0.871413075935
0.7  0.12  0.918768808706
0.7  0.14  0.956726223567
0.7  0.16  0.982229304609
0.7  0.18  0.99338853391
0.7  0.2  1.30629658923
0.7  0.22  1.14264671564
0.7  0.24  0.999498527005
0.7  0.26  0.874283618733
0.7  0.28  0.764755350141
0.7  0.3  0.668948534592
0.7  0.32  0.585144179573
0.7  0.34  0.511838644056
0.7  0.36  0.447716659747
0.7  0.38  0.391627732182
0.7  0.4  0.342565498235
0.7  0.42  0.299649669667
0.7  0.44  0.262110238755
0.7  0.46  0.229273662596
0.7  0.48  0.200550778214
0.7  0.5  0.175426231635
0.7  0.52  0.15344923126
0.7  0.54  0.134225459641
0.7  0.56  0.117409998525
0.7  0.58  0.102701140234
0.7  0.6  0.0898349743454
0.7  0.62  0.0785806525347
0.7  0.64  0.0687362466319
0.7  0.66  0.0601251255703
0.7  0.68  0.0525927862224
0.7  0.7  0.0460040812622
0.7  0.72  0.040240794314
0.7  0.74  0.0351995188817
0.7  0.76  0.0307898030003
0.7  0.78  0.0269325263218
0.7  0.8  0.0235584805161
0.7  0.82  0.0206071275154
0.7  0.84  0.018025513324
0.7  0.86  0.0157673179026
0.7  0.88  0.0137920240812
0.7  0.9  0.0120641905891
0.7  0.92  0.0105528161577
0.7  0.94  0.00923078328671
0.7  0.96  0.008074371695
0.7  0.98  0.00706283272438
0.72  -1  0.00508983188156
0.72  -0.98  0.00581879765253
0.72  -0.96  0.00665216590821
0.72  -0.94  0.00760488917347
0.72  -0.92  0.00869406147393
0.72  -0.9  0.00993922504173
0.72  -0.88  0.0113627209477
0.72  -0.86  0.0129900899509
0.72  -0.84  0.0148505307585
0.72  -0.82  0.0169774239163
0.72  -0.8  0.0194089307327
0.72  -0.78  0.0221886779786
0.72  -0.76  0.0253665406518
0.72  -0.74  0.0289995368476
0.72  -0.72  0.0331528507934
0.72  -0.7  0.0379010024025
0.72  -0.68  0.0433291843306
0.72  -0.66  0.0495347905265
0.72  -0.64  0.0566291637015
0.72  -0.62  0.0647395930707
0.72  -0.6  0.0740115982121
0.72  -0.58  0.0846115400188
0.72  -0.56  0.096729605593
0.72  -0.54  0.110583220635
0.72  -0.52  0.126420950556
0.72  -0.5  0.144526960309
0.72  -0.48  0.165226112953
0.72  -0.46  0.188889798437
0.72  -0.44  0.215942597183
0.72  -0.42  0.246869898026
0.72  -0.4  0.282226607192
0.72  -0.38  0.322647104585
0.72  -0.36  0.368856626002
0.72  -0.34  0.421684275521
0.72  -0.32  0.482077901511
0.72  -0.3  0.551121103195
0.72  -0.28  0.630052672888
0.72  -0.26  0.72028882275
0.72  -0.24  0.823448594862
0.72  -0.22  0.941382910527
0.72  -0.2  0.815139997656
0.72  -0.18  0.818414805324
0.72  -0.16  0.809221143263
0.72  -0.14  0.788210130559
0.72  -0.12  0.756938468734
0.72  -0.1  0.717923892368
0.72  -0.08  0.674716181268
0.72  -0.06  0.631924822976
0.72  -0.04  0.595045810949
0.72  -0.02  0.569803377961
0.72  6.17561557e-16  0.560790206661
0.72  0.02  0.569803377961
0.72  0.04  0.595045810949
0.72  0.06  0.631924822976
0.72  0.08  0.674716181268
0.72  0.1  0.717923892368
0.72  0.12  0.756938468734
0.72  0.14  0.788210130559
0.72  0.16  0.809221143263
0.72  0.18  0.818414805324
0.72  0.2  1.07620778001
0.72  0.22  0.941382910527
0.72  0.24  0.823448594862
0.72  0.26  0.72028882275
0.72  0.28  0.630052672888
0.72  0.3  0.551121103195
0.72  0.32  0.482077901511
0.72  0.34  0.421684275521
0.72  0.36  0.368856626002
0.72  0.38  0.322647104585
0.72  0.4  0.282226607192
0.72  0.42  0.246869898026
0.72  0.44  0.215942597183
0.72  0.46  0.188889798437
0.72  0.48  0.165226112953
0.72  0.5  0.144526960309
0.72  0.52  0.126420950556
0.72  0.54  0.110583220635
0.72  0.56  0.096729605593
0.72  0.58  0.0846115400188
0.72  0.6  0.0740115982121
0.72  0.62  0.0647395930707
0.72  0.64  0.0566291637015
0.72  0.66  0.0495347905265
0.72  0.68  0.0433291843306
0.72  0.7  0.0379010024025
0.72  0.72  0.0331528507934
0.72  0.74  0.0289995368476
0.72  0.76  0.0253665406518
0.72  0.78  0.0221886779786
0.72  0.8  0.0194089307327
0.72  0.82  0.0169774239163
0.72  0.84  0.0148505307585
0.72  0.86  0.0129900899509
0.72  0.88  0.0113627209477
0.72  0.9  0.00993922504173
0.72  0.92  0.00869406147393
0.72  0.94  0.00760488917347
0.72  0.96  0.00665216590821
0.72  0.98  0.00581879765253
0.74  -1  0.00419331774657
0.74  -0.98  0.00479388475451
0.74  -0.96  0.00548046497509
0.74  -0.94  0.00626537722146
0.74  -0.92  0.00716270460729
0.74  -0.9  0.00818854722994
0.74  -0.88  0.00936131104286
0.74  -0.86  0.0107020381003
0.74  -0.84  0.0122347840998
0.74  -0.82  0.0139870499961
0.74  -0.8  0.0159902754309
0.74  -0.78  0.0182804028317
0.74  -0.76  0.0208985223008
0.74  -0.74  0.0238916088655
0.74  -0.72  0.0273133653166
0.74  -0.7  0.0312251857596
0.74  -0.68  0.035697257164
0.74  -0.66  0.0408098186779
0.74  -0.64  0.0466546013009
0.74  -0.62  0.0533364737473
0.74  -0.6  0.0609753240296
0.74  -0.58  0.0697082105228
0.74  -0.56  0.0796918211033
0.74  -0.54  0.0911052844871
0.74  -0.52  0.104153384206
0.74  -0.5  0.119070232893
0.74  -0.48  0.136123472791
0.74  -0.46  0.155619077872
0.74  -0.44  0.177906843699
0.74  -0.42  0.203386663562
0.74  -0.4  0.232515703471
0.74  -0.38  0.265816604756
0.74  -0.36  0.303886861442
0.74  -0.34  0.347409540656
0.74  -0.32  0.397165538405
0.74  -0.3  0.45404759063
0.74  -0.28  0.519076290921
0.74  -0.26  0.593418402292
0.74  -0.24  0.678407791568
0.74  -0.22  0.775569361992
0.74  -0.2  0.671562656222
0.74  -0.18  0.674260644964
0.74  -0.16  0.666686338548
0.74  -0.14  0.649376169078
0.74  -0.12  0.623612643376
0.74  -0.1  0.591470026634
0.74  -0.08  0.555872846618
0.74  -0.06  0.520618683749
0.74  -0.04  0.490235476757
0.74  -0.02  0.469439202013
0.74  6.17561557e-16  0.462013595029
0.74  0.02  0.469439202013
0.74  0.04  0.490235476757
0.74  0.06  0.520618683749
0.74  0.08  0.555872846618
0.74  0.1  0.591470026634
0.74  0.12  0.623612643376
0.74  0.14  0.649376169078
0.74  0.16  0.666686338548
0.74  0.18  0.674260644964
0.74  0.2  0.886646413465
0.74  0.22  0.775569361992
0.74  0.24  0.678407791568
0.74  0.26  0.593418402292
0.74  0.28  0.519076290921
0.74  0.3  0.45404759063
0.74  0.32  0.397165538405
0.74  0.34  0.347409540656
0.74  0.36  0.303886861442
0.74  0.38  0.265816604756
0.74  0.4  0.232515703471
0.74  0.42  0.203386663562
0.74  0.44  0.177906843699
0.74  0.46  0.155619077872
0.74  0.48  0.136123472791
0.74  0.5  0.119070232893
0.74  0.52  0.104153384206
0.74  0.54  0.0911052844871
0.74  0.56  0.0796918211033
0.74  0.58  0.0697082105228
0.74  0.6  0.0609753240296
0.74  0.62  0.0533364737473
0.74  0.64  0.0466546013009
0.74  0.66  0.0408098186779
0.74  0.68  0.035697257164
0.74  0.7  0.0312251857596
0.74  0.72  0.0273133653166
0.74  0.74  0.0238916088655
0.74  0.76  0.0208985223008
0.74  0.78  0.0182804028317
0.74  0.8  0.0159902754309
0.74  0.82  0.0139870499961
0.74  0.84  0.0122347840998
0.74  0.86  0.0107020381003
0.74  0.88  0.00936131104286
0.74  0.9  0.00818854722994
0.74  0.92  0.00716270460729
0.74  0.94  0.00626537722146
0.74  0.96  0.00548046497509
0.74  0.98  0.00479388475451
0.76  -1  0.00345471405203
0.76  -0.98  0.00394949823174
0.76  -0.96  0.00451514540642
0.76  -0.94  0.00516180457489
0.76  -0.92  0.00590107827569
0.76  -0.9  0.006746230763
0.76  -0.88  0.00771242599768
0.76  -0.86  0.00881699972313
0.76  -0.84  0.0100797705082
0.76  -0.82  0.0115233953372
0.76  -0.8  0.013173776128
0.76  -0.78  0.0150605244716
0.76  -0.76  0.0172174929311
0.76  -0.74  0.019683382434
0.76  -0.72  0.0225024366553
0.76  -0.7  0.0257252358491
0.76  -0.68  0.0294096043745
0.76  -0.66  0.0336216481955
0.76  -0.64  0.038436940973
0.76  -0.62  0.0439418800283
0.76  -0.6  0.050235236508
0.76  -0.58  0.0574299275631
0.76  -0.56  0.0656550423403
0.76  -0.54  0.0750581581348
0.76  -0.52  0.0858079882638
0.76  -0.5  0.0980974091671
0.76  -0.48  0.11214692105
0.76  -0.46  0.12820860416
0.76  -0.44  0.146570641679
0.76  -0.42  0.167562490388
0.76  -0.4  0.191560791871
0.76  -0.38  0.218996130322
0.76  -0.36  0.250360758211
0.76  -0.34  0.286217428406
0.76  -0.32  0.327209491251
0.76  -0.3  0.374072437731
0.76  -0.28  0.427647095855
0.76  -0.26  0.488894717031
0.76  -0.24  0.5589142231
0.76  -0.22  0.6389619235
0.76  -0.2  0.553274777988
0.76  -0.18  0.555497547686
0.76  -0.16  0.549257366428
0.76  -0.14  0.534996180101
0.76  -0.12  0.513770597007
0.76  -0.1  0.487289524873
0.76  -0.08  0.457962370231
0.76  -0.06  0.428917814293
0.76  -0.04  0.403886252536
0.76  -0.02  0.386752997455
0.76  6.17561557e-16  0.38063532397
0.76  0.02  0.386752997455
0.76  0.04  0.403886252536
0.76  0.06  0.428917814293
0.76  0.08  0.457962370231
0.76  0.1  0.487289524873
0.76  0.12  0.513770597007
0.76  0.14  0.534996180101
0.76  0.16  0.549257366428
0.76  0.18  0.555497547686
0.76  0.2  0.730474056321
0.76  0.22  0.6389619235
0.76  0.24  0.5589142231
0.76  0.26  0.488894717031
0.76  0.28  0.427647095855
0.76  0.3  0.374072437731
0.76  0.32  0.327209491251
0.76  0.34  0.286217428406
0.76  0.36  0.250360758211
0.76  0.38  0.218996130322
0.76  0.4  0.191560791871
0.76  0.42  0.167562490388
0.76  0.44  0.146570641679
0.76  0.46  0.12820860416
0.76  0.48  0.11214692105
0.76  0.5  0.0980974091671
0.76  0.52  0.0858079882638
0.76  0.54  0.0750581581348
0.76  0.56  0.0656550423403
0.76  0.58  0.0574299275631
0.76  0.6  0.050235236508
0.76  0.62  0.0439418800283
0.76  0.64  0.038436940973
0.76  0.66  0.0336216481955
0.76  0.68  0.0294096043745
0.76  0.7  0.0257252358491
0.76  0.72  0.0225024366553
0.76  0.74  0.019683382434
0.76  0.76  0.0172174929311
