0.18  -0.28  35.4510606978
0.18  -0.26  43.0591096118
0.18  -0.24  52.2998997511
0.18  -0.22  63.5238289558
0.18  -0.2  56.5065742116
0.18  -0.18  56.5394230208
0.18  -0.16  56.9140112233
0.18  -0.14  57.5844692359
0.18  -0.12  58.4709053643
0.18  -0.1  59.4718245957
0.18  -0.08  60.4779123437
0.18  -0.06  61.3845306759
0.18  -0.04  62.1015605524
0.18  -0.02  62.5603470564
0.18  6.17561557e-16  62.718112441
0.18  0.02  62.5603470564
0.18  0.04  62.1015605524
0.18  0.06  61.3845306759
0.18  0.08  60.4779123437
0.18  0.1  59.4718245957
0.18  0.12  58.4709053643
0.18  0.14  57.5844692359
0.18  0.16  56.9140112233
0.18  0.18  56.5394230208
0.18  0.2  77.1564929265
0.18  0.22  63.5238289558
0.18  0.24  52.299899751
0.18  0.26  43.0591096118
0.18  0.28  35.4510606978
0.18  0.3  29.1872664328
0.18  0.32  24.0302124972
0.18  0.34  19.7843506171
0.18  0.36  16.2886836471
0.18  0.38  13.4106607839
0.18  0.4  11.041151425
0.18  0.42  9.09030708875
0.18  0.44  7.48415448601
0.18  0.46  6.16179055599
0.18  0.48  5.07307310757
0.18  0.5  4.1767194975
0.18  0.52  3.43874125031
0.18  0.54  2.83115526279
0.18  0.56  2.33092272392
0.18  0.58  1.91907551533
0.18  0.6  1.57999696675
0.18  0.62  1.30082969377
0.18  0.64  1.07098806378
0.18  0.66  0.881756803569
0.18  0.68  0.725960528349
0.18  0.7  0.597691661224
0.18  0.72  0.492086426116
0.18  0.74  0.405140420182
0.18  0.76  0.333556772457
0.18  0.78  0.274621131118
0.18  0.8  0.226098739058
0.18  0.82  0.186149695019
0.18  0.84  0.153259187115
0.18  0.86  0.126180053278
0.18  0.88  0.103885490618
0.18  0.9  0.0855301204953
0.18  0.92  0.0704179329416
0.18  0.94  0.0579758949368
0.18  0.96  0.0477322217979
0.18  0.98  0.0392984877638
0.2  -1  0.0310712294811
0.2  -0.98  0.0377393355704
0.2  -0.96  0.0458384644921
0.2  -0.94  0.0556757238896
0.2  -0.92  0.0676241288834
0.2  -0.9  0.0821367462828
0.2  -0.88  0.0997638742462
0.2  -0.86  0.121173908817
0.2  -0.84  0.147178688568
0.2  -0.82  0.178764278384
0.2  -0.8  0.217128359662
0.2  -0.78  0.26372564472
0.2  -0.76  0.320323037447
0.2  -0.74  0.389066631833
0.2  -0.72  0.472563088852
0.2  -0.7  0.573978477395
0.2  -0.68  0.697158327184
0.2  -0.66  0.846773445875
0.2  -0.64  1.02849702956
0.2  -0.62  1.24921978241
0.2  -0.6  1.51731120258
0.2  -0.58  1.84293694183
0.2  -0.56  2.23844427286
0.2  -0.54  2.71883028061
0.2  -0.52  3.30231053076
0.2  -0.5  4.01100977847
0.2  -0.48  4.87180090823
0.2  -0.46  5.917323916
0.2  -0.44  7.18722357222
0.2  -0.42  8.72965269612
0.2  -0.4  10.6030980432
0.2  -0.38  12.8785980414
0.2  -0.36  15.6424364686
0.2  -0.34  18.9994142133
0.2  -0.32  23.0768231773
0.2  -0.3  28.029273007
0.2  -0.28  34.0445536746
0.2  -0.26  41.3507562116
0.2  -0.24  50.2249216018
0.2  -0.22  61.0035457876
0.2  -0.2  54.2646978919
0.2  -0.18  54.2962434374
0.2  -0.16  54.6559699988
0.2  -0.14  55.299827851
0.2  -0.12  56.1510949712
0.2  -0.1  57.112303122
0.2  -0.08  58.0784747306
0.2  -0.06  58.9491233336
0.2  -0.04  59.6377053291
0.2  -0.02  60.0782896573
0.2  6.17561557e-16  60.2297957616
0.2  0.02  60.0782896573
0.2  0.04  59.6377053291
0.2  0.06  58.9491233336
0.2  0.08  58.0784747306
0.2  0.1  57.112303122
0.2  0.12  56.1510949712
0.2  0.14  55.299827851
0.2  0.16  54.6559699988
0.2  0.18  54.2962434374
0.2  0.2  74.0953391259
0.2  0.22  61.0035457876
0.2  0.24  50.2249216018
0.2  0.26  41.3507562116
0.2  0.28  34.0445536746
0.2  0.3  28.029273007
0.2  0.32  23.0768231773
0.2  0.34  18.9994142133
0.2  0.36  15.6424364686
0.2  0.38  12.8785980414
0.2  0.4  10.6030980432
0.2  0.42  8.72965269612
0.2  0.44  7.18722357222
0.2  0.46  5.917323916
0.2  0.48  4.87180090823
0.2  0.5  4.01100977847
0.2  0.52  3.30231053076
0.2  0.54  2.71883028061
0.2  0.56  2.23844427286
0.2  0.58  1.84293694183
0.2  0.6  1.51731120258
0.2  0.62  1.24921978241
0.2  0.64  1.02849702956
0.2  0.66  0.846773445875
0.2  0.68  0.697158327184
0.2  0.7  0.573978477395
0.2  0.72  0.472563088851
0.2  0.74  0.389066631833
0.2  0.76  0.320323037447
0.2  0.78  0.26372564472
0.2  0.8  0.217128359662
0.2  0.82  0.178764278384
0.2  0.84  0.147178688568
0.2  0.86  0.121173908817
0.2  0.88  0.0997638742462
0.2  0.9  0.0821367462828
0.2  0.92  0.0676241288833
0.2  0.94  0.0556757238896
0.2  0.96  0.0458384644921
0.2  0.98  0.0377393355704
0.22  -1  0.0292113591651
0.22  -0.98  0.0354803239012
0.22  -0.96  0.0430946529061
0.22  -0.94  0.0523430708882
0.22  -0.92  0.063576264925
0.22  -0.9  0.0772201820264
0.22  -0.88  0.0937921804503
0.22  -0.86  0.113920647203
0.22  -0.84  0.138368825599
0.22  -0.82  0.168063756374
0.22  -0.8  0.20413142978
0.22  -0.78  0.247939481559
0.22  -0.76  0.301149051775
0.22  -0.74  0.365777772924
0.22  -0.72  0.444276275742
0.22  -0.7  0.539621113686
0.22  -0.68  0.655427629687
0.22  -0.66  0.796087044895
0.22  -0.64  0.966932967645
0.22  -0.62  1.17444363643
0.22  -0.6  1.42648756563
0.22  -0.58  1.73262190861
0.22  -0.56  2.10445485156
0.22  -0.54  2.55608577975
0.22  -0.52  3.10463990642
0.22  -0.5  3.770917637
0.22  -0.48  4.58018329135
0.22  -0.46  5.56312309145
0.22  -0.44  6.75700874005
0.22  -0.42  8.20711071146
0.22  -0.4  9.96841484472
0.22  -0.38  12.1077073297
0.22  -0.36  14.7061071458
0.22  -0.34  17.8621419809
0.22  -0.32  21.6954842624
0.22  -0.3  26.3514889696
0.22  -0.28  32.0067052901
0.22  -0.26  38.8755711189
0.22  -0.24  47.2185442433
0.22  -0.22  57.3519785378
0.22  -0.2  51.016506478
0.22  -0.18  51.0461637614
0.22  -0.16  51.3843577101
0.22  -0.14  51.9896753395
0.22  -0.12  52.7899870751
0.22  -0.1  53.6936589605
0.22  -0.08  54.6019971996
0.22  -0.06  55.4205302757
0.22  -0.04  56.0678949382
0.22  -0.02  56.4821066469
0.22  6.17561557e-16  56.6245438566
0.22  0.02  56.4821066469
0.22  0.04  56.0678949382
0.22  0.06  55.4205302757
0.22  0.08  54.6019971996
0.22  0.1  53.6936589605
0.22  0.12  52.7899870751
0.22  0.14  51.9896753395
0.22  0.16  51.3843577101
0.22  0.18  51.0461637614
0.22  0.2  69.6601196608
0.22  0.22  57.3519785378
0.22  0.24  47.2185442433
0.22  0.26  38.8755711189
0.22  0.28  32.0067052901
0.22  0.3  26.3514889695
0.22  0.32  21.6954842624
0.22  0.34  17.8621419808
0.22  0.36  14.7061071458
0.22  0.38  12.1077073297
0.22  0.4  9.96841484472
0.22  0.42  8.20711071146
0.22  0.44  6.75700874004
0.22  0.46  5.56312309145
0.22  0.48  4.58018329135
0.22  0.5  3.770917637
0.22  0.52  3.10463990642
0.22  0.54  2.55608577975
0.22  0.56  2.10445485156
0.22  0.58  1.73262190861
0.22  0.6  1.42648756563
0.22  0.62  1.17444363643
0.22  0.64  0.966932967645
0.22  0.66  0.796087044895
0.22  0.68  0.655427629687
0.22  0.7  0.539621113686
0.22  0.72  0.444276275742
0.22  0.74  0.365777772924
0.22  0.76  0.301149051774
0.22  0.78  0.247939481559
0.22  0.8  0.20413142978
0.22  0.82  0.168063756374
0.22  0.84  0.138368825599
0.22  0.86  0.113920647203
0.22  0.88  0.0937921804502
0.22  0.9  0.0772201820264
0.22  0.92  0.063576264925
0.22  0.94  0.0523430708882
0.22  0.96  0.0430946529061
0.22  0.98  0.0354803239012
0.24  -1  0.0268097769666
0.24  -0.98  0.0325633451397
0.24  -0.96  0.0395516698259
0.24  -0.94  0.0480397385253
0.24  -0.92  0.0583494069336
0.24  -0.9  0.0708716032604
0.24  -0.88  0.0860811516804
0.24  -0.86  0.104554777001
0.24  -0.84  0.126992973263
0.24  -0.82  0.154246565491
0.24  -0.8  0.187348971794
0.24  -0.78  0.227555389129
0.24  -0.76  0.27639038862
0.24  -0.74  0.33570572516
0.24  -0.72  0.407750553367
0.24  -0.7  0.495256712384
0.24  -0.68  0.601542313397
0.24  -0.66  0.730637557773
0.24  -0.64  0.88743755666
0.24  -0.62  1.07788794676
0.24  -0.6  1.30921034054
0.24  -0.58  1.59017615971
0.24  -0.56  1.93143923526
0.24  -0.54  2.34593978579
0.24  -0.52  2.84939509258
0.24  -0.5  3.46089547686
0.24  -0.48  4.2036281781
0.24  -0.46  5.10575658176
0.24  -0.44  6.20148813542
0.24  -0.42  7.53237144738
0.24  -0.4  9.1488717518
0.24  -0.38  11.1122844798
0.24  -0.36  13.4970594966
0.24  -0.34  16.3936241359
0.24  -0.32  19.9118120786
0.24  -0.3  24.1850280919
0.24  -0.28  29.3753065515
0.24  -0.26  35.6794555589
0.24  -0.24  43.336519629
0.24  -0.22  52.6368439243
0.24  -0.2  46.8222362595
0.24  -0.18  46.8494552995
0.24  -0.16  47.1598449765
0.24  -0.14  47.7153970323
0.24  -0.12  48.4499119522
0.24  -0.1  49.2792893721
0.24  -0.08  50.1129495063
0.24  -0.06  50.8641877177
0.24  -0.04  51.4583299525
0.24  -0.02  51.8384876666
0.24  6.17561557e-16  51.9692145459
0.24  0.02  51.8384876666
0.24  0.04  51.4583299525
0.24  0.06  50.8641877177
0.24  0.08  50.1129495063
0.24  0.1  49.2792893721
0.24  0.12  48.4499119522
0.24  0.14  47.7153970323
0.24  0.16  47.1598449765
0.24  0.18  46.8494552995
0.24  0.2  63.9330837369
0.24  0.22  52.6368439243
0.24  0.24  43.336519629
0.24  0.26  35.6794555589
0.24  0.28  29.3753065515
0.24  0.3  24.1850280919
0.24  0.32  19.9118120786
0.24  0.34  16.3936241359
0.24  0.36  13.4970594966
0.24  0.38  11.1122844798
0.24  0.4  9.1488717518
0.24  0.42  7.53237144738
0.24  0.44  6.20148813542
0.24  0.46  5.10575658176
0.24  0.48  4.2036281781
0.24  0.5  3.46089547686
0.24  0.52  2.84939509258
0.24  0.54  2.34593978579
0.24  0.56  1.93143923526
0.24  0.58  1.59017615971
0.24  0.6  1.30921034054
0.24  0.62  1.07788794676
0.24  0.64  0.88743755666
0.24  0.66  0.730637557773
0.24  0.68  0.601542313397
0.24  0.7  0.495256712384
0.24  0.72  0.407750553367
0.24  0.74  0.33570572516
0.24  0.76  0.27639038862
0.24  0.78  0.227555389129
0.24  0.8  0.187348971794
0.24  0.82  0.154246565491
0.24  0.84  0.126992973263
0.24  0.86  0.104554777001
0.24  0.88  0.0860811516803
0.24  0.9  0.0708716032604
0.24  0.92  0.0583494069336
0.24  0.94  0.0480397385253
0.24  0.96  0.0395516698259
0.24  0.98  0.0325633451397
0.26  -1  0.0239110191773
0.26  -0.98  0.0290424933816
0.26  -0.96  0.0352752183236
0.26  -0.94  0.0428455302177
0.26  -0.92  0.052040484705
0.26  -0.9  0.063208741602
0.26  -0.88  0.0767737855932
0.26  -0.86  0.0932499841783
0.26  -0.84  0.113262091768
0.26  -0.82  0.137568939499
0.26  -0.8  0.167092209047
0.26  -0.78  0.202951381511
0.26  -0.76  0.246506186566
0.26  -0.74  0.299408161517
0.26  -0.72  0.363663275278
0.26  -0.7  0.441707991912
0.26  -0.68  0.536501657941
0.26  -0.66  0.651638716628
0.26  -0.64  0.791485004237
0.26  -0.62  0.96134329644
0.26  -0.6  1.16765438216
0.26  -0.58  1.41824128927
0.26  -0.56  1.72260592289
0.26  -0.54  2.09228936432
0.26  -0.52  2.5413094927
0.26  -0.5  3.08669252344
0.26  -0.48  3.74911861842
0.26  -0.46  4.55370604886
0.26  -0.44  5.53096364505
0.26  -0.42  6.71794764848
0.26  -0.4  8.15966683277
0.26  -0.38  9.91078917337
0.26  -0.36  12.0377147808
0.26  -0.34  14.6210936998
0.26  -0.32  17.7588840467
0.26  -0.3  21.5700664437
0.26  -0.28  26.1991555979
0.26  -0.26  31.8216800971
0.26  -0.24  38.650838208
0.26  -0.22  46.9455820567
0.26  -0.2  41.7596681435
0.26  -0.18  41.7839441749
0.26  -0.16  42.0607735394
0.26  -0.14  42.5562575517
0.26  -0.12  43.2113543977
0.26  -0.1  43.9510569107
0.26  -0.08  44.6945790772
0.26  -0.06  45.3645910398
0.26  -0.04  45.894492739
0.26  -0.02  46.2335466
0.26  6.17561557e-16  46.3501388761
0.26  0.02  46.2335466
0.26  0.04  45.894492739
0.26  0.06  45.3645910398
0.26  0.08  44.6945790772
0.26  0.1  43.9510569107
0.26  0.12  43.2113543978
0.26  0.14  42.5562575517
0.26  0.16  42.0607735394
0.26  0.18  41.7839441749
0.26  0.2  57.0204367312
0.26  0.22  46.9455820567
0.26  0.24  38.650838208
0.26  0.26  31.8216800971
0.26  0.28  26.1991555979
0.26  0.3  21.5700664437
0.26  0.32  17.7588840467
0.26  0.34  14.6210936998
0.26  0.36  12.0377147808
0.26  0.38  9.91078917337
0.26  0.4  8.15966683277
0.26  0.42  6.71794764848
0.26  0.44  5.53096364504
0.26  0.46  4.55370604886
0.26  0.48  3.74911861841
0.26  0.5  3.08669252344
0.26  0.52  2.5413094927
0.26  0.54  2.09228936432
0.26  0.56  1.72260592289
0.26  0.58  1.41824128927
0.26  0.6  1.16765438216
0.26  0.62  0.96134329644
0.26  0.64  0.791485004236
0.26  0.66  0.651638716628
0.26  0.68  0.536501657941
0.26  0.7  0.441707991912
0.26  0.72  0.363663275278
0.26  0.74  0.299408161517
0.26  0.76  0.246506186566
0.26  0.78  0.202951381511
0.26  0.8  0.167092209047
0.26  0.82  0.137568939499
0.26  0.84  0.113262091768
0.26  0.86  0.0932499841783
0.26  0.88  0.0767737855932
0.26  0.9  0.063208741602
0.26  0.92  0.052040484705
0.26  0.94  0.0428455302177
0.26  0.96  0.0352752183236
0.26  0.98  0.0290424933816
0.28  -1  0.020568841993
0.28  -0.98  0.0249830612831
0.28  -0.96  0.0303446033222
0.28  -0.94  0.0368567702873
0.28  -0.92  0.0447664944433
0.28  -0.9  0.0543737014698
0.28  -0.88  0.0660426832232
0.28  -0.86  0.0802159111741
0.28  -0.84  0.0974308143077
0.28  -0.82  0.118340157678
0.28  -0.8  0.143736794348
0.28  -0.78  0.174583729267
0.28  -0.76  0.212050635072
0.28  -0.74  0.25755820444
0.28  -0.72  0.312832020767
0.28  -0.7  0.379967989875
0.28  -0.68  0.461511813835
0.28  -0.66  0.560555520425
0.28  -0.64  0.680854708502
0.28  -0.62  0.826970955059
0.28  -0.6  1.00444478384
0.28  -0.58  1.22000575428
0.28  -0.56  1.48182763693
0.28  -0.54  1.79983835148
0.28  -0.52  2.18609641952
0.28  -0.5  2.65524820689
0.28  -0.48  3.22508329332
0.28  -0.46  3.91720902848
0.28  -0.44  4.7578698524
0.28  -0.42  5.778942448
0.28  -0.4  7.0191444603
0.28  -0.38  8.52550261539
0.28  -0.36  10.3551359081
0.28  -0.34  12.5774214744
0.28  -0.32  15.2766252756
0.28  -0.3  18.5550973452
0.28  -0.28  22.5371527599
0.28  -0.26  27.3737854926
0.28  -0.24  33.2483938933
0.28  -0.22  40.3837348978
0.28  -0.2  35.922685242
0.28  -0.18  35.9435680765
0.28  -0.16  36.1817034489
0.28  -0.14  36.6079308833
0.28  -0.12  37.1714611711
0.28  -0.1  37.8077713174
0.28  -0.08  38.4473672228
0.28  -0.06  39.0237278576
0.28  -0.04  39.479562226
0.28  -0.02  39.7712246282
0.28  6.17561557e-16  39.8715201483
0.28  0.02  39.7712246282
0.28  0.04  39.479562226
0.28  0.06  39.0237278576
0.28  0.08  38.4473672228
0.28  0.1  37.8077713174
0.28  0.12  37.1714611711
0.28  0.14  36.6079308833
0.28  0.16  36.1817034489
0.28  0.18  35.9435680765
0.28  0.2  49.0503706595
0.28  0.22  40.3837348978
0.28  0.24  33.2483938933
0.28  0.26  27.3737854926
0.28  0.28  22.5371527599
0.28  0.3  18.5550973452
0.28  0.32  15.2766252756
0.28  0.34  12.5774214744
0.28  0.36  10.3551359081
0.28  0.38  8.52550261538
0.28  0.4  7.0191444603
0.28  0.42  5.778942448
0.28  0.44  4.7578698524
0.28  0.46  3.91720902848
0.28  0.48  3.22508329332
0.28  0.5  2.65524820689
0.28  0.52  2.18609641952
0.28  0.54  1.79983835148
0.28  0.56  1.48182763693
0.28  0.58  1.22000575428
0.28  0.6  1.00444478384
0.28  0.62  0.826970955059
0.28  0.64  0.680854708502
0.28  0.66  0.560555520425
0.28  0.68  0.461511813835
0.28  0.7  0.379967989875
0.28  0.72  0.312832020767
0.28  0.74  0.25755820444
0.28  0.76  0.212050635072
0.28  0.78  0.174583729267
0.28  0.8  0.143736794348
0.28  0.82  0.118340157678
0.28  0.84  0.0974308143077
0.28  0.86  0.0802159111741
0.28  0.88  0.0660426832231
0.28  0.9  0.0543737014698
0.28  0.92  0.0447664944433
0.28  0.94  0.0368567702873
0.28  0.96  0.0303446033222
0.28  0.98  0.0249830612831
0.3  -1  0.016845224628
0.3  -0.98  0.0204603292374
0.3  -0.96  0.024851260921
0.3  -0.94  0.0301845176683
0.3  -0.92  0.0366623291172
0.3  -0.9  0.0445303248199
0.3  -0.88  0.0540868481712
0.3  -0.86  0.0656942691733
0.3  -0.84  0.0797927249995
0.3  -0.82  0.0969168093804
0.3  -0.8  0.11771584365
0.3  -0.78  0.142978498104
0.3  -0.76  0.173662697274
0.3  -0.74  0.210931943085
0.3  -0.72  0.256199433223
0.3  -0.7  0.311181647615
0.3  -0.68  0.377963434946
0.3  -0.66  0.45907706721
0.3  -0.64  0.557598259915
0.3  -0.62  0.677262798925
0.3  -0.6  0.822608196226
0.3  -0.58  0.999145746042
0.3  -0.56  1.2135695054
0.3  -0.54  1.47401012342
0.3  -0.52  1.79034314416
0.3  -0.5  2.17456347341
0.3  -0.48  2.64124020879
0.3  -0.46  3.20806907954
0.3  -0.44  3.89654344381
0.3  -0.42  4.73276928678
0.3  -0.4  5.74845512308
0.3  -0.38  6.98211433935
0.3  -0.36  8.48052556799
0.3  -0.34  10.3005064675
0.3  -0.32  12.5110681687
0.3  -0.3  15.1960320801
0.3  -0.28  18.4572082787
0.3  -0.26  22.4182560058
0.3  -0.24  27.2293726523
0.3  -0.22  33.0729890338
0.3  -0.2  29.4195318507
0.3  -0.18  29.4366342251
0.3  -0.16  29.6316594891
0.3  -0.14  29.9807261443
0.3  -0.12  30.4422394509
0.3  -0.1  30.9633571371
0.3  -0.08  31.4871657552
0.3  -0.06  31.9591867062
0.3  -0.04  32.3325004946
0.3  -0.02  32.5713626864
0.3  6.17561557e-16  32.653501514
0.3  0.02  32.5713626864
0.3  0.04  32.3325004946
0.3  0.06  31.9591867062
0.3  0.08  31.4871657552
0.3  0.1  30.9633571371
0.3  0.12  30.4422394509
0.3  0.14  29.9807261443
0.3  0.16  29.6316594891
0.3  0.18  29.4366342251
0.3  0.2  40.1706869122
0.3  0.22  33.0729890338
0.3  0.24  27.2293726523
0.3  0.26  22.4182560058
0.3  0.28  18.4572082787
0.3  0.3  15.1960320801
0.3  0.32  12.5110681687
0.3  0.34  10.3005064675
0.3  0.36  8.48052556799
0.3  0.38  6.98211433935
0.3  0.4  5.74845512308
0.3  0.42  4.73276928678
0.3  0.44  3.89654344381
0.3  0.46  3.20806907954
0.3  0.48  2.64124020879
0.3  0.5  2.17456347341
0.3  0.52  1.79034314416
0.3  0.54  1.47401012342
0.3  0.56  1.2135695054
0.3  0.58  0.999145746042
0.3  0.6  0.822608196226
0.3  0.62  0.677262798925
0.3  0.64  0.557598259915
0.3  0.66  0.45907706721
0.3  0.68  0.377963434946
0.3  0.7  0.311181647615
0.3  0.72  0.256199433223
0.3  0.74  0.210931943085
0.3  0.76  0.173662697274
0.3  0.78  0.142978498104
0.3  0.8  0.11771584365
0.3  0.82  0.0969168093803
0.3  0.84  0.0797927249995
0.3  0.86  0.0656942691733
0.3  0.88  0.0540868481712
0.3  0.9  0.0445303248199
0.3  0.92  0.0366623291172
0.3  0.94  0.0301845176682
0.3  0.96  0.024851260921
0.3  0.98  0.0204603292374
0.32  -1  0.0133702430822
0.32  -0.98  0.0162395920201
0.32  -0.96  0.019724723579
0.32  -0.94  0.0239577890741
0.32  -0.92  0.0290993004297
0.32  -0.9  0.0353442165669
0.32  -0.88  0.0429293359731
0.32  -0.86  0.0521422757695
0.32  -0.84  0.0633323777505
0.32  -0.82  0.0769239549356
0.32  -0.8  0.093432380926
0.32  -0.78  0.113483632151
0.32  -0.76  0.137838024018
0.32  -0.74  0.167419041012
0.32  -0.72  0.203348353931
0.32  -0.7  0.246988352082
0.32  -0.68  0.29999380317
0.32  -0.66  0.364374599781
0.32  -0.64  0.442571971696
0.32  -0.62  0.537551053911
0.32  -0.6  0.652913320411
0.32  -0.58  0.793033147026
0.32  -0.56  0.963223681646
0.32  -0.54  1.16993831136
0.32  -0.52  1.42101536587
0.32  -0.5  1.72597533599
0.32  -0.48  2.09638187735
0.32  -0.46  2.54628028804
0.32  -0.44  3.09273008669
0.32  -0.42  3.75645188553
0.32  -0.4  4.56261308708
0.32  -0.38  5.54178219681
0.32  -0.36  6.73108793814
0.32  -0.34  8.17562712173
0.32  -0.32  9.93017465347
0.32  -0.3  12.0612605223
0.32  -0.28  14.6496925244
0.32  -0.26  17.7936203818
0.32  -0.24  21.6122574425
0.32  -0.22  26.2504010841
0.32  -0.2  23.3506112797
0.32  -0.18  23.3641856254
0.32  -0.16  23.5189793574
0.32  -0.14  23.7960374635
0.32  -0.12  24.1623457338
0.32  -0.1  24.5759626663
0.32  -0.08  24.9917154216
0.32  -0.06  25.3663637266
0.32  -0.04  25.6626670534
0.32  -0.02  25.852254645
0.32  6.17561557e-16  25.9174491506
0.32  0.02  25.852254645
0.32  0.04  25.6626670534
0.32  0.06  25.3663637266
0.32  0.08  24.9917154216
0.32  0.1  24.5759626663
0.32  0.12  24.1623457338
0.32  0.14  23.7960374635
0.32  0.16  23.5189793574
0.32  0.18  23.3641856254
0.32  0.2  31.8839232278
0.32  0.22  26.2504010841
0.32  0.24  21.6122574425
0.32  0.26  17.7936203818
0.32  0.28  14.6496925244
0.32  0.3  12.0612605223
0.32  0.32  9.93017465346
0.32  0.34  8.17562712173
0.32  0.36  6.73108793813
0.32  0.38  5.5417821968
0.32  0.4  4.56261308708
0.32  0.42  3.75645188553
0.32  0.44  3.09273008669
0.32  0.46  2.54628028804
0.32  0.48  2.09638187735
0.32  0.5  1.72597533599
0.32  0.52  1.42101536587
0.32  0.54  1.16993831136
0.32  0.56  0.963223681646
0.32  0.58  0.793033147026
0.32  0.6  0.652913320411
0.32  0.62  0.537551053911
0.32  0.64  0.442571971696
0.32  0.66  0.364374599781
0.32  0.68  0.29999380317
0.32  0.7  0.246988352082
0.32  0.72  0.203348353931
0.32  0.74  0.167419041012
0.32  0.76  0.137838024018
0.32  0.78  0.113483632151
0.32  0.8  0.093432380926
0.32  0.82  0.0769239549356
0.32  0.84  0.0633323777505
0.32  0.86  0.0521422757695
0.32  0.88  0.0429293359731
0.32  0.9  0.0353442165669
0.32  0.92  0.0290993004297
0.32  0.94  0.0239577890741
0.32  0.96  0.019724723579
0.32  0.98  0.0162395920201
0.34  -1  0.0106121113861
0.34  -0.98  0.0128895457116
0.34  -0.96  0.0156557335864
0.34  -0.94  0.0190155649868
0.34  -0.92  0.0230964400213
0.34  -0.9  0.0280530997647
0.34  -0.88  0.0340734938234
0.34  -0.86  0.0413859071216
0.34  -0.84  0.0502676161462
0.34  -0.82  0.0610554028839
0.34  -0.8  0.0741583251226
0.34  -0.78  0.0900732273515
0.34  -0.76  0.109403580408
0.34  -0.74  0.132882364251
0.34  -0.72  0.161399861531
0.34  -0.7  0.196037415869
0.34  -0.68  0.238108434889
0.34  -0.66  0.289208192804
0.34  -0.64  0.351274320978
0.34  -0.62  0.426660280203
0.34  -0.6  0.518224600637
0.34  -0.58  0.629439273273
0.34  -0.56  0.764521402981
0.34  -0.54  0.928593115228
0.34  -0.52  1.12787577992
0.34  -0.5  1.36992591702
0.34  -0.48  1.66392172928
0.34  -0.46  2.02101112679
0.34  -0.44  2.45473444016
0.34  -0.42  2.98153785095
0.34  -0.4  3.62139700784
0.34  -0.38  4.39857447532
0.34  -0.36  5.3425397362
0.34  -0.34  6.4890866332
0.34  -0.32  7.88169062137
0.34  -0.3  9.57315729661
0.34  -0.28  11.62762471
0.34  -0.26  14.122995393
0.34  -0.24  17.1538903126
0.34  -0.22  20.8352367659
0.34  -0.2  18.5336411845
0.34  -0.18  18.5444152944
0.34  -0.16  18.6672768098
0.34  -0.14  18.8871809255
0.34  -0.12  19.1779238942
0.34  -0.1  19.5062162769
0.34  -0.08  19.836203886
0.34  -0.06  20.1335664335
0.34  -0.04  20.3687456961
0.34  -0.02  20.5192234867
0.34  6.17561557e-16  20.5709690946
0.34  0.02  20.5192234867
0.34  0.04  20.3687456961
0.34  0.06  20.1335664335
0.34  0.08  19.836203886
0.34  0.1  19.5062162769
0.34  0.12  19.1779238942
0.34  0.14  18.8871809255
0.34  0.16  18.6672768098
0.34  0.18  18.5444152944
0.34  0.2  25.3066262625
0.34  0.22  20.8352367659
0.34  0.24  17.1538903126
0.34  0.26  14.122995393
0.34  0.28  11.62762471
0.34  0.3  9.57315729661
0.34  0.32  7.88169062137
0.34  0.34  6.4890866332
0.34  0.36  5.3425397362
0.34  0.38  4.39857447532
0.34  0.4  3.62139700784
0.34  0.42  2.98153785095
0.34  0.44  2.45473444016
0.34  0.46  2.02101112679
0.34  0.48  1.66392172928
0.34  0.5  1.36992591702
0.34  0.52  1.12787577992
0.34  0.54  0.928593115228
0.34  0.56  0.76452140298
0.34  0.58  0.629439273273
0.34  0.6  0.518224600637
0.34  0.62  0.426660280203
0.34  0.64  0.351274320978
0.34  0.66  0.289208192804
0.34  0.68  0.238108434889
0.34  0.7  0.196037415869
0.34  0.72  0.161399861531
0.34  0.74  0.132882364251
0.34  0.76  0.109403580408
0.34  0.78  0.0900732273515
0.34  0.8  0.0741583251226
0.34  0.82  0.0610554028839
0.34  0.84  0.0502676161462
0.34  0.86  0.0413859071216
0.34  0.88  0.0340734938234
0.34  0.9  0.0280530997647
0.34  0.92  0.0230964400213
0.34  0.94  0.0190155649868
0.34  0.96  0.0156557335864
0.34  0.98  0.0128895457116
0.36  -1  0.00842295142873
0.36  -0.98  0.0102305765099
0.36  -0.96  0.0124261307464
0.36  -0.94  0.0150928664849
0.36  -0.92  0.0183319026156
0.36  -0.9  0.0222660588592
0.36  -0.88  0.0270445129192
0.36  -0.86  0.0328484570917
0.36  -0.84  0.0398979688237
0.36  -0.82  0.0484603557426
0.36  -0.8  0.0588602915873
0.36  -0.78  0.0714921273821
0.36  -0.76  0.086834844677
0.36  -0.74  0.105470217857
0.36  -0.72  0.128104874216
0.36  -0.7  0.15559708827
0.36  -0.68  0.188989326334
0.36  -0.66  0.229547775381
0.36  -0.64  0.278810355084
0.36  -0.62  0.338645033581
0.36  -0.6  0.41132065821
0.36  -0.58  0.499592987032
0.36  -0.56  0.606809183321
0.36  -0.54  0.737034735316
0.36  -0.52  0.895207613849
0.36  -0.5  1.08732551329
0.36  -0.48  1.32067327575
0.36  -0.46  1.60409912208
0.36  -0.44  1.94835016403
0.36  -0.42  2.36647991975
0.36  -0.4  2.87434328489
0.36  -0.38  3.49119772807
0.36  -0.36  4.24043350722
0.36  -0.34  5.1504605954
0.36  -0.32  6.25578594726
0.36  -0.3  7.59832195451
0.36  -0.28  9.22897570525
0.36  -0.26  11.2095793095
0.36  -0.24  13.6152344863
0.36  -0.22  16.5371603161
0.36  -0.2  14.7103581761
0.36  -0.18  14.7189097076
0.36  -0.16  14.8164262656
0.36  -0.14  14.9909666204
0.36  -0.12  15.2217325645
0.36  -0.1  15.4823018983
0.36  -0.08  15.7442167523
0.36  -0.06  15.9802367301
0.36  -0.04  16.1669011396
0.36  -0.02  16.2863370441
0.36  6.17561557e-16  16.3274081114
0.36  0.02  16.2863370441
0.36  0.04  16.1669011396
0.36  0.06  15.9802367301
0.36  0.08  15.7442167523
0.36  0.1  15.4823018983
0.36  0.12  15.2217325645
0.36  0.14  14.9909666204
0.36  0.16  14.8164262656
0.36  0.18  14.7189097076
0.36  0.2  20.0861521406
0.36  0.22  16.5371603161
0.36  0.24  13.6152344863
0.36  0.26  11.2095793095
0.36  0.28  9.22897570525
0.36  0.3  7.59832195451
0.36  0.32  6.25578594725
0.36  0.34  5.1504605954
0.36  0.36  4.24043350722
0.36  0.38  3.49119772807
0.36  0.4  2.87434328488
0.36  0.42  2.36647991975
0.36  0.44  1.94835016403
0.36  0.46  1.60409912208
0.36  0.48  1.32067327575
0.36  0.5  1.08732551329
0.36  0.52  0.895207613849
0.36  0.54  0.737034735316
0.36  0.56  0.606809183321
0.36  0.58  0.499592987032
0.36  0.6  0.41132065821
0.36  0.62  0.338645033581
0.36  0.64  0.278810355084
0.36  0.66  0.229547775381
0.36  0.68  0.188989326334
0.36  0.7  0.15559708827
0.36  0.72  0.128104874216
0.36  0.74  0.105470217857
0.36  0.76  0.086834844677
0.36  0.78  0.0714921273821
0.36  0.8  0.0588602915872
0.36  0.82  0.0484603557426
0.36  0.84  0.0398979688237
0.36  0.86  0.0328484570917
0.36  0.88  0.0270445129192
0.36  0.9  0.0222660588592
0.36  0.92  0.0183319026156
0.36  0.94  0.0150928664849
0.36  0.96  0.0124261307464
0.36  0.98  0.0102305765099
0.38  -1  0.00668539070024
0.38  -0.98  0.00812012293267
0.38  -0.96  0.009862758872
0.38  -0.94  0.0119793768363
0.38  -0.92  0.0145502360189
0.38  -0.9  0.0176728198052
0.38  -0.88  0.0214655322059
0.38  -0.86  0.0260721875718
0.38  -0.84  0.0316674638325
0.38  -0.82  0.03846352604
0.38  -0.8  0.0467180713697
0.38  -0.78  0.056744100638
0.38  -0.76  0.068921786855
0.38  -0.74  0.0837128908533
0.38  -0.72  0.101678270614
0.38  -0.7  0.123499148215
0.38  -0.68  0.150002940823
0.38  -0.66  0.182194635191
0.38  -0.64  0.221294895356
0.38  -0.62  0.268786348508
0.38  -0.6  0.326469804139
0.38  -0.58  0.396532538228
0.38  -0.56  0.48163123168
0.38  -0.54  0.584992707952
0.38  -0.52  0.71053628969
0.38  -0.5  0.863022413962
0.38  -0.48  1.04823314137
0.38  -0.46  1.27319140372
0.38  -0.44  1.54642730374
0.38  -0.42  1.87830156468
0.38  -0.4  2.28139839445
0.38  -0.38  2.77100266117
0.38  -0.36  3.365679474
0.38  -0.34  4.08797814611
0.38  -0.32  4.96528723315
0.38  -0.3  6.0308730689
0.38  -0.28  7.32514117821
0.38  -0.26  8.89716839795
0.38  -0.24  10.8065638021
0.38  -0.22  13.1257289943
0.38  -0.2  11.6757757159
0.38  -0.18  11.682563162
0.38  -0.16  11.7599631442
0.38  -0.14  11.8984977747
0.38  -0.12  12.0816592841
0.38  -0.1  12.288476077
0.38  -0.08  12.4963608242
0.38  -0.06  12.6836925189
0.38  -0.04  12.8318501472
0.38  -0.02  12.9266477596
0.38  6.17561557e-16  12.9592463249
0.38  0.02  12.9266477596
0.38  0.04  12.8318501472
0.38  0.06  12.6836925189
0.38  0.08  12.4963608242
0.38  0.1  12.288476077
0.38  0.12  12.0816592841
0.38  0.14  11.8984977747
0.38  0.16  11.7599631442
0.38  0.18  11.682563162
0.38  0.2  15.9426034758
0.38  0.22  13.1257289943
0.38  0.24  10.8065638021
0.38  0.26  8.89716839795
0.38  0.28  7.3251411782
0.38  0.3  6.03087306889
0.38  0.32  4.96528723314
0.38  0.34  4.08797814611
0.38  0.36  3.365679474
0.38  0.38  2.77100266117
0.38  0.4  2.28139839445
0.38  0.42  1.87830156468
0.38  0.44  1.54642730374
0.38  0.46  1.27319140372
0.38  0.48  1.04823314137
0.38  0.5  0.863022413962
0.38  0.52  0.71053628969
0.38  0.54  0.584992707951
0.38  0.56  0.481631231679
0.38  0.58  0.396532538228
0.38  0.6  0.326469804139
0.38  0.62  0.268786348508
0.38  0.64  0.221294895356
0.38  0.66  0.182194635191
0.38  0.68  0.150002940823
0.38  0.7  0.123499148215
0.38  0.72  0.101678270614
0.38  0.74  0.0837128908533
0.38  0.76  0.068921786855
0.38  0.78  0.056744100638
0.38  0.8  0.0467180713697
0.38  0.82  0.0384635260399
0.38  0.84  0.0316674638325
0.38  0.86  0.0260721875718
0.38  0.88  0.0214655322059
0.38  0.9  0.0176728198052
0.38  0.92  0.0145502360189
0.38  0.94  0.0119793768363
0.38  0.96  0.009862758872
0.38  0.98  0.00812012293267
0.4  -1  0.00530626932769
0.4  -0.98  0.00644503233792
0.4  -0.96  0.00782818196205
0.4  -0.94  0.00950816529972
0.4  -0.92  0.0115486849699
0.4  -0.9  0.0140271146252
0.4  -0.88  0.0170374328523
0.4  -0.86  0.0206937867091
0.4  -0.84  0.025134820021
0.4  -0.82  0.030528930561
0.4  -0.8  0.037080655458
0.4  -0.78  0.0450384269586
0.4  -0.76  0.0547039926305
0.4  -0.74  0.0664438572081
0.4  -0.72  0.0807031799399
0.4  -0.7  0.0980226544045
0.4  -0.68  0.119059010855
0.4  -0.66  0.144609918512
0.4  -0.64  0.175644232066
0.4  -0.62  0.213338729289
0.4  -0.6  0.259122732806
0.4  -0.58  0.314732308009
0.4  -0.56  0.38227609223
0.4  -0.54  0.464315251315
0.4  -0.52  0.56396059546
0.4  -0.5  0.684990536776
0.4  -0.48  0.831994361397
0.4  -0.46  1.01054624879
0.4  -0.44  1.22741663685
0.4  -0.42  1.49082894743
0.4  -0.4  1.81077140702
0.4  -0.38  2.19937578628
0.4  -0.36  2.67137741988
0.4  -0.34  3.24467394975
0.4  -0.32  3.94100397864
0.4  -0.3  4.78677136753
0.4  -0.28  5.81404643314
0.4  -0.26  7.06178200948
0.4  -0.24  8.57729048485
0.4  -0.22  10.4180378214
0.4  -0.2  9.26719369681
0.4  -0.18  9.27258096868
0.4  -0.16  9.33401419972
0.4  -0.14  9.44397068453
0.4  -0.12  9.58934802186
0.4  -0.1  9.75350082217
0.4  -0.08  9.91850126977
0.4  -0.06  10.0671885298
0.4  -0.04  10.1847828955
0.4  -0.02  10.2600248201
0.4  6.17561557e-16  10.2858986657
0.4  0.02  10.2600248201
0.4  0.04  10.1847828955
0.4  0.06  10.0671885298
0.4  0.08  9.91850126977
0.4  0.1  9.75350082217
0.4  0.12  9.58934802186
0.4  0.14  9.44397068453
0.4  0.16  9.33401419972
0.4  0.18  9.27258096868
0.4  0.2  12.6538225842
0.4  0.22  10.4180378214
0.4  0.24  8.57729048485
0.4  0.26  7.06178200948
0.4  0.28  5.81404643314
0.4  0.3  4.78677136753
0.4  0.32  3.94100397864
0.4  0.34  3.24467394975
0.4  0.36  2.67137741988
0.4  0.38  2.19937578628
0.4  0.4  1.81077140702
0.4  0.42  1.49082894743
0.4  0.44  1.22741663685
0.4  0.46  1.01054624879
0.4  0.48  0.831994361396
0.4  0.5  0.684990536776
0.4  0.52  0.56396059546
0.4  0.54  0.464315251315
0.4  0.56  0.38227609223
0.4  0.58  0.314732308009
0.4  0.6  0.259122732806
0.4  0.62  0.213338729288
0.4  0.64  0.175644232066
0.4  0.66  0.144609918512
0.4  0.68  0.119059010855
0.4  0.7  0.0980226544045
0.4  0.72  0.0807031799399
0.4  0.74  0.0664438572081
0.4  0.76  0.0547039926305
0.4  0.78  0.0450384269586
0.4  0.8  0.037080655458
0.4  0.82  0.0305289305609
0.4  0.84  0.0251348200209
0.4  0.86  0.0206937867091
0.4  0.88  0.0170374328523
0.4  0.9  0.0140271146252
0.4  0.92  0.0115486849699
0.4  0.94  0.00950816529972
0.4  0.96  0.00782818196205
0.4  0.98  0.00644503233792
0.42  -1  0.00421164527856
0.42  -0.98  0.0051154942088
0.42  -0.96  0.00621331552624
0.42  -0.94  0.0075467370801
0.42  -0.92  0.00916632035114
0.42  -0.9  0.0111334776723
0.42  -0.88  0.0135228008983
0.42  -0.86  0.016424889825
0.42  -0.84  0.0199497876062
0.42  -0.82  0.0242311534368
0.42  -0.8  0.0294313307224
0.42  -0.78  0.035747502914
0.42  -0.76  0.0434191704288
0.42  -0.74  0.0527372321716
0.42  -0.72  0.0640550160137
0.42  -0.7  0.0778016764924
0.42  -0.68  0.0944984677504
0.42  -0.66  0.114778508764
0.42  -0.64  0.139410790331
0.42  -0.62  0.169329334124
0.42  -0.6  0.205668609487
0.42  -0.58  0.249806550926
0.42  -0.56  0.303416807463
0.42  -0.54  0.368532205058
0.42  -0.52  0.447621828535
0.42  -0.5  0.543684645823
0.42  -0.48  0.660363224625
0.42  -0.46  0.802081853491
0.42  -0.44  0.974214304659
0.42  -0.42  1.18328759998
0.42  -0.4  1.43722950645
0.42  -0.38  1.74566914606
0.42  -0.36  2.12030211866
0.42  -0.34  2.57533398269
0.42  -0.32  3.12801891016
0.42  -0.3  3.79931394066
0.42  -0.28  4.61467364306
0.42  -0.26  5.60501531711
0.42  -0.24  6.80789133428
0.42  -0.22  8.26891307109
0.42  -0.2  7.35547522531
0.42  -0.18  7.35975116321
0.42  -0.16  7.40851140538
0.42  -0.14  7.49578509646
0.42  -0.12  7.61117271412
0.42  -0.1  7.74146262662
0.42  -0.08  7.87242532624
0.42  -0.06  7.99044006654
0.42  -0.04  8.08377602906
0.42  -0.02  8.14349638569
0.42  6.17561557e-16  8.16403274617
0.42  0.02  8.14349638569
0.42  0.04  8.08377602906
0.42  0.06  7.99044006654
0.42  0.08  7.87242532624
0.42  0.1  7.74146262662
0.42  0.12  7.61117271412
0.42  0.14  7.49578509646
0.42  0.16  7.40851140538
0.42  0.18  7.35975116321
0.42  0.2  10.0434804288
0.42  0.22  8.26891307108
0.42  0.24  6.80789133427
0.42  0.26  5.60501531711
0.42  0.28  4.61467364305
0.42  0.3  3.79931394066
0.42  0.32  3.12801891016
0.42  0.34  2.57533398269
0.42  0.36  2.12030211866
0.42  0.38  1.74566914606
0.42  0.4  1.43722950645
0.42  0.42  1.18328759998
0.42  0.44  0.974214304659
0.42  0.46  0.802081853491
0.42  0.48  0.660363224625
0.42  0.5  0.543684645823
0.42  0.52  0.447621828535
0.42  0.54  0.368532205058
0.42  0.56  0.303416807462
0.42  0.58  0.249806550926
0.42  0.6  0.205668609487
0.42  0.62  0.169329334124
0.42  0.64  0.139410790331
0.42  0.66  0.114778508764
0.42  0.68  0.0944984677504
0.42  0.7  0.0778016764923
0.42  0.72  0.0640550160137
0.42  0.74  0.0527372321716
0.42  0.76  0.0434191704288
0.42  0.78  0.035747502914
0.42  0.8  0.0294313307224
0.42  0.82  0.0242311534368
0.42  0.84  0.0199497876062
0.42  0.86  0.016424889825
0.42  0.88  0.0135228008983
0.42  0.9  0.0111334776723
0.42  0.92  0.00916632035114
0.42  0.94  0.0075467370801
0.42  0.96  0.00621331552624
0.42  0.98  0.0051154942088
0.44  -1  0.00334282993511
0.44  -0.98  0.00406022493422
0.44  -0.96  0.00493157798525
0.44  -0.94  0.00598992957746
0.44  -0.92  0.00727541092329
0.44  -0.9  0.00883676567783
0.44  -0.88  0.0107331982301
0.44  -0.86  0.0130366186505
0.44  -0.84  0.0158343694206
0.44  -0.82  0.0192325373372
0.44  -0.8  0.0233599761761
0.44  -0.78  0.0283731926463
0.44  -0.76  0.0344622809063
0.44  -0.74  0.0418581306683
0.44  -0.72  0.0508411822133
0.44  -0.7  0.0617520602946
0.44  -0.68  0.0750044901518
0.44  -0.66  0.0911009853938
0.44  -0.64  0.110651902612
0.44  -0.62  0.134398585248
0.44  -0.6  0.163241474301
0.44  -0.58  0.198274251793
0.44  -0.56  0.240825311658
0.44  -0.54  0.292508130586
0.44  -0.52  0.355282448799
0.44  -0.5  0.431528580665
0.44  -0.48  0.524137672886
0.44  -0.46  0.63662133274
0.44  -0.44  0.773244783318
0.44  -0.42  0.939188594821
0.44  -0.4  1.14074512453
0.44  -0.38  1.38555711422
0.44  -0.36  1.68290749219
0.44  -0.34  2.044071369
0.44  -0.32  2.4827435738
0.44  -0.3  3.01555794321
0.44  -0.28  3.66271805304
0.44  -0.26  4.44876330973
0.44  -0.24  5.40349945023
0.44  -0.22  6.56312873395
0.44  -0.2  5.8381229054
0.44  -0.18  5.84151676511
0.44  -0.16  5.88021831436
0.44  -0.14  5.94948841851
0.44  -0.12  6.04107286044
0.44  -0.1  6.14448542036
0.44  -0.08  6.24843197895
0.44  -0.06  6.34210159748
0.44  -0.04  6.41618339424
0.44  -0.02  6.46358410885
0.44  6.17561557e-16  6.47988404772
0.44  0.02  6.46358410885
0.44  0.04  6.41618339424
0.44  0.06  6.34210159748
0.44  0.08  6.24843197895
0.44  0.1  6.14448542036
0.44  0.12  6.04107286044
0.44  0.14  5.94948841851
0.44  0.16  5.88021831436
0.44  0.18  5.84151676511
0.44  0.2  7.97162268177
0.44  0.22  6.56312873395
0.44  0.24  5.40349945022
0.44  0.26  4.44876330972
0.44  0.28  3.66271805304
0.44  0.3  3.01555794321
0.44  0.32  2.4827435738
0.44  0.34  2.044071369
0.44  0.36  1.68290749219
0.44  0.38  1.38555711422
0.44  0.4  1.14074512453
0.44  0.42  0.93918859482
0.44  0.44  0.773244783318
0.44  0.46  0.63662133274
0.44  0.48  0.524137672886
0.44  0.5  0.431528580665
0.44  0.52  0.355282448799
0.44  0.54  0.292508130586
0.44  0.56  0.240825311658
0.44  0.58  0.198274251793
0.44  0.6  0.163241474301
0.44  0.62  0.134398585248
0.44  0.64  0.110651902612
0.44  0.66  0.0911009853938
0.44  0.68  0.0750044901518
0.44  0.7  0.0617520602946
0.44  0.72  0.0508411822133
0.44  0.74  0.0418581306683
0.44  0.76  0.0344622809063
0.44  0.78  0.0283731926463
0.44  0.8  0.0233599761761
0.44  0.82  0.0192325373372
0.44  0.84  0.0158343694206
0.44  0.86  0.0130366186505
0.44  0.88  0.0107331982301
0.44  0.9  0.00883676567783
0.44  0.92  0.00727541092329
0.44  0.94  0.00598992957746
0.44  0.96  0.00493157798525
0.44  0.98  0.00406022493422
0.46  -1  0.00265324148546
0.46  -0.98  0.00322264591525
0.46  -0.96  0.00391424857179
0.46  -0.94  0.00475427406072
0.46  -0.92  0.00577457497393
0.46  -0.9  0.00701383969534
0.46  -0.88  0.00851905941027
0.46  -0.86  0.0103473099455
0.46  -0.84  0.0125679160048
0.46  -0.82  0.0152650798647
0.46  -0.8  0.0185410742074
0.46  -0.78  0.0225201201573
0.46  -0.76  0.0273530975727
0.46  -0.74  0.0332232661992
0.46  -0.72  0.0403532146225
0.46  -0.7  0.0490133005167
0.46  -0.68  0.0595319022293
0.46  -0.66  0.0723078704285
0.46  -0.64  0.0878256519634
0.46  -0.62  0.106673659411
0.46  -0.6  0.129566582857
0.46  -0.58  0.157372489946
0.46  -0.56  0.191145741794
0.46  -0.54  0.232166972885
0.46  -0.52  0.281991650938
0.46  -0.5  0.342509058075
0.46  -0.48  0.41601392975
0.46  -0.46  0.505293467912
0.46  -0.44  0.613733027805
0.46  -0.42  0.745444485904
0.46  -0.4  0.905422156524
0.46  -0.38  1.09973216923
0.46  -0.36  1.335742488
0.46  -0.34  1.62240229408
0.46  -0.32  1.97058132649
0.46  -0.3  2.39348204726
0.46  -0.28  2.90714026035
0.46  -0.26  3.53103316694
0.46  -0.24  4.28881791364
0.46  -0.22  5.2092286384
0.46  -0.2  4.63378340821
0.46  -0.18  4.6364771526
0.46  -0.16  4.66719500484
0.46  -0.14  4.7221754608
0.46  -0.12  4.79486705609
0.46  -0.1  4.87694676084
0.46  -0.08  4.9594503063
0.46  -0.06  5.03379692956
0.46  -0.04  5.09259647973
0.46  -0.02  5.13021895676
0.46  6.17561557e-16  5.14315640044
0.46  0.02  5.13021895676
0.46  0.04  5.09259647973
0.46  0.06  5.03379692956
0.46  0.08  4.9594503063
0.46  0.1  4.87694676084
0.46  0.12  4.79486705609
0.46  0.14  4.7221754608
0.46  0.16  4.66719500484
0.46  0.18  4.6364771526
0.46  0.2  6.32716602885
0.46  0.22  5.2092286384
0.46  0.24  4.28881791364
0.46  0.26  3.53103316694
0.46  0.28  2.90714026035
0.46  0.3  2.39348204725
0.46  0.32  1.97058132649
0.46  0.34  1.62240229408
0.46  0.36  1.335742488
0.46  0.38  1.09973216923
0.46  0.4  0.905422156524
0.46  0.42  0.745444485904
0.46  0.44  0.613733027805
0.46  0.46  0.505293467912
0.46  0.48  0.41601392975
0.46  0.5  0.342509058075
0.46  0.52  0.281991650938
0.46  0.54  0.232166972885
0.46  0.56  0.191145741794
0.46  0.58  0.157372489946
0.46  0.6  0.129566582857
0.46  0.62  0.106673659411
0.46  0.64  0.0878256519634
0.46  0.66  0.0723078704285
0.46  0.68  0.0595319022293
0.46  0.7  0.0490133005167
0.46  0.72  0.0403532146225
0.46  0.74  0.0332232661992
0.46  0.76  0.0273530975727
0.46  0.78  0.0225201201573
0.46  0.8  0.0185410742074
0.46  0.82  0.0152650798647
0.46  0.84  0.0125679160048
0.46  0.86  0.0103473099455
0.46  0.88  0.00851905941026
0.46  0.9  0.00701383969534
0.46  0.92  0.00577457497393
0.46  0.94  0.00475427406071
0.46  0.96  0.00391424857178
0.46  0.98  0.00322264591525
0.48  -1  0.00210590742479
0.48  -0.98  0.00255785008548
0.48  -0.96  0.00310678284467
0.48  -0.94  0.00377352046499
0.48  -0.92  0.00458334470467
0.48  -0.9  0.00556696296648
0.48  -0.88  0.00676167267948
0.48  -0.86  0.00821277556535
0.48  -0.84  0.00997529541641
0.48  -0.82  0.0121160645208
0.48  -0.8  0.0147162578494
0.48  -0.78  0.0178744710974
0.48  -0.76  0.0217104592948
0.48  -0.74  0.02636967775
0.48  -0.72  0.0320287975117
0.48  -0.7  0.0389024044879
0.48  -0.68  0.0472511362435
0.48  -0.66  0.0573915650123
0.48  -0.64  0.0697082016734
0.48  -0.62  0.0846680758661
0.48  -0.6  0.102838445101
0.48  -0.58  0.124908304371
0.48  -0.56  0.151714511878
0.48  -0.54  0.184273521527
0.48  -0.52  0.223819925436
0.48  -0.5  0.27185326794
0.48  -0.48  0.330194906222
0.48  -0.46  0.401057073622
0.48  -0.44  0.48712676444
0.48  -0.42  0.591667620997
0.48  -0.4  0.718643686389
0.48  -0.38  0.872869715461
0.48  -0.36  1.06019374357
0.48  -0.34  1.28771883593
0.48  -0.32  1.56407242588
0.48  -0.3  1.89973345511
0.48  -0.28  2.30742972048
0.48  -0.26  2.80262049429
0.48  -0.24  3.40408271822
0.48  -0.22  4.13462299875
0.48  -0.2  3.67788568726
0.48  -0.18  3.68002374229
0.48  -0.16  3.70440484498
0.48  -0.14  3.74804344744
0.48  -0.12  3.80573957916
0.48  -0.1  3.8708871583
0.48  -0.08  3.93637114455
0.48  -0.06  3.99538089048
0.48  -0.04  4.04205075071
0.48  -0.02  4.07191213127
0.48  6.17561557e-16  4.08218072493
0.48  0.02  4.07191213127
0.48  0.04  4.04205075071
0.48  0.06  3.99538089048
0.48  0.08  3.93637114455
0.48  0.1  3.8708871583
0.48  0.12  3.80573957916
0.48  0.14  3.74804344744
0.48  0.16  3.70440484498
0.48  0.18  3.68002374229
0.48  0.2  5.02194240179
0.48  0.22  4.13462299875
0.48  0.24  3.40408271821
0.48  0.26  2.80262049429
0.48  0.28  2.30742972048
0.48  0.3  1.89973345511
0.48  0.32  1.56407242588
0.48  0.34  1.28771883593
0.48  0.36  1.06019374357
0.48  0.38  0.872869715461
0.48  0.4  0.718643686389
0.48  0.42  0.591667620997
0.48  0.44  0.48712676444
0.48  0.46  0.401057073622
0.48  0.48  0.330194906222
0.48  0.5  0.27185326794
0.48  0.52  0.223819925436
0.48  0.54  0.184273521527
0.48  0.56  0.151714511878
0.48  0.58  0.124908304371
0.48  0.6  0.102838445101
0.48  0.62  0.0846680758661
0.48  0.64  0.0697082016734
0.48  0.66  0.0573915650123
0.48  0.68  0.0472511362435
0.48  0.7  0.0389024044879
0.48  0.72  0.0320287975117
0.48  0.74  0.02636967775
0.48  0.76  0.0217104592948
0.48  0.78  0.0178744710974
0.48  0.8  0.0147162578494
0.48  0.82  0.0121160645208
0.48  0.84  0.00997529541641
0.48  0.86  0.00821277556535
0.48  0.88  0.00676167267947
0.48  0.9  0.00556696296648
0.48  0.92  0.00458334470467
0.48  0.94  0.00377352046499
0.48  0.96  0.00310678284467
0.48  0.98  0.00255785008548
0.5  -1  0.00167148226276
0.5  -0.98  0.00203019420434
0.5  -0.96  0.00246588827125
0.5  -0.94  0.00299508537325
0.5  -0.92  0.00363785192446
0.5  -0.9  0.00441856073368
0.5  -0.88  0.00536681518728
0.5  -0.86  0.00651857176815
0.5  -0.84  0.00791750347528
0.5  -0.82  0.00961665584283
0.5  -0.8  0.0116804583526
0.5  -0.78  0.0141871675098
0.5  -0.76  0.0172318342205
0.5  -0.74  0.0209299079889
0.5  -0.72  0.0254216146011
0.5  -0.7  0.0308772732909
0.5  -0.68  0.0375037550069
0.5  -0.66  0.0455523266698
0.5  -0.64  0.0553281788624
0.5  -0.62  0.0672019982297
0.5  -0.6  0.0816240233987
0.5  -0.58  0.0991411173969
0.5  -0.56  0.120417503934
0.5  -0.54  0.146259953835
0.5  -0.52  0.177648376664
0.5  -0.5  0.215772977524
0.5  -0.48  0.262079387968
0.5  -0.46  0.318323482327
0.5  -0.44  0.386637958011
0.5  -0.42  0.469613204411
0.5  -0.4  0.570395526844
0.5  -0.38  0.692806450048
0.5  -0.36  0.841487625058
0.5  -0.34  1.02207683412
0.5  -0.32  1.24142176753
0.5  -0.3  1.50783967843
0.5  -0.28  1.83143276146
0.5  -0.26  2.22447121384
0.5  -0.24  2.70185850409
0.5  -0.22  3.28169649068
0.5  -0.2  2.91917898117
0.5  -0.18  2.92087597934
0.5  -0.16  2.94022753308
0.5  -0.14  2.97486397964
0.5  -0.12  3.02065804432
0.5  -0.1  3.0723664061
0.5  -0.08  3.12434177796
0.5  -0.06  3.17117847291
0.5  -0.04  3.20822086264
0.5  -0.02  3.23192217418
0.5  6.17561557e-16  3.24007247175
0.5  0.02  3.23192217418
0.5  0.04  3.20822086264
0.5  0.06  3.17117847291
0.5  0.08  3.12434177796
0.5  0.1  3.0723664061
0.5  0.12  3.02065804432
0.5  0.14  2.97486397964
0.5  0.16  2.94022753308
0.5  0.18  2.92087597934
0.5  0.2  3.98597181928
0.5  0.22  3.28169649068
0.5  0.24  2.70185850408
0.5  0.26  2.22447121384
0.5  0.28  1.83143276146
0.5  0.3  1.50783967843
0.5  0.32  1.24142176753
0.5  0.34  1.02207683412
0.5  0.36  0.841487625058
0.5  0.38  0.692806450048
0.5  0.4  0.570395526844
0.5  0.42  0.469613204411
0.5  0.44  0.386637958011
0.5  0.46  0.318323482327
0.5  0.48  0.262079387968
0.5  0.5  0.215772977524
0.5  0.52  0.177648376664
0.5  0.54  0.146259953835
0.5  0.56  0.120417503934
0.5  0.58  0.0991411173968
0.5  0.6  0.0816240233987
0.5  0.62  0.0672019982297
0.5  0.64  0.0553281788623
0.5  0.66  0.0455523266698
0.5  0.68  0.0375037550069
0.5  0.7  0.0308772732909
0.5  0.72  0.0254216146011
0.5  0.74  0.0209299079889
0.5  0.76  0.0172318342205
0.5  0.78  0.0141871675098
0.5  0.8  0.0116804583526
0.5  0.82  0.00961665584282
0.5  0.84  0.00791750347528
0.5  0.86  0.00651857176814
0.5  0.88  0.00536681518728
0.5  0.9  0.00441856073368
0.5  0.92  0.00363785192446
0.5  0.94  0.00299508537325
0.5  0.96  0.00246588827125
0.5  0.98  0.00203019420434
0.52  -1  0.00132667415569
0.52  -0.98  0.00161138783338
0.52  -0.96  0.00195720308445
0.52  -0.94  0.00237723273964
0.52  -0.92  0.00288740373614
0.52  -0.9  0.00350706104474
0.52  -0.88  0.00425970120409
0.52  -0.86  0.00517386327659
0.52  -0.84  0.00628421100972
0.52  -0.82  0.00763284723687
0.52  -0.8  0.00927091035792
0.52  -0.78  0.0112605134359
0.52  -0.76  0.0136770994373
0.52  -0.74  0.0166123019241
0.52  -0.72  0.0201774196702
0.52  -0.7  0.0245076369553
0.52  -0.68  0.0297671495638
0.52  -0.66  0.0361553908591
0.52  -0.64  0.0439145940182
0.52  -0.62  0.053338977175
0.52  -0.6  0.0647858997601
0.52  -0.58  0.0786894130715
0.52  -0.56  0.0955767188919
0.52  -0.54  0.116088160244
0.52  -0.52  0.141001502302
0.52  -0.5  0.171261424159
0.52  -0.48  0.208015339738
0.52  -0.46  0.252656906124
0.52  -0.44  0.30687886909
0.52  -0.42  0.37273724965
0.52  -0.4  0.452729305504
0.52  -0.38  0.549888223553
0.52  -0.36  0.667898134108
0.52  -0.34  0.81123380796
0.52  -0.32  0.985330333428
0.52  -0.3  1.19678920731
0.52  -0.28  1.45362865442
0.52  -0.26  1.76558766744
0.52  -0.24  2.14449529591
0.52  -0.22  2.60471918727
0.52  -0.2  2.31698498776
0.52  -0.18  2.31833191419
0.52  -0.16  2.3336914587
0.52  -0.14  2.3611827935
0.52  -0.12  2.39753005451
0.52  -0.1  2.43857155925
0.52  -0.08  2.47982499287
0.52  -0.06  2.5169998012
0.52  -0.04  2.54640075999
0.52  -0.02  2.56521275588
0.52  6.17561557e-16  2.57168173817
0.52  0.02  2.56521275588
0.52  0.04  2.54640075999
0.52  0.06  2.5169998012
0.52  0.08  2.47982499287
0.52  0.1  2.43857155925
0.52  0.12  2.39753005451
0.52  0.14  2.3611827935
0.52  0.16  2.3336914587
0.52  0.18  2.31833191419
0.52  0.2  3.16371038792
0.52  0.22  2.60471918727
0.52  0.24  2.14449529591
0.52  0.26  1.76558766744
0.52  0.28  1.45362865442
0.52  0.3  1.19678920731
0.52  0.32  0.985330333428
0.52  0.34  0.811233807959
0.52  0.36  0.667898134108
0.52  0.38  0.549888223553
0.52  0.4  0.452729305504
0.52  0.42  0.37273724965
0.52  0.44  0.30687886909
0.52  0.46  0.252656906124
0.52  0.48  0.208015339738
0.52  0.5  0.171261424159
0.52  0.52  0.141001502302
0.52  0.54  0.116088160244
0.52  0.56  0.0955767188919
0.52  0.58  0.0786894130715
0.52  0.6  0.0647858997601
0.52  0.62  0.0533389771749
0.52  0.64  0.0439145940182
0.52  0.66  0.0361553908591
0.52  0.68  0.0297671495638
0.52  0.7  0.0245076369553
0.52  0.72  0.0201774196702
0.52  0.74  0.0166123019241
0.52  0.76  0.0136770994372
0.52  0.78  0.0112605134359
0.52  0.8  0.00927091035792
0.52  0.82  0.00763284723687
0.52  0.84  0.00628421100972
0.52  0.86  0.00517386327659
0.52  0.88  0.00425970120409
0.52  0.9  0.00350706104474
0.52  0.92  0.00288740373614
0.52  0.94  0.00237723273964
0.52  0.96  0.00195720308445
0.52  0.98  0.00161138783338
0.54  -1  0.00105299610685
0.54  -0.98  0.00127897653535
0.54  -0.96  0.00155345396563
0.54  -0.94  0.00188683619802
0.54  -0.92  0.0022917646206
0.54  -0.9  0.00278359355293
0.54  -0.88  0.00338097246038
0.54  -0.86  0.00410655311577
0.54  -0.84  0.00498784852296
0.54  -0.82  0.00605827617142
0.54  -0.8  0.00735842518077
0.54  -0.78  0.0089375953834
0.54  -0.76  0.0108556667052
0.54  -0.74  0.0131853697285
0.54  -0.72  0.0160150435342
0.54  -0.7  0.0194519853964
0.54  -0.68  0.0236265193442
0.54  -0.66  0.0286969378677
0.54  -0.64  0.034855504147
0.54  -0.62  0.0423357424037
0.54  -0.6  0.0514212928126
