0.04  0.16  33.828200498
0.04  0.18  32.5831431856
0.04  0.2  44.7409084783
0.04  0.22  34.8245515831
0.04  0.24  27.1060520273
0.04  0.26  21.0982775975
0.04  0.28  16.4220638672
0.04  0.3  12.7822842605
0.04  0.32  9.94922393665
0.04  0.34  7.74408195938
0.04  0.36  6.02768675984
0.04  0.38  4.6917126995
0.04  0.4  3.65184339061
0.04  0.42  2.8424502956
0.04  0.44  2.21245075945
0.04  0.46  1.7220840662
0.04  0.48  1.34040204889
0.04  0.5  1.04331587984
0.04  0.52  0.812075769368
0.04  0.54  0.632087623644
0.04  0.56  0.491991977885
0.04  0.58  0.382947074501
0.04  0.6  0.298070839487
0.04  0.62  0.232006538941
0.04  0.64  0.180584703301
0.04  0.66  0.140559982555
0.04  0.68  0.109406324759
0.04  0.7  0.0851575511021
0.04  0.72  0.0662832658501
0.04  0.74  0.0515922695627
0.04  0.76  0.0401573797623
0.04  0.78  0.0312569143215
0.04  0.8  0.0243291444483
0.04  0.82  0.0189368426933
0.04  0.84  0.0147396885227
0.04  0.86  0.0114727899083
0.04  0.88  0.00892996538408
0.04  0.9  0.00695073146098
0.04  0.92  0.00541017414566
0.04  0.94  0.00421106533186
0.04  0.96  0.00327772651153
0.04  0.98  0.00255125253058
0.06  -1  0.00224329200871
0.06  -0.98  0.00288207364889
0.06  -0.96  0.00370274956865
0.06  -0.94  0.00475711450797
0.06  -0.92  0.00611171185691
0.06  -0.9  0.00785203336168
0.06  -0.88  0.0100879147048
0.06  -0.86  0.0129604674871
0.06  -0.84  0.0166509851044
0.06  -0.82  0.0213923845897
0.06  -0.8  0.0274839065416
0.06  -0.78  0.0353100008846
0.06  -0.76  0.0453645903861
0.06  -0.74  0.0582822432553
0.06  -0.72  0.0748782221984
0.06  -0.7  0.0961999375184
0.06  -0.68  0.123593051582
0.06  -0.66  0.158786406659
0.06  -0.64  0.204001136123
0.06  -0.62  0.262090845276
0.06  -0.6  0.336721708922
0.06  -0.58  0.432603852073
0.06  -0.56  0.555788616741
0.06  -0.54  0.714050476014
0.06  -0.52  0.917377698893
0.06  -0.5  1.17860273285
0.06  -0.48  1.51421208905
0.06  -0.46  1.94538684386
0.06  -0.44  2.49933942519
0.06  -0.42  3.21103105124
0.06  -0.4  4.12537821317
0.06  -0.38  5.30008745795
0.06  -0.36  6.80929738083
0.06  -0.34  8.74825768224
0.06  -0.32  11.2393405949
0.06  -0.3  14.439764076
0.06  -0.28  18.5515141934
0.06  -0.26  23.8340929296
0.06  -0.24  30.620895947
0.06  -0.22  39.3402539533
0.06  -0.2  36.4906484856
0.06  -0.18  36.8082019509
0.06  -0.16  38.2147059439
0.06  -0.14  40.4637899909
0.06  -0.12  43.2155138358
0.06  -0.1  46.1255168782
0.06  -0.08  48.8941140957
0.06  -0.06  51.2820202823
0.06  -0.04  53.1101948002
0.06  -0.02  54.2551940978
0.06  6.17561557e-16  54.6447850672
0.06  0.02  54.2551940978
0.06  0.04  53.1101948002
0.06  0.06  51.2820202823
0.06  0.08  48.8941140957
0.06  0.1  46.1255168782
0.06  0.12  43.2155138358
0.06  0.14  40.4637899909
0.06  0.16  38.2147059439
0.06  0.18  36.8082019509
0.06  0.2  50.5424656349
0.06  0.22  39.3402539533
0.06  0.24  30.620895947
0.06  0.26  23.8340929296
0.06  0.28  18.5515141934
0.06  0.3  14.439764076
0.06  0.32  11.2393405949
0.06  0.34  8.74825768224
0.06  0.36  6.80929738083
0.06  0.38  5.30008745795
0.06  0.4  4.12537821318
0.06  0.42  3.21103105124
0.06  0.44  2.49933942519
0.06  0.46  1.94538684386
0.06  0.48  1.51421208905
0.06  0.5  1.17860273285
0.06  0.52  0.917377698893
0.06  0.54  0.714050476015
0.06  0.56  0.555788616741
0.06  0.58  0.432603852073
0.06  0.6  0.336721708922
0.06  0.62  0.262090845276
0.06  0.64  0.204001136123
0.06  0.66  0.158786406659
0.06  0.68  0.123593051582
0.06  0.7  0.0961999375184
0.06  0.72  0.0748782221984
0.06  0.74  0.0582822432553
0.06  0.76  0.0453645903861
0.06  0.78  0.0353100008846
0.06  0.8  0.0274839065416
0.06  0.82  0.0213923845897
0.06  0.84  0.0166509851044
0.06  0.86  0.0129604674871
0.06  0.88  0.0100879147048
0.06  0.9  0.00785203336168
0.06  0.92  0.00611171185691
0.06  0.94  0.00475711450797
0.06  0.96  0.00370274956866
0.06  0.98  0.00288207364889
0.08  -1  0.00245474043718
0.08  -0.98  0.00315373241708
0.08  -0.96  0.00405176368463
0.08  -0.94  0.00520551105323
0.08  -0.92  0.00668779016609
0.08  -0.9  0.00859215105841
0.08  -0.88  0.0110387823148
0.08  -0.86  0.0141820964465
0.08  -0.84  0.0182204752194
0.08  -0.82  0.0234087899819
0.08  -0.8  0.030074487181
0.08  -0.78  0.0386382542582
0.08  -0.76  0.0496405701996
0.08  -0.74  0.063775816404
0.08  -0.72  0.0819361006861
0.08  -0.7  0.105267560248
0.08  -0.68  0.135242697025
0.08  -0.66  0.173753310664
0.08  -0.64  0.223229894337
0.08  -0.62  0.286795028741
0.08  -0.6  0.368460455329
0.08  -0.58  0.473380266518
0.08  -0.56  0.608176192282
0.08  -0.54  0.781355512724
0.08  -0.52  1.00384797204
0.08  -0.5  1.28969557974
0.08  -0.48  1.6569388341
0.08  -0.46  2.12875529937
0.08  -0.44  2.73492239504
0.08  -0.42  3.51369671709
0.08  -0.4  4.51422849954
0.08  -0.38  5.79966359844
0.08  -0.36  7.45112877171
0.08  -0.34  9.572851775
0.08  -0.32  12.2987394143
0.08  -0.3  15.800828712
0.08  -0.28  20.3001445574
0.08  -0.26  26.0806490954
0.08  -0.24  33.5071632278
0.08  -0.22  43.0483912986
0.08  -0.2  39.9301874515
0.08  -0.18  40.2776729011
0.08  -0.16  41.8167512793
0.08  -0.14  44.2778297012
0.08  -0.12  47.2889257903
0.08  -0.1  50.4732201723
0.08  -0.08  53.5027800859
0.08  -0.06  56.1157657577
0.08  -0.04  58.1162605207
0.08  -0.02  59.3691852694
0.08  6.17561557e-16  59.795498341
0.08  0.02  59.3691852694
0.08  0.04  58.1162605207
0.08  0.06  56.1157657577
0.08  0.08  53.5027800859
0.08  0.1  50.4732201723
0.08  0.12  47.2889257903
0.08  0.14  44.2778297012
0.08  0.16  41.8167512793
0.08  0.18  40.2776729011
0.08  0.2  55.306502099
0.08  0.22  43.0483912986
0.08  0.24  33.5071632278
0.08  0.26  26.0806490954
0.08  0.28  20.3001445574
0.08  0.3  15.800828712
0.08  0.32  12.2987394143
0.08  0.34  9.572851775
0.08  0.36  7.45112877172
0.08  0.38  5.79966359844
0.08  0.4  4.51422849954
0.08  0.42  3.51369671709
0.08  0.44  2.73492239504
0.08  0.46  2.12875529937
0.08  0.48  1.6569388341
0.08  0.5  1.28969557974
0.08  0.52  1.00384797204
0.08  0.54  0.781355512724
0.08  0.56  0.608176192282
0.08  0.58  0.473380266518
0.08  0.6  0.368460455329
0.08  0.62  0.286795028741
0.08  0.64  0.223229894337
0.08  0.66  0.173753310664
0.08  0.68  0.135242697025
0.08  0.7  0.105267560248
0.08  0.72  0.0819361006861
0.08  0.74  0.063775816404
0.08  0.76  0.0496405701996
0.08  0.78  0.0386382542582
0.08  0.8  0.030074487181
0.08  0.82  0.0234087899819
0.08  0.84  0.0182204752194
0.08  0.86  0.0141820964465
0.08  0.88  0.0110387823148
0.08  0.9  0.00859215105841
0.08  0.92  0.00668779016609
0.08  0.94  0.00520551105324
0.08  0.96  0.00405176368463
0.08  0.98  0.00315373241708
0.1  -1  0.00261579868451
0.1  -0.98  0.0033606523048
0.1  -0.96  0.00431760440154
0.1  -0.94  0.00554705041683
0.1  -0.92  0.0071265835091
0.1  -0.9  0.00915589163534
0.1  -0.88  0.0117630490867
0.1  -0.86  0.0151125995509
0.1  -0.84  0.0194159408417
0.1  -0.82  0.0249446667001
0.1  -0.8  0.032047707698
0.1  -0.78  0.0411733530477
0.1  -0.76  0.0528975431617
0.1  -0.74  0.067960218574
0.1  -0.72  0.0873120192842
0.1  -0.7  0.112174281829
0.1  -0.68  0.144116120633
0.1  -0.66  0.185153458419
0.1  -0.64  0.237876255716
0.1  -0.62  0.30561196921
0.1  -0.6  0.392635555168
0.1  -0.58  0.504439271736
0.1  -0.56  0.648079307949
0.1  -0.54  0.83262111601
0.1  -0.52  1.06971155277
0.1  -0.5  1.3743139396
0.1  -0.48  1.76565243188
0.1  -0.46  2.26842529963
0.1  -0.44  2.91436369191
0.1  -0.42  3.74423426247
0.1  -0.4  4.81041204676
0.1  -0.38  6.18018597063
0.1  -0.36  7.94000560873
0.1  -0.34  10.2009372155
0.1  -0.32  13.1056733714
0.1  -0.3  16.8375386387
0.1  -0.28  21.6320595956
0.1  -0.26  27.7918294584
0.1  -0.24  35.7056054341
0.1  -0.22  45.872844079
0.1  -0.2  42.5500514131
0.1  -0.18  42.9203357691
0.1  -0.16  44.5603947897
0.1  -0.14  47.1829473012
0.1  -0.12  50.39160475
0.1  -0.1  53.7848242242
0.1  -0.08  57.0131569296
0.1  -0.06  59.7975834944
0.1  -0.04  61.9293329414
0.1  -0.02  63.2644634749
0.1  6.17561557e-16  63.7187474207
0.1  0.02  63.2644634749
0.1  0.04  61.9293329414
0.1  0.06  59.7975834944
0.1  0.08  57.0131569296
0.1  0.1  53.7848242242
0.1  0.12  50.39160475
0.1  0.14  47.1829473012
0.1  0.16  44.5603947897
0.1  0.18  42.9203357691
0.1  0.2  58.935223148
0.1  0.22  45.872844079
0.1  0.24  35.7056054341
0.1  0.26  27.7918294584
0.1  0.28  21.6320595956
0.1  0.3  16.8375386387
0.1  0.32  13.1056733714
0.1  0.34  10.2009372155
0.1  0.36  7.94000560873
0.1  0.38  6.18018597063
0.1  0.4  4.81041204676
0.1  0.42  3.74423426247
0.1  0.44  2.91436369191
0.1  0.46  2.26842529963
0.1  0.48  1.76565243188
0.1  0.5  1.3743139396
0.1  0.52  1.06971155277
0.1  0.54  0.83262111601
0.1  0.56  0.648079307949
0.1  0.58  0.504439271736
0.1  0.6  0.392635555168
0.1  0.62  0.30561196921
0.1  0.64  0.237876255716
0.1  0.66  0.185153458419
0.1  0.68  0.144116120633
0.1  0.7  0.112174281829
0.1  0.72  0.0873120192842
0.1  0.74  0.067960218574
0.1  0.76  0.0528975431617
0.1  0.78  0.0411733530477
0.1  0.8  0.032047707698
0.1  0.82  0.0249446667001
0.1  0.84  0.0194159408417
0.1  0.86  0.0151125995509
0.1  0.88  0.0117630490867
0.1  0.9  0.00915589163534
0.1  0.92  0.00712658350911
0.1  0.94  0.00554705041683
0.1  0.96  0.00431760440154
0.1  0.98  0.0033606523048
0.12  -1  0.00272316059494
0.12  -0.98  0.00349858572218
0.12  -0.96  0.00449481462027
0.12  -0.94  0.00577472158034
0.12  -0.92  0.00741908446681
0.12  -0.9  0.00953168279369
0.12  -0.88  0.0122458474878
0.12  -0.86  0.0157328757094
0.12  -0.84  0.0202128418089
0.12  -0.82  0.0259684867241
0.12  -0.8  0.0333630624093
0.12  -0.78  0.0428632574995
0.12  -0.76  0.0550686511008
0.12  -0.74  0.0707495536029
0.12  -0.72  0.0908956227356
0.12  -0.7  0.116778323138
0.12  -0.68  0.150031171408
0.12  -0.66  0.192752831083
0.12  -0.64  0.247639564112
0.12  -0.62  0.318155398128
0.12  -0.6  0.408750749183
0.12  -0.58  0.525143297711
0.12  -0.56  0.67467884446
0.12  -0.54  0.866794920825
0.12  -0.52  1.11361641311
0.12  -0.5  1.43072079191
0.12  -0.48  1.83812124203
0.12  -0.46  2.36152974046
0.12  -0.44  3.03397979827
0.12  -0.42  3.89791128123
0.12  -0.4  5.00784888713
0.12  -0.38  6.43384332452
0.12  -0.36  8.26589237365
0.12  -0.34  10.6196208528
0.12  -0.32  13.6435779659
0.12  -0.3  17.5286125833
0.12  -0.28  22.5199181523
0.12  -0.26  28.9325074176
0.12  -0.24  37.1710935985
0.12  -0.22  47.7556327685
0.12  -0.2  44.2964605828
0.12  -0.18  44.6819427581
0.12  -0.16  46.3893157776
0.12  -0.14  49.1195074012
0.12  -0.12  52.4598598446
0.12  -0.1  55.9923494115
0.12  -0.08  59.3531846557
0.12  -0.06  62.2518942336
0.12  -0.04  64.4711384464
0.12  -0.02  65.8610676025
0.12  6.17561557e-16  66.3339970169
0.12  0.02  65.8610676025
0.12  0.04  64.4711384464
0.12  0.06  62.2518942336
0.12  0.08  59.3531846557
0.12  0.1  55.9923494115
0.12  0.12  52.4598598446
0.12  0.14  49.1195074012
0.12  0.16  46.3893157776
0.12  0.18  44.6819427581
0.12  0.2  61.3541394761
0.12  0.22  47.7556327685
0.12  0.24  37.1710935985
0.12  0.26  28.9325074176
0.12  0.28  22.5199181523
0.12  0.3  17.5286125833
0.12  0.32  13.6435779659
0.12  0.34  10.6196208528
0.12  0.36  8.26589237365
0.12  0.38  6.43384332452
0.12  0.4  5.00784888713
0.12  0.42  3.89791128123
0.12  0.44  3.03397979827
0.12  0.46  2.36152974046
0.12  0.48  1.83812124203
0.12  0.5  1.43072079191
0.12  0.52  1.11361641311
0.12  0.54  0.866794920825
0.12  0.56  0.67467884446
0.12  0.58  0.525143297711
0.12  0.6  0.408750749183
0.12  0.62  0.318155398128
0.12  0.64  0.247639564112
0.12  0.66  0.192752831083
0.12  0.68  0.150031171408
0.12  0.7  0.116778323138
0.12  0.72  0.0908956227356
0.12  0.74  0.070749553603
0.12  0.76  0.0550686511008
0.12  0.78  0.0428632574996
0.12  0.8  0.0333630624093
0.12  0.82  0.0259684867241
0.12  0.84  0.0202128418089
0.12  0.86  0.0157328757094
0.12  0.88  0.0122458474878
0.12  0.9  0.0095316827937
0.12  0.92  0.00741908446681
0.12  0.94  0.00577472158034
0.12  0.96  0.00449481462027
0.12  0.98  0.00349858572218
0.14  -1  0.00277462227513
0.14  -0.98  0.00356470121309
0.14  -0.96  0.00457975662219
0.14  -0.94  0.00588385097788
0.14  -0.92  0.0075592886666
0.14  -0.9  0.00971181040441
0.14  -0.88  0.0124772667762
0.14  -0.86  0.0160301920776
0.14  -0.84  0.020594819575
0.14  -0.82  0.0264592333812
0.14  -0.8  0.0339935501047
0.14  -0.78  0.0436732777581
0.14  -0.76  0.0561093261592
0.14  -0.74  0.0720865628515
0.14  -0.72  0.0926133478952
0.14  -0.7  0.118985173784
0.14  -0.68  0.152866426947
0.14  -0.66  0.196395430997
0.14  -0.64  0.252319401237
0.14  -0.62  0.324167827722
0.14  -0.6  0.416475229469
0.14  -0.58  0.53506733836
0.14  -0.56  0.687428774444
0.14  -0.54  0.883175417475
0.14  -0.52  1.13466128715
0.14  -0.5  1.45775823361
0.14  -0.48  1.87285764637
0.14  -0.46  2.4061574016
0.14  -0.44  3.09131527028
0.14  -0.42  3.97157313728
0.14  -0.4  5.10248609594
0.14  -0.38  6.55542865744
0.14  -0.36  8.42209935997
0.14  -0.34  10.8203080738
0.14  -0.32  13.9014112524
0.14  -0.3  17.8598643856
0.14  -0.28  22.9454945314
0.14  -0.26  29.4792674752
0.14  -0.24  37.873544616
0.14  -0.22  48.6581080412
0.14  -0.2  45.1335651928
0.14  -0.18  45.5263321242
0.14  -0.16  47.2659706973
0.14  -0.14  50.0477568718
0.14  -0.12  53.451234549
0.14  -0.1  57.0504803141
0.14  -0.08  60.4748278715
0.14  -0.06  63.428316615
0.14  -0.04  65.6894996088
0.14  -0.02  67.1056953354
0.14  6.17561557e-16  67.5875620642
0.14  0.02  67.1056953354
0.14  0.04  65.6894996088
0.14  0.06  63.428316615
0.14  0.08  60.4748278715
0.14  0.1  57.0504803141
0.14  0.12  53.451234549
0.14  0.14  50.0477568718
0.14  0.16  47.2659706973
0.14  0.18  45.5263321242
0.14  0.2  62.5135962887
0.14  0.22  48.6581080412
0.14  0.24  37.8735446161
0.14  0.26  29.4792674752
0.14  0.28  22.9454945314
0.14  0.3  17.8598643856
0.14  0.32  13.9014112524
0.14  0.34  10.8203080738
0.14  0.36  8.42209935997
0.14  0.38  6.55542865745
0.14  0.4  5.10248609594
0.14  0.42  3.97157313728
0.14  0.44  3.09131527028
0.14  0.46  2.4061574016
0.14  0.48  1.87285764637
0.14  0.5  1.45775823361
0.14  0.52  1.13466128715
0.14  0.54  0.883175417475
0.14  0.56  0.687428774444
0.14  0.58  0.53506733836
0.14  0.6  0.416475229469
0.14  0.62  0.324167827722
0.14  0.64  0.252319401237
0.14  0.66  0.196395430997
0.14  0.68  0.152866426947
0.14  0.7  0.118985173784
0.14  0.72  0.0926133478952
0.14  0.74  0.0720865628515
0.14  0.76  0.0561093261592
0.14  0.78  0.0436732777581
0.14  0.8  0.0339935501047
0.14  0.82  0.0264592333812
0.14  0.84  0.020594819575
0.14  0.86  0.0160301920776
0.14  0.88  0.0124772667762
0.14  0.9  0.00971181040441
0.14  0.92  0.0075592886666
0.14  0.94  0.00588385097788
0.14  0.96  0.00457975662219
0.14  0.98  0.00356470121309
0.16  -1  0.00276912733501
0.16  -0.98  0.00355764157839
0.16  -0.96  0.00457068674316
0.16  -0.94  0.00587219843365
0.16  -0.92  0.00754431803838
0.16  -0.9  0.00969257686151
0.16  -0.88  0.0124525564456
0.16  -0.86  0.0159984454336
0.16  -0.84  0.0205540330141
0.16  -0.82  0.02640683277
0.16  -0.8  0.0339262283205
0.16  -0.78  0.0435867859686
0.16  -0.76  0.0559982056691
0.16  -0.74  0.0719438005918
0.16  -0.72  0.0924299338121
0.16  -0.7  0.118749532194
0.16  -0.68  0.152563685969
0.16  -0.66  0.196006483953
0.16  -0.64  0.251819700787
0.16  -0.62  0.323525836624
0.16  -0.6  0.415650430192
0.16  -0.58  0.534007675931
0.16  -0.56  0.686067371134
0.16  -0.54  0.881426351999
0.16  -0.52  1.13241417197
0.16  -0.5  1.45487124814
0.16  -0.48  1.86914858632
0.16  -0.46  2.4013921797
0.16  -0.44  3.08519314244
0.16  -0.42  3.96370772196
0.16  -0.4  5.09238098874
0.16  -0.38  6.54244610187
0.16  -0.36  8.40541999714
0.16  -0.34  10.7988792308
0.16  -0.32  13.8738805059
0.16  -0.3  17.824494207
0.16  -0.28  22.9000526277
0.16  -0.26  29.4208859035
0.16  -0.24  37.7985387814
0.16  -0.22  48.5617441534
0.16  -0.2  45.0441814089
0.16  -0.18  45.4361704936
0.16  -0.16  47.1723638374
0.16  -0.14  49.9486408843
0.16  -0.12  53.3453782184
0.16  -0.1  56.9374959358
0.16  -0.08  60.3550618188
0.16  -0.06  63.30270139
0.16  -0.04  65.5594062733
0.16  -0.02  66.972797326
0.16  6.17561557e-16  67.4537097523
0.16  0.02  66.972797326
0.16  0.04  65.5594062733
0.16  0.06  63.30270139
0.16  0.08  60.3550618188
0.16  0.1  56.9374959358
0.16  0.12  53.3453782184
0.16  0.14  49.9486408843
0.16  0.16  47.1723638374
0.16  0.18  45.4361704936
0.16  0.2  62.3897926016
0.16  0.22  48.5617441534
0.16  0.24  37.7985387814
0.16  0.26  29.4208859035
0.16  0.28  22.9000526277
0.16  0.3  17.824494207
0.16  0.32  13.8738805059
0.16  0.34  10.7988792308
0.16  0.36  8.40541999714
0.16  0.38  6.54244610187
0.16  0.4  5.09238098874
0.16  0.42  3.96370772196
0.16  0.44  3.08519314244
0.16  0.46  2.4013921797
0.16  0.48  1.86914858632
0.16  0.5  1.45487124814
0.16  0.52  1.13241417197
0.16  0.54  0.881426352
0.16  0.56  0.686067371134
0.16  0.58  0.534007675931
0.16  0.6  0.415650430192
0.16  0.62  0.323525836624
0.16  0.64  0.251819700787
0.16  0.66  0.196006483953
0.16  0.68  0.152563685969
0.16  0.7  0.118749532194
0.16  0.72  0.0924299338121
0.16  0.74  0.0719438005918
0.16  0.76  0.0559982056691
0.16  0.78  0.0435867859686
0.16  0.8  0.0339262283205
0.16  0.82  0.02640683277
0.16  0.84  0.0205540330141
0.16  0.86  0.0159984454336
0.16  0.88  0.0124525564456
0.16  0.9  0.00969257686151
0.16  0.92  0.00754431803838
0.16  0.94  0.00587219843365
0.16  0.96  0.00457068674316
0.16  0.98  0.00355764157839
0.18  -1  0.00270678857309
0.18  -0.98  0.00347755173617
0.18  -0.96  0.00446779116697
0.18  -0.94  0.00574000314763
0.18  -0.92  0.00737447989475
0.18  -0.9  0.00947437698542
0.18  -0.88  0.0121722237423
0.18  -0.86  0.0156382874631
0.18  -0.84  0.0200913193807
0.18  -0.82  0.0258123605548
0.18  -0.8  0.0331624790182
0.18  -0.78  0.0426055576086
0.18  -0.76  0.0547375706788
0.18  -0.74  0.0703241974049
0.18  -0.72  0.0903491455561
0.18  -0.7  0.116076235548
0.18  -0.68  0.14912916305
0.18  -0.66  0.191593974141
0.18  -0.64  0.246150720464
0.18  -0.62  0.316242603437
0.18  -0.6  0.406293282588
0.18  -0.58  0.521986062857
0.18  -0.56  0.670622581013
0.18  -0.54  0.861583628694
0.18  -0.52  1.10692119569
0.18  -0.5  1.42211909868
0.18  -0.48  1.82707020039
0.18  -0.46  2.34733189382
0.18  -0.44  3.01573908796
0.18  -0.42  3.87447649417
0.18  -0.4  4.97774100016
0.18  -0.38  6.39516215982
0.18  -0.36  8.21619667418
0.18  -0.34  10.555774209
0.18  -0.32  13.5615508695
0.18  -0.3  17.4232281162
0.18  -0.28  22.384525259
0.18  -0.26  28.7585611419
0.18  -0.24  36.947615792
0.18  -0.22  47.4685192341
0.18  -0.2  44.0301440748
0.18  -0.18  44.4133086774
0.18  -0.16  46.1104167319
0.18  -0.14  48.824194062
0.18  -0.12  52.14446384
0.18  -0.1  55.6557155862
0.18  -0.08  58.9963450195
0.18  -0.06  61.8776271506
0.18  -0.04  64.0835289572
0.18  -0.02  65.4651016651
0.18  6.17561557e-16  65.9351877618
0.18  0.02  65.4651016651
0.18  0.04  64.0835289572
0.18  0.06  61.8776271506
0.18  0.08  58.9963450195
0.18  0.1  55.6557155862
0.18  0.12  52.14446384
0.18  0.14  48.824194062
0.18  0.16  46.1104167319
0.18  0.18  44.4133086774
0.18  0.2  60.98526982
0.18  0.22  47.4685192341
0.18  0.24  36.947615792
0.18  0.26  28.7585611419
0.18  0.28  22.384525259
0.18  0.3  17.4232281162
0.18  0.32  13.5615508695
0.18  0.34  10.555774209
0.18  0.36  8.21619667418
0.18  0.38  6.39516215983
0.18  0.4  4.97774100016
0.18  0.42  3.87447649418
0.18  0.44  3.01573908796
0.18  0.46  2.34733189382
0.18  0.48  1.82707020039
0.18  0.5  1.42211909868
0.18  0.52  1.10692119569
0.18  0.54  0.861583628694
0.18  0.56  0.670622581013
0.18  0.58  0.521986062857
0.18  0.6  0.406293282588
0.18  0.62  0.316242603437
0.18  0.64  0.246150720464
0.18  0.66  0.191593974141
0.18  0.68  0.14912916305
0.18  0.7  0.116076235548
0.18  0.72  0.0903491455561
0.18  0.74  0.0703241974049
0.18  0.76  0.0547375706788
0.18  0.78  0.0426055576086
0.18  0.8  0.0331624790182
0.18  0.82  0.0258123605548
0.18  0.84  0.0200913193807
0.18  0.86  0.0156382874631
0.18  0.88  0.0121722237423
0.18  0.9  0.00947437698542
0.18  0.92  0.00737447989475
0.18  0.94  0.00574000314763
0.18  0.96  0.00446779116697
0.18  0.98  0.00347755173617
0.2  -1  0.00258888566092
0.2  -0.98  0.00332607574687
0.2  -0.96  0.00427318210337
0.2  -0.94  0.00548997878528
0.2  -0.92  0.00705326062259
0.2  -0.9  0.00906168991828
0.2  -0.88  0.0116420232526
0.2  -0.86  0.0149571113818
0.2  -0.84  0.0192161771225
0.2  -0.82  0.0246880198842
0.2  -0.8  0.0317179802162
0.2  -0.78  0.0407497350421
0.2  -0.76  0.0523532991282
0.2  -0.74  0.0672610000231
0.2  -0.72  0.0864136969291
0.2  -0.7  0.111020160485
0.2  -0.68  0.142633361055
0.2  -0.66  0.183248480248
0.2  -0.64  0.235428831409
0.2  -0.62  0.302467636205
0.2  -0.6  0.388595867396
0.2  -0.58  0.499249275235
0.2  -0.56  0.641411450134
0.2  -0.54  0.824054573077
0.2  -0.52  1.05870567054
0.2  -0.5  1.3601741116
0.2  -0.48  1.74748626113
0.2  -0.46  2.24508627742
0.2  -0.44  2.884378839
0.2  -0.42  3.70571116601
0.2  -0.4  4.76091942577
0.2  -0.38  6.11660023225
0.2  -0.36  7.85831371114
0.2  -0.34  10.0959833957
0.2  -0.32  12.9708337529
0.2  -0.3  16.664303184
0.2  -0.28  21.4094950176
0.2  -0.26  27.5058891962
0.2  -0.24  35.3382431417
0.2  -0.22  45.4008746793
0.2  -0.2  42.112269047
0.2  -0.18  42.4787436788
0.2  -0.16  44.1019287146
0.2  -0.14  46.6974987148
0.2  -0.12  49.8731434268
0.2  -0.1  53.231451271
0.2  -0.08  56.4265688078
0.2  -0.06  59.1823473966
0.2  -0.04  61.2921640307
0.2  -0.02  62.6135578804
0.2  6.17561557e-16  63.06316786
0.2  0.02  62.6135578804
0.2  0.04  61.2921640307
0.2  0.06  59.1823473966
0.2  0.08  56.4265688078
0.2  0.1  53.231451271
0.2  0.12  49.8731434268
0.2  0.14  46.6974987148
0.2  0.16  44.1019287146
0.2  0.18  42.4787436788
0.2  0.2  58.3288595696
0.2  0.22  45.4008746793
0.2  0.24  35.3382431417
0.2  0.26  27.5058891962
0.2  0.28  21.4094950176
0.2  0.3  16.664303184
0.2  0.32  12.9708337529
0.2  0.34  10.0959833957
0.2  0.36  7.85831371114
0.2  0.38  6.11660023225
0.2  0.4  4.76091942577
0.2  0.42  3.70571116601
0.2  0.44  2.88437883901
0.2  0.46  2.24508627742
0.2  0.48  1.74748626113
0.2  0.5  1.3601741116
0.2  0.52  1.05870567054
0.2  0.54  0.824054573077
0.2  0.56  0.641411450134
0.2  0.58  0.499249275235
0.2  0.6  0.388595867396
0.2  0.62  0.302467636205
0.2  0.64  0.235428831409
0.2  0.66  0.183248480248
0.2  0.68  0.142633361055
0.2  0.7  0.111020160485
0.2  0.72  0.0864136969292
0.2  0.74  0.0672610000231
0.2  0.76  0.0523532991282
0.2  0.78  0.0407497350421
0.2  0.8  0.0317179802162
0.2  0.82  0.0246880198842
0.2  0.84  0.0192161771225
0.2  0.86  0.0149571113818
0.2  0.88  0.0116420232526
0.2  0.9  0.00906168991828
0.2  0.92  0.00705326062259
0.2  0.94  0.00548997878528
0.2  0.96  0.00427318210337
0.2  0.98  0.00332607574687
0.22  -1  0.00241783887439
0.22  -0.98  0.00310632306452
0.22  -0.96  0.00399085442931
0.22  -0.94  0.00512725777232
0.22  -0.92  0.00658725411551
0.22  -0.9  0.00846298717737
0.22  -0.88  0.0108728387745
0.22  -0.86  0.0139689001694
0.22  -0.84  0.0179465708993
0.22  -0.82  0.0230568908889
0.22  -0.8  0.029622384156
0.22  -0.78  0.0380574140423
0.22  -0.76  0.0488943346341
0.22  -0.74  0.0628170888505
0.22  -0.72  0.0807043736495
0.22  -0.7  0.103685096609
0.22  -0.68  0.133209623873
0.22  -0.66  0.171141316089
0.22  -0.64  0.21987412937
0.22  -0.62  0.282483703355
0.22  -0.6  0.36292147189
0.22  -0.58  0.466264047074
0.22  -0.56  0.599033615899
0.22  -0.54  0.769609570433
0.22  -0.52  0.988757350475
0.22  -0.5  1.27030787516
0.22  -0.48  1.63203044399
0.22  -0.46  2.09675419809
0.22  -0.44  2.69380891967
0.22  -0.42  3.4608761019
0.22  -0.4  4.44636711432
0.22  -0.38  5.71247855549
0.22  -0.36  7.33911762297
0.22  -0.34  9.4289452399
0.22  -0.32  12.1138552213
0.22  -0.3  15.5632983955
0.22  -0.28  19.9949770343
0.22  -0.26  25.6885845432
0.22  -0.24  33.0034575533
0.22  -0.22  42.4012544809
0.22  -0.2  39.3299258934
0.22  -0.18  39.6721876721
0.22  -0.16  41.1881294301
0.22  -0.14  43.6122110117
0.22  -0.12  46.5780419681
0.22  -0.1  49.7144675664
0.22  -0.08  52.6984847848
0.22  -0.06  55.2721900287
0.22  -0.04  57.2426118023
0.22  -0.02  58.4767016142
0.22  6.17561557e-16  58.8966060169
0.22  0.02  58.4767016142
0.22  0.04  57.2426118023
0.22  0.06  55.2721900287
0.22  0.08  52.6984847848
0.22  0.1  49.7144675664
0.22  0.12  46.5780419681
0.22  0.14  43.6122110117
0.22  0.16  41.1881294301
0.22  0.18  39.6721876721
0.22  0.2  54.4750918493
0.22  0.22  42.4012544809
0.22  0.24  33.0034575533
0.22  0.26  25.6885845432
0.22  0.28  19.9949770343
0.22  0.3  15.5632983955
0.22  0.32  12.1138552213
0.22  0.34  9.4289452399
0.22  0.36  7.33911762297
0.22  0.38  5.71247855549
0.22  0.4  4.44636711432
0.22  0.42  3.4608761019
0.22  0.44  2.69380891967
0.22  0.46  2.09675419809
0.22  0.48  1.63203044399
0.22  0.5  1.27030787516
0.22  0.52  0.988757350475
0.22  0.54  0.769609570433
0.22  0.56  0.599033615899
0.22  0.58  0.466264047074
0.22  0.6  0.36292147189
0.22  0.62  0.282483703355
0.22  0.64  0.21987412937
0.22  0.66  0.17114131609
0.22  0.68  0.133209623873
0.22  0.7  0.103685096609
0.22  0.72  0.0807043736495
0.22  0.74  0.0628170888505
0.22  0.76  0.0488943346341
0.22  0.78  0.0380574140423
0.22  0.8  0.029622384156
0.22  0.82  0.0230568908889
0.22  0.84  0.0179465708993
0.22  0.86  0.0139689001694
0.22  0.88  0.0108728387745
0.22  0.9  0.00846298717737
0.22  0.92  0.00658725411551
0.22  0.94  0.00512725777232
0.22  0.96  0.00399085442931
0.22  0.98  0.00310632306453
0.24  -1  0.00219715941102
0.24  -0.98  0.00282280470679
0.24  -0.96  0.00362660368325
0.24  -0.94  0.00465928593775
0.24  -0.92  0.00598602641639
0.24  -0.9  0.00769055875438
0.24  -0.88  0.00988045989784
0.24  -0.86  0.0126939395317
0.24  -0.84  0.0163085628098
0.24  -0.82  0.0209524568994
0.24  -0.8  0.0269187086098
0.24  -0.78  0.0345838617733
0.24  -0.76  0.0444316817903
0.24  -0.74  0.0570836871732
0.24  -0.72  0.0733383750062
0.24  -0.7  0.0942216159273
0.24  -0.68  0.121051399178
0.24  -0.66  0.155521013928
0.24  -0.64  0.19980591664
0.24  -0.62  0.256701029114
0.24  -0.6  0.329797132419
0.24  -0.58  0.423707489321
0.24  -0.56  0.544358997877
0.24  -0.54  0.699366251573
0.24  -0.52  0.898512113782
0.24  -0.5  1.15436513672
0.24  -0.48  1.4830727916
0.24  -0.46  1.90538057259
0.24  -0.44  2.44794129255
0.24  -0.42  3.14499720317
0.24  -0.4  4.04054110204
0.24  -0.38  5.19109281904
0.24  -0.36  6.66926631245
0.24  -0.34  8.56835250243
0.24  -0.32  11.008207075
0.24  -0.3  14.1428148494
0.24  -0.28  18.1700081132
0.24  -0.26  23.3439522719
0.24  -0.24  29.9911868105
0.24  -0.22  38.5312339497
0.24  -0.2  35.7402297261
0.24  -0.18  36.0512528038
0.24  -0.16  37.4288324827
0.24  -0.14  39.6316648205
0.24  -0.12  42.3268003262
0.24  -0.1  45.1769600673
0.24  -0.08  47.88862195
0.24  -0.06  50.2274215936
0.24  -0.04  52.018000275
0.24  -0.02  53.1394530206
0.24  6.17561557e-16  53.5210321738
0.24  0.02  53.1394530206
0.24  0.04  52.018000275
0.24  0.06  50.2274215936
0.24  0.08  47.88862195
0.24  0.1  45.1769600673
0.24  0.12  42.3268003262
0.24  0.14  39.6316648205
0.24  0.16  37.4288324827
0.24  0.18  36.0512528038
0.24  0.2  49.503075656
0.24  0.22  38.5312339498
0.24  0.24  29.9911868105
0.24  0.26  23.3439522719
0.24  0.28  18.1700081132
0.24  0.3  14.1428148494
0.24  0.32  11.008207075
0.24  0.34  8.56835250243
0.24  0.36  6.66926631245
0.24  0.38  5.19109281904
0.24  0.4  4.04054110204
0.24  0.42  3.14499720317
0.24  0.44  2.44794129255
0.24  0.46  1.90538057259
0.24  0.48  1.4830727916
0.24  0.5  1.15436513672
0.24  0.52  0.898512113783
0.24  0.54  0.699366251573
0.24  0.56  0.544358997877
0.24  0.58  0.423707489321
0.24  0.6  0.329797132419
0.24  0.62  0.256701029114
0.24  0.64  0.19980591664
0.24  0.66  0.155521013928
0.24  0.68  0.121051399178
0.24  0.7  0.0942216159273
0.24  0.72  0.0733383750062
0.24  0.74  0.0570836871732
0.24  0.76  0.0444316817903
0.24  0.78  0.0345838617733
0.24  0.8  0.0269187086098
0.24  0.82  0.0209524568994
0.24  0.84  0.0163085628098
0.24  0.86  0.0126939395317
0.24  0.88  0.00988045989784
0.24  0.9  0.00769055875438
0.24  0.92  0.00598602641639
0.24  0.94  0.00465928593775
0.24  0.96  0.00362660368325
0.24  0.98  0.00282280470679
0.26  -1  0.00193137731316
0.26  -0.98  0.00248134065414
0.26  -0.96  0.00318790709611
0.26  -0.94  0.00409566966811
0.26  -0.92  0.00526191934852
0.26  -0.9  0.00676026083009
0.26  -0.88  0.00868525788098
0.26  -0.86  0.0111584014811
0.26  -0.84  0.0143357773966
0.26  -0.82  0.0184179171105
0.26  -0.8  0.0236624538247
0.26  -0.78  0.0304003822825
0.26  -0.76  0.039056948606
0.26  -0.74  0.0501784885545
0.26  -0.72  0.0644669080272
0.26  -0.7  0.0828239819556
0.26  -0.68  0.106408267387
0.26  -0.66  0.136708222678
0.26  -0.64  0.175636147518
0.26  -0.62  0.225648872544
0.26  -0.6  0.289902815566
0.26  -0.58  0.372453190327
0.26  -0.56  0.478509940355
0.26  -0.54  0.614766550441
0.26  -0.52  0.789822487827
0.26  -0.5  1.01472593431
0.26  -0.48  1.30367106233
0.26  -0.46  1.67489386177
0.26  -0.44  2.15182305511
0.26  -0.42  2.76455873784
0.26  -0.4  3.55177206454
0.26  -0.38  4.56314587414
0.26  -0.36  5.86251028793
0.26  -0.34  7.53187117485
0.26  -0.32  9.67658573005
0.26  -0.3  12.4320118092
0.26  -0.28  15.9720506732
0.26  -0.26  20.5201222958
0.26  -0.24  26.3632659106
0.26  -0.22  33.8702557154
0.26  -0.2  31.4168687598
0.26  -0.18  31.6902685473
0.26  -0.16  32.9012076014
0.26  -0.14  34.8375716088
0.26  -0.12  37.2066867242
0.26  -0.1  39.7120733771
0.26  -0.08  42.095715736
0.26  -0.06  44.1515995963
0.26  -0.04  45.7255787193
0.26  -0.02  46.7113735505
0.26  6.17561557e-16  47.0467945107
0.26  0.02  46.7113735505
0.26  0.04  45.7255787193
0.26  0.06  44.1515995963
0.26  0.08  42.095715736
0.26  0.1  39.7120733771
0.26  0.12  37.2066867242
0.26  0.14  34.8375716088
0.26  0.16  32.9012076014
0.26  0.18  31.6902685473
0.26  0.2  43.5148750584
0.26  0.22  33.8702557154
0.26  0.24  26.3632659106
0.26  0.26  20.5201222958
0.26  0.28  15.9720506732
0.26  0.3  12.4320118092
0.26  0.32  9.67658573005
0.26  0.34  7.53187117485
0.26  0.36  5.86251028793
0.26  0.38  4.56314587414
0.26  0.4  3.55177206454
0.26  0.42  2.76455873784
0.26  0.44  2.15182305511
0.26  0.46  1.67489386177
0.26  0.48  1.30367106233
0.26  0.5  1.01472593431
0.26  0.52  0.789822487827
0.26  0.54  0.614766550441
0.26  0.56  0.478509940355
0.26  0.58  0.372453190327
0.26  0.6  0.289902815566
0.26  0.62  0.225648872544
0.26  0.64  0.175636147518
0.26  0.66  0.136708222679
0.26  0.68  0.106408267387
0.26  0.7  0.0828239819556
0.26  0.72  0.0644669080272
0.26  0.74  0.0501784885545
0.26  0.76  0.0390569486061
0.26  0.78  0.0304003822825
0.26  0.8  0.0236624538247
0.26  0.82  0.0184179171105
0.26  0.84  0.0143357773966
0.26  0.86  0.0111584014811
0.26  0.88  0.00868525788098
0.26  0.9  0.00676026083009
0.26  0.92  0.00526191934852
0.26  0.94  0.00409566966811
0.26  0.96  0.00318790709611
0.26  0.98  0.00248134065414
0.28  -1  0.00162594847663
0.28  -0.98  0.00208894037902
0.28  -0.96  0.00268377010086
0.28  -0.94  0.00344797871045
0.28  -0.92  0.00442979716628
0.28  -0.9  0.00569119028342
0.28  -0.88  0.00731176747518
0.28  -0.86  0.00939380708583
0.28  -0.84  0.0120687114115
0.28  -0.82  0.0155052998005
0.28  -0.8  0.0199204632297
0.28  -0.78  0.0255928527918
0.28  -0.76  0.0328804660047
0.28  -0.74  0.0422432408564
0.28  -0.72  0.0542720835465
0.28  -0.7  0.0697261619317
0.28  -0.68  0.0895808183514
0.28  -0.66  0.11508912572
0.28  -0.64  0.147860971831
0.28  -0.62  0.189964663075
0.28  -0.6  0.244057459993
0.28  -0.58  0.31355328309
0.28  -0.56  0.402838173188
0.28  -0.54  0.517547104524
0.28  -0.52  0.664919620902
0.28  -0.5  0.854256739911
0.28  -0.48  1.09750796148
0.28  -0.46  1.41002542823
0.28  -0.44  1.81153283441
0.28  -0.42  2.32737023351
0.28  -0.4  2.99009330714
0.28  -0.38  3.84152802879
0.28  -0.36  4.93541039698
0.28  -0.34  6.34077783736
0.28  -0.32  8.14632631309
0.28  -0.3  10.4660081305
0.28  -0.28  13.4462237305
0.28  -0.26  17.2750613563
0.28  -0.24  22.1941677341
0.28  -0.22  28.513998952
0.28  -0.2  26.4485916616
0.28  -0.18  26.6787558895
0.28  -0.16  27.6981965223
0.28  -0.14  29.3283430952
0.28  -0.12  31.3228053303
0.28  -0.1  33.4319890636
0.28  -0.08  35.4386811976
0.28  -0.06  37.1694467026
0.28  -0.04  38.4945160921
0.28  -0.02  39.324416906
0.28  6.17561557e-16  39.6067942517
0.28  0.02  39.324416906
0.28  0.04  38.4945160921
0.28  0.06  37.1694467026
0.28  0.08  35.4386811976
0.28  0.1  33.4319890636
0.28  0.12  31.3228053303
0.28  0.14  29.3283430952
0.28  0.16  27.6981965223
0.28  0.18  26.6787558895
0.28  0.2  36.6334140562
0.28  0.22  28.513998952
0.28  0.24  22.1941677341
0.28  0.26  17.2750613563
0.28  0.28  13.4462237305
0.28  0.3  10.4660081305
0.28  0.32  8.14632631309
0.28  0.34  6.34077783737
0.28  0.36  4.93541039698
0.28  0.38  3.84152802879
0.28  0.4  2.99009330714
0.28  0.42  2.32737023351
0.28  0.44  1.81153283441
0.28  0.46  1.41002542823
0.28  0.48  1.09750796148
0.28  0.5  0.854256739912
0.28  0.52  0.664919620903
0.28  0.54  0.517547104524
0.28  0.56  0.402838173188
0.28  0.58  0.31355328309
0.28  0.6  0.244057459993
0.28  0.62  0.189964663075
0.28  0.64  0.147860971831
0.28  0.66  0.11508912572
0.28  0.68  0.0895808183514
0.28  0.7  0.0697261619317
0.28  0.72  0.0542720835465
0.28  0.74  0.0422432408564
0.28  0.76  0.0328804660047
0.28  0.78  0.0255928527918
0.28  0.8  0.0199204632297
0.28  0.82  0.0155052998005
0.28  0.84  0.0120687114115
0.28  0.86  0.00939380708583
0.28  0.88  0.00731176747519
0.28  0.9  0.00569119028342
0.28  0.92  0.00442979716628
0.28  0.94  0.00344797871045
0.28  0.96  0.00268377010086
0.28  0.98  0.00208894037902
0.3  -1  0.00128714265367
0.3  -0.98  0.0016536589575
0.3  -0.96  0.00212454147171
0.3  -0.94  0.00272950867199
0.3  -0.92  0.00350674142617
0.3  -0.9  0.00450529267638
0.3  -0.88  0.00578818328274
0.3  -0.86  0.00743637941441
0.3  -0.84  0.00955390251032
0.3  -0.82  0.0122743943107
0.3  -0.8  0.0157695512941
0.3  -0.78  0.0202599608357
0.3  -0.76  0.0260290229829
0.3  -0.74  0.0334408364822
0.3  -0.72  0.0429631778867
0.3  -0.7  0.0551970240071
0.3  -0.68  0.070914480937
0.3  -0.66  0.0911075134399
0.3  -0.64  0.117050550121
0.3  -0.62  0.150380915538
0.3  -0.6  0.193202165517
0.3  -0.58  0.248216847375
0.3  -0.56  0.318897063891
0.3  -0.54  0.409703605674
0.3  -0.52  0.526367481889
0.3  -0.5  0.676251617396
0.3  -0.48  0.868815543829
0.3  -0.46  1.11621241233
0.3  -0.44  1.43405600682
0.3  -0.42  1.84240616569
0.3  -0.4  2.36703480423
0.3  -0.38  3.04105243936
0.3  -0.36  3.90699787024
0.3  -0.34  5.01952289954
0.3  -0.32  6.44884153403
0.3  -0.3  8.28516135167
0.3  -0.28  10.6443767087
0.3  -0.26  13.6753830986
0.3  -0.24  17.5694742877
0.3  -0.22  22.5724153043
0.3  -0.2  20.9373857453
0.3  -0.18  21.1195896708
0.3  -0.16  21.9266051083
0.3  -0.14  23.217071083
0.3  -0.12  24.7959387107
0.3  -0.1  26.4656228283
0.3  -0.08  28.0541719586
0.3  -0.06  29.4242904692
0.3  -0.04  30.4732494951
0.3  -0.02  31.1302203347
0.3  6.17561557e-16  31.3537575078
0.3  0.02  31.1302203347
0.3  0.04  30.4732494951
0.3  0.06  29.4242904692
0.3  0.08  28.0541719586
0.3  0.1  26.4656228283
0.3  0.12  24.7959387106
0.3  0.14  23.217071083
0.3  0.16  21.9266051083
0.3  0.18  21.1195896708
0.3  0.2  28.9999532328
0.3  0.22  22.5724153043
0.3  0.24  17.5694742877
0.3  0.26  13.6753830986
0.3  0.28  10.6443767087
0.3  0.3  8.28516135167
0.3  0.32  6.44884153403
0.3  0.34  5.01952289954
0.3  0.36  3.90699787024
0.3  0.38  3.04105243936
0.3  0.4  2.36703480423
0.3  0.42  1.84240616569
0.3  0.44  1.43405600682
0.3  0.46  1.11621241233
0.3  0.48  0.868815543829
0.3  0.5  0.676251617396
0.3  0.52  0.526367481889
0.3  0.54  0.409703605674
0.3  0.56  0.318897063891
0.3  0.58  0.248216847375
0.3  0.6  0.193202165517
0.3  0.62  0.150380915539
0.3  0.64  0.117050550121
0.3  0.66  0.0911075134399
0.3  0.68  0.0709144809371
0.3  0.7  0.0551970240071
0.3  0.72  0.0429631778868
0.3  0.74  0.0334408364822
0.3  0.76  0.0260290229829
0.3  0.78  0.0202599608357
0.3  0.8  0.0157695512941
0.3  0.82  0.0122743943107
0.3  0.84  0.00955390251032
0.3  0.86  0.00743637941442
0.3  0.88  0.00578818328274
0.3  0.9  0.00450529267638
0.3  0.92  0.00350674142617
0.3  0.94  0.00272950867199
0.3  0.96  0.00212454147171
0.3  0.98  0.0016536589575
0.32  -1  0.000978238441462
0.32  -0.98  0.00125679368692
0.32  -0.96  0.0016146680651
0.32  -0.94  0.00207444784899
0.32  -0.92  0.0026651507955
0.32  -0.9  0.00342405752269
0.32  -0.88  0.00439906437508
0.32  -0.86  0.00565170627183
0.32  -0.84  0.00726104031666
0.32  -0.82  0.00932863527303
0.32  -0.8  0.0119849818018
0.32  -0.78  0.0153977280261
0.32  -0.76  0.0197822601893
0.32  -0.74  0.0254152961743
0.32  -0.72  0.0326523498048
0.32  -0.7  0.0419501681373
0.32  -0.68  0.0538955578166
0.32  -0.66  0.0692424197884
0.32  -0.64  0.0889593297183
0.32  -0.62  0.114290667023
0.32  -0.6  0.146835150512
0.32  -0.58  0.188646737196
0.32  -0.56  0.242364252229
0.32  -0.54  0.311377931214
0.32  -0.52  0.400043385752
0.32  -0.5  0.513956496083
0.32  -0.48  0.66030657992
0.32  -0.46  0.848330126789
0.32  -0.44  1.08989373407
0.32  -0.42  1.40024303517
0.32  -0.4  1.79896488643
0.32  -0.38  2.31122353859
0.32  -0.36  2.96934881032
0.32  -0.34  3.81487649728
0.32  -0.32  4.90116979148
0.32  -0.3  6.29678715473
0.32  -0.28  8.08980920042
0.32  -0.26  10.3933976631
0.32  -0.24  13.3529372953
0.32  -0.22  17.1552114323
0.32  -0.2  15.9125762334
0.32  -0.18  16.0510526358
0.32  -0.16  16.6643906537
0.32  -0.14  17.645154845
0.32  -0.12  18.8451065387
0.32  -0.1  20.1140794721
0.32  -0.08  21.3213891833
0.32  -0.06  22.3626899222
0.32  -0.04  23.1599069516
0.32  -0.02  23.6592099064
0.32  6.17561557e-16  23.829099899
0.32  0.02  23.6592099064
0.32  0.04  23.1599069516
0.32  0.06  22.3626899222
0.32  0.08  21.3213891833
0.32  0.1  20.1140794721
0.32  0.12  18.8451065387
0.32  0.14  17.645154845
0.32  0.16  16.6643906537
0.32  0.18  16.0510526358
0.32  0.2  22.0401903177
0.32  0.22  17.1552114324
0.32  0.24  13.3529372953
0.32  0.26  10.3933976631
0.32  0.28  8.08980920042
0.32  0.3  6.29678715473
0.32  0.32  4.90116979148
0.32  0.34  3.81487649728
0.32  0.36  2.96934881032
0.32  0.38  2.31122353859
0.32  0.4  1.79896488643
0.32  0.42  1.40024303517
0.32  0.44  1.08989373407
0.32  0.46  0.848330126789
0.32  0.48  0.66030657992
0.32  0.5  0.513956496083
0.32  0.52  0.400043385752
0.32  0.54  0.311377931214
0.32  0.56  0.242364252229
0.32  0.58  0.188646737196
0.32  0.6  0.146835150512
0.32  0.62  0.114290667023
0.32  0.64  0.0889593297184
0.32  0.66  0.0692424197885
0.32  0.68  0.0538955578166
0.32  0.7  0.0419501681373
0.32  0.72  0.0326523498048
0.32  0.74  0.0254152961743
0.32  0.76  0.0197822601893
0.32  0.78  0.0153977280261
0.32  0.8  0.0119849818018
0.32  0.82  0.00932863527303
0.32  0.84  0.00726104031666
0.32  0.86  0.00565170627183
0.32  0.88  0.00439906437508
0.32  0.9  0.00342405752269
0.32  0.92  0.0026651507955
0.32  0.94  0.00207444784899
0.32  0.96  0.0016146680651
0.32  0.98  0.00125679368692
0.34  -1  0.000743468834341
0.34  -0.98  0.000955172990366
0.34  -0.96  0.00122716030502
0.34  -0.94  0.00157659652169
0.34  -0.92  0.00202553536162
0.34  -0.9  0.00260231038489
0.34  -0.88  0.00334332318637
0.34  -0.86  0.00429534078387
0.34  -0.84  0.00551844719194
0.34  -0.82  0.00708983546186
0.34  -0.8  0.00910867951218
0.34  -0.78  0.0117023932222
0.34  -0.76  0.0150346718143
0.34  -0.74  0.0193158230349
0.34  -0.72  0.0248160401585
0.34  -0.7  0.0318824545056
0.34  -0.68  0.0409610436963
0.34  -0.66  0.0526247783211
0.34  -0.64  0.0676097834294
0.34  -0.62  0.0868617970697
0.34  -0.6  0.111595857988
0.34  -0.58  0.14337298951
0.34  -0.56  0.184198719303
0.34  -0.54  0.236649652832
0.34  -0.52  0.304036088836
0.34  -0.5  0.390610939879
0.34  -0.48  0.501838143416
0.34  -0.46  0.644737503423
0.34  -0.44  0.828327726328
0.34  -0.42  1.06419561226
0.34  -0.4  1.3672273246
0.34  -0.38  1.75654788987
0.34  -0.36  2.25672822207
0.34  -0.34  2.8993358494
0.34  -0.32  3.72492721339
0.34  -0.3  4.78560727896
0.34  -0.28  6.14831799831
0.34  -0.26  7.89906317105
0.34  -0.24  10.1483363413
0.34  -0.22  13.0380942988
0.34  -0.2  12.0936818696
0.34  -0.18  12.1989250139
0.34  -0.16  12.6650666843
0.34  -0.14  13.4104551082
0.34  -0.12  14.3224277411
0.34  -0.1  15.2868570536
0.34  -0.08  16.204421837
0.34  -0.06  16.9958185086
0.34  -0.04  17.6017096599
0.34  -0.02  17.9811837943
0.34  6.17561557e-16  18.1103015118
0.34  0.02  17.9811837943
0.34  0.04  17.6017096599
0.34  0.06  16.9958185086
0.34  0.08  16.204421837
0.34  0.1  15.2868570536
0.34  0.12  14.3224277411
0.34  0.14  13.4104551082
0.34  0.16  12.6650666843
0.34  0.18  12.1989250139
0.34  0.2  16.7507162975
0.34  0.22  13.0380942988
0.34  0.24  10.1483363413
0.34  0.26  7.89906317105
0.34  0.28  6.14831799831
0.34  0.3  4.78560727897
0.34  0.32  3.72492721339
0.34  0.34  2.8993358494
0.34  0.36  2.25672822207
0.34  0.38  1.75654788987
0.34  0.4  1.3672273246
0.34  0.42  1.06419561226
0.34  0.44  0.828327726328
0.34  0.46  0.644737503424
0.34  0.48  0.501838143416
0.34  0.5  0.390610939879
0.34  0.52  0.304036088836
0.34  0.54  0.236649652832
0.34  0.56  0.184198719303
0.34  0.58  0.14337298951
0.34  0.6  0.111595857988
0.34  0.62  0.0868617970697
0.34  0.64  0.0676097834294
0.34  0.66  0.0526247783211
0.34  0.68  0.0409610436963
0.34  0.7  0.0318824545056
0.34  0.72  0.0248160401585
0.34  0.74  0.0193158230349
0.34  0.76  0.0150346718143
0.34  0.78  0.0117023932222
0.34  0.8  0.00910867951218
0.34  0.82  0.00708983546187
0.34  0.84  0.00551844719194
0.34  0.86  0.00429534078387
0.34  0.88  0.00334332318637
0.34  0.9  0.00260231038489
0.34  0.92  0.00202553536162
0.34  0.94  0.00157659652169
0.34  0.96  0.00122716030502
0.34  0.98  0.000955172990366
0.36  -1  0.00056504210447
0.36  -0.98  0.000725938911868
0.36  -0.96  0.000932651389329
0.36  -0.94  0.00119822563552
0.36  -0.92  0.00153942265034
0.36  -0.9  0.00197777616013
0.36  -0.88  0.0025409516605
0.36  -0.86  0.00326449244922
0.36  -0.84  0.00419406284529
0.36  -0.82  0.0053883301689
0.36  -0.8  0.00692266737054
0.36  -0.78  0.00889390999083
0.36  -0.76  0.0114264676737
0.36  -0.74  0.0146801759442
0.36  -0.72  0.0188603837956
0.36  -0.7  0.0242309137349
0.36  -0.68  0.0311307122267
0.36  -0.66  0.0399952413825
0.36  -0.64  0.0513839619727
0.36  -0.62  0.0660156422801
0.36  -0.6  0.0848137212147
0.36  -0.58  0.108964588662
0.36  -0.56  0.139992461268
0.36  -0.54  0.179855579255
0.36  -0.52  0.231069795445
0.36  -0.5  0.29686735651
0.36  -0.48  0.381400897471
0.36  -0.46  0.490005524022
0.36  -0.44  0.629535523288
0.36  -0.42  0.808796953612
0.36  -0.4  1.03910341509
0.36  -0.38  1.33499007685
0.36  -0.36  1.71513102489
0.36  -0.34  2.20351782649
0.36  -0.32  2.83097369309
0.36  -0.3  3.63709880384
0.36  -0.28  4.67276956376
0.36  -0.26  6.0033495304
0.36  -0.24  7.71281465785
0.36  -0.22  9.9090532119
0.36  -0.2  9.19129241029
0.36  -0.18  9.27127801966
0.36  -0.16  9.62554931965
0.36  -0.14  10.1920503271
0.36  -0.12  10.8851566308
0.36  -0.1  11.6181304197
0.36  -0.08  12.3154868013
0.36  -0.06  12.9169544354
0.36  -0.04  13.3774364292
0.36  -0.02  13.6658397268
0.36  6.17561557e-16  13.7639701977
0.36  0.02  13.6658397268
0.36  0.04  13.3774364292
0.36  0.06  12.9169544354
0.36  0.08  12.3154868013
0.36  0.1  11.6181304197
0.36  0.12  10.8851566308
0.36  0.14  10.1920503271
0.36  0.16  9.62554931965
0.36  0.18  9.27127801966
0.36  0.2  12.730674846
0.36  0.22  9.9090532119
0.36  0.24  7.71281465785
0.36  0.26  6.0033495304
0.36  0.28  4.67276956376
0.36  0.3  3.63709880384
0.36  0.32  2.83097369309
0.36  0.34  2.20351782649
0.36  0.36  1.71513102489
0.36  0.38  1.33499007685
0.36  0.4  1.03910341509
0.36  0.42  0.808796953612
0.36  0.44  0.629535523288
0.36  0.46  0.490005524022
0.36  0.48  0.381400897471
0.36  0.5  0.29686735651
0.36  0.52  0.231069795445
0.36  0.54  0.179855579255
0.36  0.56  0.139992461268
0.36  0.58  0.108964588662
0.36  0.6  0.0848137212147
0.36  0.62  0.0660156422802
0.36  0.64  0.0513839619727
0.36  0.66  0.0399952413825
0.36  0.68  0.0311307122267
0.36  0.7  0.0242309137349
0.36  0.72  0.0188603837956
0.36  0.74  0.0146801759442
0.36  0.76  0.0114264676737
0.36  0.78  0.00889390999084
0.36  0.8  0.00692266737054
0.36  0.82  0.0053883301689
0.36  0.84  0.00419406284529
0.36  0.86  0.00326449244922
0.36  0.88  0.0025409516605
0.36  0.9  0.00197777616013
0.36  0.92  0.00153942265034
0.36  0.94  0.00119822563552
0.36  0.96  0.000932651389329
0.36  0.98  0.000725938911868
0.38  -1  0.000429436400124
0.38  -0.98  0.000551719226861
0.38  -0.96  0.000708822319675
0.38  -0.94  0.000910660815152
0.38  -0.92  0.00116997320377
0.38  -0.9  0.00150312528525
0.38  -0.88  0.00193114305172
0.38  -0.86  0.0024810396863
0.38  -0.84  0.00318752042711
0.38  -0.82  0.00409517289439
0.38  -0.8  0.00526128111753
0.38  -0.78  0.00675944086162
0.38  -0.76  0.00868420442494
0.38  -0.74  0.0111570480515
0.38  -0.72  0.0143340385753
0.38  -0.7  0.0184156831565
0.38  -0.68  0.0236595837482
0.38  -0.66  0.0303966949463
0.38  -0.64  0.0390522112938
0.38  -0.62  0.0501724022836
0.38  -0.6  0.0644590886793
0.38  -0.58  0.0828139360335
0.38  -0.56  0.10639536087
0.38  -0.54  0.136691641006
0.38  -0.52  0.175614844183
0.38  -0.5  0.225621503044
0.38  -0.48  0.289867652549
0.38  -0.46  0.372408014575
0.38  -0.44  0.478451900721
0.38  -0.42  0.614691983912
0.38  -0.4  0.789726688338
0.38  -0.38  1.01460285573
0.38  -0.36  1.3035129369
0.38  -0.34  1.67469070983
0.38  -0.32  2.15156205527
0.38  -0.3  2.76422341779
0.38  -0.28  3.55134126147
0.38  -0.26  4.56259239909
0.38  -0.24  5.86179920981
0.38  -0.22  7.53095761588
0.38  -0.2  6.98545381652
0.38  -0.18  7.04624350259
0.38  -0.16  7.31549244976
0.38  -0.14  7.74603762754
0.38  -0.12  8.27280381647
0.38  -0.1  8.82986960461
0.38  -0.08  9.35986588591
0.38  -0.06  9.81698597221
0.38  -0.04  10.1669558739
0.38  -0.02  10.3861446262
0.38  6.17561557e-16  10.4607245484
0.38  0.02  10.3861446262
0.38  0.04  10.1669558739
0.38  0.06  9.81698597221
0.38  0.08  9.35986588591
0.38  0.1  8.82986960461
0.38  0.12  8.27280381647
0.38  0.14  7.74603762754
0.38  0.16  7.31549244976
0.38  0.18  7.04624350259
0.38  0.2  9.67541203345
0.38  0.22  7.53095761589
0.38  0.24  5.86179920981
0.38  0.26  4.56259239909
0.38  0.28  3.55134126147
0.38  0.3  2.76422341779
0.38  0.32  2.15156205527
0.38  0.34  1.67469070983
0.38  0.36  1.3035129369
0.38  0.38  1.01460285573
0.38  0.4  0.789726688338
0.38  0.42  0.614691983912
0.38  0.44  0.478451900721
0.38  0.46  0.372408014575
0.38  0.48  0.289867652549
0.38  0.5  0.225621503044
0.38  0.52  0.175614844183
0.38  0.54  0.136691641006
0.38  0.56  0.10639536087
0.38  0.58  0.0828139360335
0.38  0.6  0.0644590886793
0.38  0.62  0.0501724022836
0.38  0.64  0.0390522112938
0.38  0.66  0.0303966949463
0.38  0.68  0.0236595837482
0.38  0.7  0.0184156831565
0.38  0.72  0.0143340385753
0.38  0.74  0.0111570480515
0.38  0.76  0.00868420442494
0.38  0.78  0.00675944086162
0.38  0.8  0.00526128111753
0.38  0.82  0.00409517289439
0.38  0.84  0.00318752042711
0.38  0.86  0.0024810396863
0.38  0.88  0.00193114305172
0.38  0.9  0.00150312528525
0.38  0.92  0.00116997320377
0.38  0.94  0.000910660815152
0.38  0.96  0.000708822319675
0.38  0.98  0.000551719226862
0.4  -1  0.000326375008681
0.4  -0.98  0.000419310909379
0.4  -0.96  0.000538710483485
0.4  -0.94  0.00069210931203
0.4  -0.92  0.000889188746987
0.4  -0.9  0.0011423869236
0.4  -0.88  0.00146768375966
0.4  -0.86  0.00188560948471
0.4  -0.84  0.00242254035002
0.4  -0.82  0.00311236329424
0.4  -0.8  0.00399861462585
0.4  -0.78  0.0051372276995
0.4  -0.76  0.00660006299829
0.4  -0.74  0.00847944341374
0.4  -0.72  0.0108939809553
0.4  -0.7  0.0139960626261
0.4  -0.68  0.0179814679169
0.4  -0.66  0.0231017248983
0.4  -0.64  0.0296799847343
0.4  -0.62  0.0381314164941
0.4  -0.6  0.048989409424
0.4  -0.58  0.0629392363666
0.4  -0.56  0.0808613029016
0.4  -0.54  0.103886711762
0.4  -0.52  0.133468649323
0.4  -0.5  0.171474099525
0.4  -0.48  0.220301673518
0.4  -0.46  0.283032991508
