-0.06  -0.02  14.3594348067
-0.06  6.17561557e-16  14.4726207202
-0.06  0.02  14.3594348067
-0.06  0.04  14.0262303961
-0.06  0.06  13.4923704678
-0.06  0.08  12.7911830309
-0.06  0.1  11.9716553545
-0.06  0.12  11.1007501145
-0.06  0.14  10.2653044841
-0.06  0.16  9.5700336122
-0.06  0.18  9.12450168738
-0.06  0.2  12.5191364179
-0.06  0.22  9.5924766879
-0.06  0.24  7.34999651223
-0.06  0.26  5.63175189135
-0.06  0.28  4.31518971648
-0.06  0.3  3.30640671827
-0.06  0.32  2.53345185378
-0.06  0.34  1.94119442716
-0.06  0.36  1.48739191487
-0.06  0.38  1.13967703465
-0.06  0.4  0.873249162057
-0.06  0.42  0.66910543588
-0.06  0.44  0.512685386688
-0.06  0.46  0.392832417178
-0.06  0.48  0.300998062345
-0.06  0.5  0.230632273646
-0.06  0.52  0.176716239409
-0.06  0.54  0.135404420107
-0.06  0.56  0.103750266788
-0.06  0.58  0.0794960596563
-0.06  0.6  0.0609118771117
-0.06  0.62  0.0466722097838
-0.06  0.64  0.035761419109
-0.06  0.66  0.0274012973162
-0.06  0.68  0.0209955620699
-0.06  0.7  0.0160873268715
-0.06  0.72  0.0123265138133
-0.06  0.74  0.00944488441133
-0.06  0.76  0.00723690760377
-0.06  0.78  0.00554510032995
-0.06  0.8  0.00424879511425
-0.06  0.82  0.00325553350683
-0.06  0.84  0.00249447152171
-0.06  0.86  0.0019113267179
-0.06  0.88  0.00146450652604
-0.06  0.9  0.00112214167506
-0.06  0.92  0.000859813129212
-0.06  0.94  0.000658810410126
-0.06  0.96  0.00050479707944
-0.06  0.98  0.000386788198083
-0.04  -1  0.000388019131568
-0.04  -0.98  0.000506403570101
-0.04  -0.96  0.000660907040265
-0.04  -0.94  0.000862549440134
-0.04  -0.92  0.00112571283304
-0.04  -0.9  0.0014691672425
-0.04  -0.88  0.00191740941657
-0.04  -0.86  0.00250241004863
-0.04  -0.84  0.00326589407425
-0.04  -0.82  0.00426231668549
-0.04  -0.8  0.00556274732565
-0.04  -0.78  0.00725993868884
-0.04  -0.76  0.00947494226867
-0.04  -0.74  0.0123657423075
-0.04  -0.72  0.0161385239593
-0.04  -0.7  0.0210623793629
-0.04  -0.68  0.0274885005311
-0.04  -0.66  0.0358752279802
-0.04  -0.64  0.0468207416835
-0.04  -0.62  0.0611057260179
-0.04  -0.6  0.0797490517646
-0.04  -0.58  0.104080446659
-0.04  -0.56  0.135835337688
-0.04  -0.54  0.177278629724
-0.04  -0.52  0.231366248957
-0.04  -0.5  0.301955973149
-0.04  -0.48  0.394082586078
-0.04  -0.46  0.51431698148
-0.04  -0.44  0.671234829408
-0.04  -0.42  0.87602823246
-0.04  -0.4  1.14330399801
-0.04  -0.38  1.4921254629
-0.04  -0.36  1.94737217827
-0.04  -0.34  2.54151443359
-0.04  -0.32  3.31692918706
-0.04  -0.3  4.32892258511
-0.04  -0.28  5.64967465118
-0.04  -0.26  7.37338749691
-0.04  -0.24  9.62300425004
-0.04  -0.22  12.5589779237
-0.04  -0.2  11.8004717541
-0.04  -0.18  11.946280297
-0.04  -0.16  12.5295942617
-0.04  -0.14  13.4398796672
-0.04  -0.12  14.5336892818
-0.04  -0.1  15.673924493
-0.04  -0.08  16.7468934801
-0.04  -0.06  17.6649251654
-0.04  -0.04  18.3638828248
-0.04  -0.02  18.8001316659
-0.04  6.17561557e-16  18.9483206513
-0.04  0.02  18.8001316659
-0.04  0.04  18.3638828248
-0.04  0.06  17.6649251654
-0.04  0.08  16.7468934801
-0.04  0.1  15.673924493
-0.04  0.12  14.5336892818
-0.04  0.14  13.4398796672
-0.04  0.16  12.5295942617
-0.04  0.18  11.946280297
-0.04  0.2  16.3907156631
-0.04  0.22  12.5589779237
-0.04  0.24  9.62300425005
-0.04  0.26  7.37338749692
-0.04  0.28  5.64967465118
-0.04  0.3  4.32892258511
-0.04  0.32  3.31692918706
-0.04  0.34  2.5415144336
-0.04  0.36  1.94737217827
-0.04  0.38  1.4921254629
-0.04  0.4  1.14330399801
-0.04  0.42  0.876028232461
-0.04  0.44  0.671234829408
-0.04  0.46  0.51431698148
-0.04  0.48  0.394082586078
-0.04  0.5  0.301955973149
-0.04  0.52  0.231366248958
-0.04  0.54  0.177278629724
-0.04  0.56  0.135835337688
-0.04  0.58  0.104080446659
-0.04  0.6  0.0797490517647
-0.04  0.62  0.0611057260179
-0.04  0.64  0.0468207416835
-0.04  0.66  0.0358752279803
-0.04  0.68  0.0274885005312
-0.04  0.7  0.0210623793629
-0.04  0.72  0.0161385239593
-0.04  0.74  0.0123657423075
-0.04  0.76  0.00947494226867
-0.04  0.78  0.00725993868885
-0.04  0.8  0.00556274732566
-0.04  0.82  0.00426231668549
-0.04  0.84  0.00326589407425
-0.04  0.86  0.00250241004863
-0.04  0.88  0.00191740941657
-0.04  0.9  0.0014691672425
-0.04  0.92  0.00112571283305
-0.04  0.94  0.000862549440135
-0.04  0.96  0.000660907040266
-0.04  0.98  0.000506403570101
-0.02  -1  0.000508015173336
-0.02  -0.98  0.000663010342823
-0.02  -0.96  0.000865294459226
-0.02  -0.94  0.00112929535606
-0.02  -0.92  0.00147384279145
-0.02  -0.9  0.00192351147311
-0.02  -0.88  0.0025103738395
-0.02  -0.86  0.00327628761364
-0.02  -0.84  0.00427588128843
-0.02  -0.82  0.00558045048202
-0.02  -0.8  0.00728304306915
-0.02  -0.78  0.00950509578359
-0.02  -0.76  0.0124050956444
-0.02  -0.74  0.0161898839792
-0.02  -0.72  0.0211294092985
-0.02  -0.7  0.0275759812659
-0.02  -0.68  0.0359893990424
-0.02  -0.66  0.0469697462782
-0.02  -0.64  0.0613001918383
-0.02  -0.62  0.0800028490073
-0.02  -0.6  0.104411677311
-0.02  -0.58  0.136267626642
-0.02  -0.56  0.177842809816
-0.02  -0.54  0.232102560108
-0.02  -0.52  0.302916932454
-0.02  -0.5  0.395336733576
-0.02  -0.48  0.515953768738
-0.02  -0.46  0.673370999621
-0.02  -0.44  0.878816147113
-0.02  -0.42  1.146942504
-0.02  -0.4  1.4968740752
-0.02  -0.38  1.95356958975
-0.02  -0.36  2.54960267215
-0.02  -0.34  3.32748514307
-0.02  -0.32  4.34269915789
-0.02  -0.3  5.66765444927
-0.02  -0.28  7.3968529222
-0.02  -0.26  9.65362896458
-0.02  -0.24  12.5989462229
-0.02  -0.22  16.44287827
-0.02  -0.2  15.4498018677
-0.02  -0.18  15.6407021254
-0.02  -0.16  16.4044076254
-0.02  -0.14  17.5962014325
-0.02  -0.12  19.0282748427
-0.02  -0.1  20.5211310999
-0.02  -0.08  21.9259188581
-0.02  -0.06  23.1278545046
-0.02  -0.04  24.0429668472
-0.02  -0.02  24.6141269076
-0.02  6.17561557e-16  24.8081437666
-0.02  0.02  24.6141269076
-0.02  0.04  24.0429668472
-0.02  0.06  23.1278545046
-0.02  0.08  21.9259188581
-0.02  0.1  20.5211310999
-0.02  0.12  19.0282748427
-0.02  0.14  17.5962014325
-0.02  0.16  16.4044076254
-0.02  0.18  15.6407021254
-0.02  0.2  21.4595920181
-0.02  0.22  16.44287827
-0.02  0.24  12.5989462229
-0.02  0.26  9.65362896459
-0.02  0.28  7.39685292221
-0.02  0.3  5.66765444927
-0.02  0.32  4.3426991579
-0.02  0.34  3.32748514307
-0.02  0.36  2.54960267216
-0.02  0.38  1.95356958976
-0.02  0.4  1.4968740752
-0.02  0.42  1.146942504
-0.02  0.44  0.878816147114
-0.02  0.46  0.673370999622
-0.02  0.48  0.515953768738
-0.02  0.5  0.395336733576
-0.02  0.52  0.302916932455
-0.02  0.54  0.232102560108
-0.02  0.56  0.177842809816
-0.02  0.58  0.136267626642
-0.02  0.6  0.104411677311
-0.02  0.62  0.0800028490074
-0.02  0.64  0.0613001918383
-0.02  0.66  0.0469697462783
-0.02  0.68  0.0359893990424
-0.02  0.7  0.0275759812659
-0.02  0.72  0.0211294092986
-0.02  0.74  0.0161898839792
-0.02  0.76  0.0124050956444
-0.02  0.78  0.0095050957836
-0.02  0.8  0.00728304306916
-0.02  0.82  0.00558045048202
-0.02  0.84  0.00427588128843
-0.02  0.86  0.00327628761364
-0.02  0.88  0.0025103738395
-0.02  0.9  0.00192351147311
-0.02  0.92  0.00147384279145
-0.02  0.94  0.00112929535606
-0.02  0.96  0.000865294459226
-0.02  0.98  0.000663010342823
2.8449465e-16  -1  0.000665120339032
2.8449465e-16  -0.98  0.000868048214199
2.8449465e-16  -0.96  0.00113288928026
2.8449465e-16  -0.94  0.00147853322009
2.8449465e-16  -0.92  0.00192963294913
2.8449465e-16  -0.9  0.00251836297473
2.8449465e-16  -0.88  0.00328671422993
2.8449465e-16  -0.86  0.00428948906002
2.8449465e-16  -0.84  0.00559820997776
2.8449465e-16  -0.82  0.00730622097797
2.8449465e-16  -0.8  0.00953534526053
2.8449465e-16  -0.78  0.0124445742213
2.8449465e-16  -0.76  0.0162414074496
2.8449465e-16  -0.74  0.0211966525535
2.8449465e-16  -0.72  0.0276637404035
2.8449465e-16  -0.7  0.036103933448
2.8449465e-16  -0.68  0.0471192250725
2.8449465e-16  -0.66  0.0614952765361
2.8449465e-16  -0.64  0.0802574539467
2.8449465e-16  -0.62  0.104743962087
2.8449465e-16  -0.6  0.136701291333
2.8449465e-16  -0.58  0.178408785383
2.8449465e-16  -0.56  0.23284121453
2.8449465e-16  -0.54  0.303880949964
2.8449465e-16  -0.52  0.396594872334
2.8449465e-16  -0.5  0.517595764987
2.8449465e-16  -0.48  0.675513968086
2.8449465e-16  -0.46  0.88161293416
2.8449465e-16  -0.44  1.15059258934
2.8449465e-16  -0.42  1.50163779972
2.8449465e-16  -0.4  1.95978672418
2.8449465e-16  -0.38  2.55771665112
2.8449465e-16  -0.36  3.33807469286
2.8449465e-16  -0.34  4.35651957391
2.8449465e-16  -0.32  5.68569146714
2.8449465e-16  -0.3  7.420393025
2.8449465e-16  -0.28  9.6843511407
2.8449465e-16  -0.26  12.6390417193
2.8449465e-16  -0.24  16.4952068818
2.8449465e-16  -0.22  21.5278860625
2.8449465e-16  -0.2  20.2276979028
2.8449465e-16  -0.18  20.4776346187
2.8449465e-16  -0.16  21.4775182595
2.8449465e-16  -0.14  23.0378777579
2.8449465e-16  -0.12  24.9128240234
2.8449465e-16  -0.1  26.8673504078
2.8449465e-16  -0.08  28.7065728544
2.8449465e-16  -0.06  30.2802105854
2.8449465e-16  -0.04  31.478324074
2.8449465e-16  -0.02  32.2261170395
2.8449465e-16  6.17561557e-16  32.4801341748
2.8449465e-16  0.02  32.2261170395
2.8449465e-16  0.04  31.478324074
2.8449465e-16  0.06  30.2802105854
2.8449465e-16  0.08  28.7065728544
2.8449465e-16  0.1  26.8673504078
2.8449465e-16  0.12  24.9128240234
2.8449465e-16  0.14  23.0378777579
2.8449465e-16  0.16  21.4775182595
2.8449465e-16  0.18  20.4776346187
2.8449465e-16  0.2  28.0960330867
2.8449465e-16  0.22  21.5278860626
2.8449465e-16  0.24  16.4952068818
2.8449465e-16  0.26  12.6390417193
2.8449465e-16  0.28  9.68435114071
2.8449465e-16  0.3  7.42039302501
2.8449465e-16  0.32  5.68569146715
2.8449465e-16  0.34  4.35651957391
2.8449465e-16  0.36  3.33807469286
2.8449465e-16  0.38  2.55771665112
2.8449465e-16  0.4  1.95978672418
2.8449465e-16  0.42  1.50163779972
2.8449465e-16  0.44  1.15059258935
2.8449465e-16  0.46  0.881612934161
2.8449465e-16  0.48  0.675513968087
2.8449465e-16  0.5  0.517595764988
2.8449465e-16  0.52  0.396594872334
2.8449465e-16  0.54  0.303880949964
2.8449465e-16  0.56  0.232841214531
2.8449465e-16  0.58  0.178408785383
2.8449465e-16  0.6  0.136701291333
2.8449465e-16  0.62  0.104743962087
2.8449465e-16  0.64  0.0802574539468
2.8449465e-16  0.66  0.0614952765362
2.8449465e-16  0.68  0.0471192250725
2.8449465e-16  0.7  0.036103933448
2.8449465e-16  0.72  0.0276637404035
2.8449465e-16  0.74  0.0211966525535
2.8449465e-16  0.76  0.0162414074496
2.8449465e-16  0.78  0.0124445742213
2.8449465e-16  0.8  0.00953534526053
2.8449465e-16  0.82  0.00730622097797
2.8449465e-16  0.84  0.00559820997777
2.8449465e-16  0.86  0.00428948906003
2.8449465e-16  0.88  0.00328671422994
2.8449465e-16  0.9  0.00251836297473
2.8449465e-16  0.92  0.00192963294913
2.8449465e-16  0.94  0.00147853322009
2.8449465e-16  0.96  0.00113288928026
2.8449465e-16  0.98  0.0008680482142
0.02  -1  0.000836704758864
0.02  -0.98  0.00109198295274
0.02  -0.96  0.00142514639297
0.02  -0.94  0.00185995782837
0.02  -0.92  0.00242743001026
0.02  -0.9  0.00316803766453
0.02  -0.88  0.00413460433523
0.02  -0.86  0.00539607000267
0.02  -0.84  0.00704240819989
0.02  -0.82  0.00919104333882
0.02  -0.8  0.0119952259594
0.02  -0.78  0.0156549632629
0.02  -0.76  0.0204312845455
0.02  -0.74  0.0266648590078
0.02  -0.72  0.0348002938495
0.02  -0.7  0.0454178456993
0.02  -0.68  0.0592748071867
0.02  -0.66  0.0773595205347
0.02  -0.64  0.100961870673
0.02  -0.62  0.131765285764
0.02  -0.6  0.17196680704
0.02  -0.58  0.224433791891
0.02  -0.56  0.292908426978
0.02  -0.54  0.382274638199
0.02  -0.52  0.498906434745
0.02  -0.5  0.651122532748
0.02  -0.48  0.849779684379
0.02  -0.46  1.10904703134
0.02  -0.44  1.44741671322
0.02  -0.42  1.88902281193
0.02  -0.4  2.46536270544
0.02  -0.38  3.21754360561
0.02  -0.36  4.19921451361
0.02  -0.34  5.48039271341
0.02  -0.32  7.15245772654
0.02  -0.3  9.33466891975
0.02  -0.28  12.1826716316
0.02  -0.26  15.8995985138
0.02  -0.24  20.7505578863
0.02  -0.22  27.0815424815
0.02  -0.2  25.4459382805
0.02  -0.18  25.7603524209
0.02  -0.16  27.0181810445
0.02  -0.14  28.9810742853
0.02  -0.12  31.3397098147
0.02  -0.1  33.7984551442
0.02  -0.08  36.1121510024
0.02  -0.06  38.091747928
0.02  -0.04  39.5989447445
0.02  -0.02  40.5396496006
0.02  6.17561557e-16  40.8591968066
0.02  0.02  40.5396496006
0.02  0.04  39.5989447445
0.02  0.06  38.091747928
0.02  0.08  36.1121510024
0.02  0.1  33.7984551442
0.02  0.12  31.3397098147
0.02  0.14  28.9810742853
0.02  0.16  27.0181810445
0.02  0.18  25.7603524209
0.02  0.2  35.3441072379
0.02  0.22  27.0815424815
0.02  0.24  20.7505578863
0.02  0.26  15.8995985138
0.02  0.28  12.1826716316
0.02  0.3  9.33466891976
0.02  0.32  7.15245772654
0.02  0.34  5.48039271342
0.02  0.36  4.19921451361
0.02  0.38  3.21754360561
0.02  0.4  2.46536270545
0.02  0.42  1.88902281194
0.02  0.44  1.44741671322
0.02  0.46  1.10904703134
0.02  0.48  0.849779684379
0.02  0.5  0.651122532748
0.02  0.52  0.498906434745
0.02  0.54  0.3822746382
0.02  0.56  0.292908426979
0.02  0.58  0.224433791892
0.02  0.6  0.171966807041
0.02  0.62  0.131765285764
0.02  0.64  0.100961870673
0.02  0.66  0.0773595205348
0.02  0.68  0.0592748071868
0.02  0.7  0.0454178456994
0.02  0.72  0.0348002938495
0.02  0.74  0.0266648590078
0.02  0.76  0.0204312845455
0.02  0.78  0.015654963263
0.02  0.8  0.0119952259594
0.02  0.82  0.00919104333883
0.02  0.84  0.00704240819989
0.02  0.86  0.00539607000267
0.02  0.88  0.00413460433523
0.02  0.9  0.00316803766453
0.02  0.92  0.00242743001026
0.02  0.94  0.00185995782837
0.02  0.96  0.00142514639297
0.02  0.98  0.00109198295274
0.04  -1  0.0009906601771
0.04  -0.98  0.00129291009032
0.04  -0.96  0.00168737629743
0.04  -0.94  0.00220219394252
0.04  -0.92  0.00287408218776
0.04  -0.9  0.00375096319288
0.04  -0.88  0.00489538014406
0.04  -0.86  0.00638895812156
0.04  -0.84  0.0083382259759
0.04  -0.82  0.0108822144554
0.04  -0.8  0.0142023725184
0.04  -0.78  0.0185355091079
0.04  -0.76  0.0241906834541
0.04  -0.74  0.0315712486002
0.04  -0.72  0.0412036203964
0.04  -0.7  0.0537748238998
0.04  -0.68  0.0701814951608
0.04  -0.66  0.0915938334299
0.04  -0.64  0.119539065151
0.04  -0.62  0.156010372772
0.04  -0.6  0.203609057691
0.04  -0.58  0.265730077028
0.04  -0.56  0.346804187583
0.04  -0.54  0.452613967792
0.04  -0.52  0.590706257811
0.04  -0.5  0.770930434867
0.04  -0.48  1.00614091614
0.04  -0.46  1.31311399492
0.04  -0.44  1.71374440299
0.04  -0.42  2.2366069436
0.04  -0.4  2.91899457786
0.04  -0.38  3.80957833022
0.04  -0.36  4.97187872982
0.04  -0.34  6.4887963867
0.04  -0.32  8.46852484465
0.04  -0.3  11.0522674423
0.04  -0.28  14.4243085847
0.04  -0.26  18.8251577545
0.04  -0.24  24.5687037545
0.04  -0.22  32.0646027009
0.04  -0.2  30.1280439204
0.04  -0.18  30.5003109175
0.04  -0.16  31.9895826274
0.04  -0.14  34.3136523127
0.04  -0.12  37.1062816919
0.04  -0.1  40.0174412828
0.04  -0.08  42.7568619977
0.04  -0.06  45.1007088804
0.04  -0.04  46.8852330502
0.04  -0.02  47.9990295591
0.04  6.17561557e-16  48.3773741165
0.04  0.02  47.9990295591
0.04  0.04  46.8852330502
0.04  0.06  45.1007088804
0.04  0.08  42.7568619977
0.04  0.1  40.0174412828
0.04  0.12  37.1062816919
0.04  0.14  34.3136523127
0.04  0.16  31.9895826274
0.04  0.18  30.5003109175
0.04  0.2  41.8474965809
0.04  0.22  32.0646027009
0.04  0.24  24.5687037546
0.04  0.26  18.8251577545
0.04  0.28  14.4243085847
0.04  0.3  11.0522674423
0.04  0.32  8.46852484466
0.04  0.34  6.48879638671
0.04  0.36  4.97187872982
0.04  0.38  3.80957833023
0.04  0.4  2.91899457786
0.04  0.42  2.2366069436
0.04  0.44  1.71374440299
0.04  0.46  1.31311399492
0.04  0.48  1.00614091614
0.04  0.5  0.770930434867
0.04  0.52  0.590706257811
0.04  0.54  0.452613967792
0.04  0.56  0.346804187583
0.04  0.58  0.265730077028
0.04  0.6  0.203609057692
0.04  0.62  0.156010372773
0.04  0.64  0.119539065151
0.04  0.66  0.09159383343
0.04  0.68  0.0701814951608
0.04  0.7  0.0537748238999
0.04  0.72  0.0412036203964
0.04  0.74  0.0315712486002
0.04  0.76  0.0241906834541
0.04  0.78  0.0185355091079
0.04  0.8  0.0142023725184
0.04  0.82  0.0108822144554
0.04  0.84  0.0083382259759
0.04  0.86  0.00638895812157
0.04  0.88  0.00489538014406
0.04  0.9  0.00375096319288
0.04  0.92  0.00287408218776
0.04  0.94  0.00220219394252
0.04  0.96  0.00168737629743
0.04  0.98  0.00129291009032
0.06  -1  0.00112374282073
0.06  -0.98  0.00146659618044
0.06  -0.96  0.00191405392479
0.06  -0.94  0.00249803079802
0.06  -0.92  0.00326017871652
0.06  -0.9  0.00425485757505
0.06  -0.88  0.00555301244443
0.06  -0.86  0.00724723370034
0.06  -0.84  0.00945836099467
0.06  -0.82  0.0123441020953
0.06  -0.8  0.0161102813294
0.06  -0.78  0.0210255199211
0.06  -0.76  0.0274403952925
0.06  -0.74  0.0358124458579
0.06  -0.72  0.0467388047677
0.06  -0.7  0.0609987901911
0.06  -0.68  0.0796094898718
0.06  -0.66  0.103898304504
0.06  -0.64  0.135597624054
0.06  -0.62  0.176968389782
0.06  -0.6  0.230961354969
0.06  -0.58  0.301427546212
0.06  -0.56  0.393392936352
0.06  -0.54  0.513416919976
0.06  -0.52  0.670060159599
0.06  -0.5  0.874495171494
0.06  -0.48  1.14130320093
0.06  -0.46  1.48951422365
0.06  -0.44  1.94396425126
0.06  -0.42  2.5370667498
0.06  -0.4  3.31112451722
0.06  -0.38  4.32134691347
0.06  -0.36  5.63978764599
0.06  -0.34  7.3604839715
0.06  -0.32  9.60616386563
0.06  -0.3  12.5369995466
0.06  -0.28  16.3620316944
0.06  -0.26  21.3540791936
0.06  -0.24  27.869197831
0.06  -0.22  36.3720758315
0.06  -0.2  34.1753649141
0.06  -0.18  34.5976412658
0.06  -0.16  36.2869777617
0.06  -0.14  38.9232567644
0.06  -0.12  42.0910405195
0.06  -0.1  45.3932775185
0.06  -0.08  48.5007046994
0.06  -0.06  51.1594177155
0.06  -0.04  53.1836700984
0.06  -0.02  54.4470910571
0.06  6.17561557e-16  54.8762614123
0.06  0.02  54.4470910571
0.06  0.04  53.1836700984
0.06  0.06  51.1594177154
0.06  0.08  48.5007046994
0.06  0.1  45.3932775185
0.06  0.12  42.0910405195
0.06  0.14  38.9232567644
0.06  0.16  36.2869777617
0.06  0.18  34.5976412658
0.06  0.2  47.46917756
0.06  0.22  36.3720758315
0.06  0.24  27.869197831
0.06  0.26  21.3540791936
0.06  0.28  16.3620316944
0.06  0.3  12.5369995466
0.06  0.32  9.60616386564
0.06  0.34  7.36048397151
0.06  0.36  5.639787646
0.06  0.38  4.32134691347
0.06  0.4  3.31112451722
0.06  0.42  2.5370667498
0.06  0.44  1.94396425126
0.06  0.46  1.48951422365
0.06  0.48  1.14130320093
0.06  0.5  0.874495171495
0.06  0.52  0.6700601596
0.06  0.54  0.513416919976
0.06  0.56  0.393392936352
0.06  0.58  0.301427546212
0.06  0.6  0.230961354969
0.06  0.62  0.176968389782
0.06  0.64  0.135597624054
0.06  0.66  0.103898304504
0.06  0.68  0.0796094898718
0.06  0.7  0.0609987901911
0.06  0.72  0.0467388047678
0.06  0.74  0.0358124458579
0.06  0.76  0.0274403952925
0.06  0.78  0.0210255199211
0.06  0.8  0.0161102813294
0.06  0.82  0.0123441020953
0.06  0.84  0.00945836099468
0.06  0.86  0.00724723370035
0.06  0.88  0.00555301244444
0.06  0.9  0.00425485757505
0.06  0.92  0.00326017871652
0.06  0.94  0.00249803079802
0.06  0.96  0.00191405392479
0.06  0.98  0.00146659618044
0.08  -1  0.00123314869694
0.08  -0.98  0.00160938173351
0.08  -0.96  0.00210040327705
0.08  -0.94  0.00274123524232
0.08  -0.92  0.00357758471236
0.08  -0.9  0.00466910397782
0.08  -0.88  0.00609364521277
0.08  -0.86  0.00795281324972
0.08  -0.84  0.0103792125036
0.08  -0.82  0.0135459049285
0.08  -0.8  0.0176787535922
0.08  -0.78  0.0230725322688
0.08  -0.76  0.0301119500603
0.08  -0.74  0.0392990906186
0.08  -0.72  0.0512892230611
0.08  -0.7  0.0669375387778
0.08  -0.68  0.0873601476141
0.08  -0.66  0.114013683958
0.08  -0.64  0.148799200605
0.08  -0.62  0.194197760585
0.08  -0.6  0.253447397989
0.08  -0.58  0.330774069453
0.08  -0.56  0.431693068822
0.08  -0.54  0.563402403267
0.08  -0.52  0.735296188271
0.08  -0.5  0.959634679139
0.08  -0.48  1.2524187288
0.08  -0.46  1.63453104223
0.08  -0.44  2.133225627
0.08  -0.42  2.78407167445
0.08  -0.4  3.63349051801
0.08  -0.38  4.74206661618
0.08  -0.36  6.18886871477
0.08  -0.34  8.07708939345
0.08  -0.32  10.5414052352
0.08  -0.3  13.7575825795
0.08  -0.28  17.9550139863
0.08  -0.26  23.4330795678
0.08  -0.24  30.5825001557
0.08  -0.22  39.9132053074
0.08  -0.2  37.5026259868
0.08  -0.18  37.9660145159
0.08  -0.16  39.8198222201
0.08  -0.14  42.7127653001
0.08  -0.12  46.1889596194
0.08  -0.1  49.8126973441
0.08  -0.08  53.2226588658
0.08  -0.06  56.1402201003
0.08  -0.04  58.3615505883
0.08  -0.02  59.7479762722
0.08  6.17561557e-16  60.2189299945
0.08  0.02  59.7479762722
0.08  0.04  58.3615505883
0.08  0.06  56.1402201003
0.08  0.08  53.2226588658
0.08  0.1  49.8126973441
0.08  0.12  46.1889596194
0.08  0.14  42.7127653001
0.08  0.16  39.8198222201
0.08  0.18  37.9660145159
0.08  0.2  52.0907038274
0.08  0.22  39.9132053074
0.08  0.24  30.5825001557
0.08  0.26  23.4330795678
0.08  0.28  17.9550139863
0.08  0.3  13.7575825796
0.08  0.32  10.5414052352
0.08  0.34  8.07708939346
0.08  0.36  6.18886871477
0.08  0.38  4.74206661618
0.08  0.4  3.63349051801
0.08  0.42  2.78407167445
0.08  0.44  2.133225627
0.08  0.46  1.63453104223
0.08  0.48  1.2524187288
0.08  0.5  0.95963467914
0.08  0.52  0.735296188272
0.08  0.54  0.563402403268
0.08  0.56  0.431693068822
0.08  0.58  0.330774069454
0.08  0.6  0.253447397989
0.08  0.62  0.194197760585
0.08  0.64  0.148799200605
0.08  0.66  0.114013683958
0.08  0.68  0.0873601476141
0.08  0.7  0.0669375387778
0.08  0.72  0.0512892230611
0.08  0.74  0.0392990906186
0.08  0.76  0.0301119500603
0.08  0.78  0.0230725322688
0.08  0.8  0.0176787535922
0.08  0.82  0.0135459049285
0.08  0.84  0.0103792125036
0.08  0.86  0.00795281324972
0.08  0.88  0.00609364521278
0.08  0.9  0.00466910397783
0.08  0.92  0.00357758471236
0.08  0.94  0.00274123524232
0.08  0.96  0.00210040327705
0.08  0.98  0.00160938173351
0.1  -1  0.00131657267199
0.1  -0.98  0.00171825832066
0.1  -0.96  0.00224249805524
0.1  -0.94  0.00292668306465
0.1  -0.92  0.0038196125704
0.1  -0.9  0.00498497441154
0.1  -0.88  0.00650588755422
0.1  -0.86  0.00849083051864
0.1  -0.84  0.011081378566
0.1  -0.82  0.0144623014973
0.1  -0.8  0.0188747422854
0.1  -0.78  0.0246334165004
0.1  -0.76  0.0321490592724
0.1  -0.74  0.0419577208091
0.1  -0.72  0.0547589999627
0.1  -0.7  0.0714659428369
0.1  -0.68  0.0932701654349
0.1  -0.66  0.121726845193
0.1  -0.64  0.158865643386
0.1  -0.62  0.207335469909
0.1  -0.6  0.270593415706
0.1  -0.58  0.353151328404
0.1  -0.56  0.46089761803
0.1  -0.54  0.601517245499
0.1  -0.52  0.785039849368
0.1  -0.5  1.02455510579
0.1  -0.48  1.33714634441
0.1  -0.46  1.74510901001
0.1  -0.44  2.27754087618
0.1  -0.42  2.97241743233
0.1  -0.4  3.87930047026
0.1  -0.38  5.06287305911
0.1  -0.36  6.6075530393
0.1  -0.34  8.62351409121
0.1  -0.32  11.2545438287
0.1  -0.3  14.6882993931
0.1  -0.28  19.1696920235
0.1  -0.26  25.0183552527
0.1  -0.24  32.6514426411
0.1  -0.22  42.6133810866
0.1  -0.2  40.0397232097
0.1  -0.18  40.5344605237
0.1  -0.16  42.5136805225
0.1  -0.14  45.6023346403
0.1  -0.12  49.3136976371
0.1  -0.1  53.182585526
0.1  -0.08  56.8232349976
0.1  -0.06  59.9381727174
0.1  -0.04  62.3097788531
0.1  -0.02  63.7899978825
0.1  6.17561557e-16  64.2928121839
0.1  0.02  63.7899978825
0.1  0.04  62.3097788531
0.1  0.06  59.9381727174
0.1  0.08  56.8232349976
0.1  0.1  53.182585526
0.1  0.12  49.3136976371
0.1  0.14  45.6023346403
0.1  0.16  42.5136805225
0.1  0.18  40.5344605237
0.1  0.2  55.6147018554
0.1  0.22  42.6133810866
0.1  0.24  32.6514426411
0.1  0.26  25.0183552527
0.1  0.28  19.1696920235
0.1  0.3  14.6882993931
0.1  0.32  11.2545438287
0.1  0.34  8.62351409122
0.1  0.36  6.60755303931
0.1  0.38  5.06287305911
0.1  0.4  3.87930047026
0.1  0.42  2.97241743233
0.1  0.44  2.27754087618
0.1  0.46  1.74510901001
0.1  0.48  1.33714634441
0.1  0.5  1.02455510579
0.1  0.52  0.785039849369
0.1  0.54  0.601517245499
0.1  0.56  0.460897618031
0.1  0.58  0.353151328405
0.1  0.6  0.270593415706
0.1  0.62  0.207335469909
0.1  0.64  0.158865643386
0.1  0.66  0.121726845193
0.1  0.68  0.093270165435
0.1  0.7  0.071465942837
0.1  0.72  0.0547589999627
0.1  0.74  0.0419577208092
0.1  0.76  0.0321490592724
0.1  0.78  0.0246334165004
0.1  0.8  0.0188747422854
0.1  0.82  0.0144623014974
0.1  0.84  0.011081378566
0.1  0.86  0.00849083051865
0.1  0.88  0.00650588755422
0.1  0.9  0.00498497441154
0.1  0.92  0.00381961257041
0.1  0.94  0.00292668306465
0.1  0.96  0.00224249805525
0.1  0.98  0.00171825832066
0.12  -1  0.00137225703938
0.12  -0.98  0.00179093196006
0.12  -0.96  0.00233734438484
0.12  -0.94  0.00305046696088
0.12  -0.92  0.00398116287005
0.12  -0.9  0.00519581362496
0.12  -0.88  0.00678105370379
0.12  -0.86  0.00884994971967
0.12  -0.84  0.0115500648516
0.12  -0.82  0.0150739837288
0.12  -0.8  0.0196730484527
0.12  -0.78  0.0256752854711
0.12  -0.76  0.033508801933
0.12  -0.74  0.0437323202598
0.12  -0.72  0.0570750287979
0.12  -0.7  0.0744885908849
0.12  -0.68  0.0972150218559
0.12  -0.66  0.12687527529
0.12  -0.64  0.165584856872
0.12  -0.62  0.216104711991
0.12  -0.6  0.282038149062
0.12  -0.58  0.368087844052
0.12  -0.56  0.48039125696
0.12  -0.54  0.626958383693
0.12  -0.52  0.81824306581
0.12  -0.5  1.06788860658
0.12  -0.48  1.39370087412
0.12  -0.46  1.81891829781
0.12  -0.44  2.37386933992
0.12  -0.42  3.09813566108
0.12  -0.4  4.04337526628
0.12  -0.38  5.27700699146
0.12  -0.36  6.88701912487
0.12  -0.34  8.98824513651
0.12  -0.32  11.7305541293
0.12  -0.3  15.3095401929
0.12  -0.28  19.9804730735
0.12  -0.26  26.0765051863
0.12  -0.24  34.0324335781
0.12  -0.22  44.415711652
0.12  -0.2  41.7332010594
0.12  -0.18  42.2488632603
0.12  -0.16  44.3117942581
0.12  -0.14  47.5310828288
0.12  -0.12  51.3994177155
0.12  -0.1  55.4319400009
0.12  -0.08  59.2265705379
0.12  -0.06  62.473254374
0.12  -0.04  64.9451674584
0.12  -0.02  66.4879922687
0.12  6.17561557e-16  67.0120730728
0.12  0.02  66.4879922687
0.12  0.04  64.9451674584
0.12  0.06  62.473254374
0.12  0.08  59.2265705379
0.12  0.1  55.4319400009
0.12  0.12  51.3994177155
0.12  0.14  47.5310828288
0.12  0.16  44.3117942581
0.12  0.18  42.2488632603
0.12  0.2  57.9669225542
0.12  0.22  44.415711652
0.12  0.24  34.0324335781
0.12  0.26  26.0765051863
0.12  0.28  19.9804730735
0.12  0.3  15.3095401929
0.12  0.32  11.7305541293
0.12  0.34  8.98824513652
0.12  0.36  6.88701912487
0.12  0.38  5.27700699146
0.12  0.4  4.04337526629
0.12  0.42  3.09813566108
0.12  0.44  2.37386933992
0.12  0.46  1.81891829781
0.12  0.48  1.39370087412
0.12  0.5  1.06788860658
0.12  0.52  0.818243065811
0.12  0.54  0.626958383694
0.12  0.56  0.480391256961
0.12  0.58  0.368087844052
0.12  0.6  0.282038149062
0.12  0.62  0.216104711991
0.12  0.64  0.165584856872
0.12  0.66  0.12687527529
0.12  0.68  0.097215021856
0.12  0.7  0.0744885908849
0.12  0.72  0.0570750287979
0.12  0.74  0.0437323202598
0.12  0.76  0.033508801933
0.12  0.78  0.0256752854711
0.12  0.8  0.0196730484528
0.12  0.82  0.0150739837288
0.12  0.84  0.0115500648516
0.12  0.86  0.00884994971968
0.12  0.88  0.0067810537038
0.12  0.9  0.00519581362497
0.12  0.92  0.00398116287005
0.12  0.94  0.00305046696089
0.12  0.96  0.00233734438484
0.12  0.98  0.00179093196006
0.14  -1  0.00139902855397
0.14  -0.98  0.00182587145005
0.14  -0.96  0.00238294389535
0.14  -0.94  0.00310997885872
0.14  -0.92  0.00405883181747
0.14  -0.9  0.00529717932851
0.14  -0.88  0.00691334603163
0.14  -0.86  0.00902260436906
0.14  -0.84  0.0117753963461
0.14  -0.82  0.0153680637471
0.14  -0.8  0.0200568521342
0.14  -0.78  0.0261761874594
0.14  -0.76  0.0341625288616
0.14  -0.74  0.04458549894
0.14  -0.72  0.0581885118569
0.14  -0.7  0.0759417970555
0.14  -0.68  0.0991116004858
0.14  -0.66  0.129350499089
0.14  -0.64  0.168815270186
0.14  -0.62  0.220320722755
0.14  -0.6  0.287540462553
0.14  -0.58  0.375268910574
0.14  -0.56  0.489763263205
0.14  -0.54  0.639189784249
0.14  -0.52  0.834206260418
0.14  -0.5  1.0887221637
0.14  -0.48  1.42089073886
0.14  -0.46  1.85440377636
0.14  -0.44  2.42018141983
0.14  -0.42  3.15857753287
0.14  -0.4  4.12225792224
0.14  -0.38  5.37995670539
0.14  -0.36  7.02137874385
0.14  -0.34  9.1635978065
0.14  -0.32  11.9594068092
0.14  -0.3  15.6082157084
0.14  -0.28  20.3702743359
0.14  -0.26  26.5852346145
0.14  -0.24  34.6963760945
0.14  -0.22  45.2822226905
0.14  -0.2  42.5473787016
0.14  -0.18  43.0731010136
0.14  -0.16  45.1762779607
0.14  -0.14  48.4583719887
0.14  -0.12  52.4021746493
0.14  -0.1  56.5133678586
0.14  -0.08  60.382028263
0.14  -0.06  63.6920520137
0.14  -0.04  66.2121899243
0.14  -0.02  67.7851138747
0.14  6.17561557e-16  68.3194190292
0.14  0.02  67.7851138747
0.14  0.04  66.2121899243
0.14  0.06  63.6920520137
0.14  0.08  60.382028263
0.14  0.1  56.5133678586
0.14  0.12  52.4021746492
0.14  0.14  48.4583719887
0.14  0.16  45.1762779607
0.14  0.18  43.0731010136
0.14  0.2  59.0978056673
0.14  0.22  45.2822226905
0.14  0.24  34.6963760945
0.14  0.26  26.5852346145
0.14  0.28  20.3702743359
0.14  0.3  15.6082157084
0.14  0.32  11.9594068092
0.14  0.34  9.16359780651
0.14  0.36  7.02137874385
0.14  0.38  5.37995670539
0.14  0.4  4.12225792224
0.14  0.42  3.15857753287
0.14  0.44  2.42018141983
0.14  0.46  1.85440377636
0.14  0.48  1.42089073886
0.14  0.5  1.0887221637
0.14  0.52  0.834206260418
0.14  0.54  0.639189784249
0.14  0.56  0.489763263205
0.14  0.58  0.375268910574
0.14  0.6  0.287540462553
0.14  0.62  0.220320722755
0.14  0.64  0.168815270186
0.14  0.66  0.129350499089
0.14  0.68  0.0991116004859
0.14  0.7  0.0759417970556
0.14  0.72  0.0581885118569
0.14  0.74  0.04458549894
0.14  0.76  0.0341625288616
0.14  0.78  0.0261761874594
0.14  0.8  0.0200568521342
0.14  0.82  0.0153680637471
0.14  0.84  0.0117753963462
0.14  0.86  0.00902260436906
0.14  0.88  0.00691334603164
0.14  0.9  0.00529717932851
0.14  0.92  0.00405883181748
0.14  0.94  0.00310997885872
0.14  0.96  0.00238294389535
0.14  0.98  0.00182587145005
0.16  -1  0.0013963231517
0.16  -0.98  0.00182234063093
0.16  -0.96  0.00237833582513
0.16  -0.94  0.00310396486863
0.16  -0.92  0.00405098296208
0.16  -0.9  0.00528693579135
0.16  -0.88  0.00689997719653
0.16  -0.86  0.0090051567092
0.16  -0.84  0.0117526254142
0.16  -0.82  0.0153383454155
0.16  -0.8  0.0200180667548
0.16  -0.78  0.0261255686805
0.16  -0.76  0.0340964663193
0.16  -0.74  0.0444992807497
0.16  -0.72  0.0580759885409
0.16  -0.7  0.0757949429334
0.16  -0.68  0.0989199412462
0.16  -0.66  0.129100364714
0.16  -0.64  0.168488819941
0.16  -0.62  0.219894672707
0.16  -0.6  0.286984424853
0.16  -0.58  0.374543226056
0.16  -0.56  0.488816172711
0.16  -0.54  0.63795373693
0.16  -0.52  0.832593095694
0.16  -0.5  1.08661682324
0.16  -0.48  1.41814306011
0.16  -0.46  1.85081778223
0.16  -0.44  2.41550134072
0.16  -0.42  3.15246956402
0.16  -0.4  4.11428641522
0.16  -0.38  5.36955309566
0.16  -0.36  7.00780099811
0.16  -0.34  9.14587749749
0.16  -0.32  11.936280043
0.16  -0.3  15.5780329776
0.16  -0.28  20.3308828694
0.16  -0.26  26.5338248317
0.16  -0.24  34.6292812133
0.16  -0.22  45.1946571954
0.16  -0.2  42.4651017713
0.16  -0.18  42.9898074561
0.16  -0.16  45.0889173385
0.16  -0.14  48.3646645449
0.16  -0.12  52.3008407903
0.16  -0.1  56.4040838892
0.16  -0.08  60.2652631864
0.16  -0.06  63.5688861058
0.16  -0.04  66.0841506442
0.16  -0.02  67.6540329183
0.16  6.17561557e-16  68.1873048485
0.16  0.02  67.6540329183
0.16  0.04  66.0841506442
0.16  0.06  63.5688861058
0.16  0.08  60.2652631864
0.16  0.1  56.4040838892
0.16  0.12  52.3008407903
0.16  0.14  48.3646645449
0.16  0.16  45.0889173385
0.16  0.18  42.9898074561
0.16  0.2  58.9835239844
0.16  0.22  45.1946571954
0.16  0.24  34.6292812134
0.16  0.26  26.5338248317
0.16  0.28  20.3308828694
0.16  0.3  15.5780329776
0.16  0.32  11.936280043
0.16  0.34  9.14587749749
0.16  0.36  7.00780099812
0.16  0.38  5.36955309566
0.16  0.4  4.11428641522
0.16  0.42  3.15246956402
0.16  0.44  2.41550134072
0.16  0.46  1.85081778223
0.16  0.48  1.41814306011
0.16  0.5  1.08661682324
0.16  0.52  0.832593095695
0.16  0.54  0.637953736931
0.16  0.56  0.488816172712
0.16  0.58  0.374543226056
0.16  0.6  0.286984424853
0.16  0.62  0.219894672707
0.16  0.64  0.168488819941
0.16  0.66  0.129100364714
0.16  0.68  0.0989199412462
0.16  0.7  0.0757949429335
0.16  0.72  0.0580759885409
0.16  0.74  0.0444992807498
0.16  0.76  0.0340964663193
0.16  0.78  0.0261255686805
0.16  0.8  0.0200180667548
0.16  0.82  0.0153383454155
0.16  0.84  0.0117526254142
0.16  0.86  0.00900515670921
0.16  0.88  0.00689997719653
0.16  0.9  0.00528693579136
0.16  0.92  0.00405098296208
0.16  0.94  0.00310396486863
0.16  0.96  0.00237833582513
0.16  0.98  0.00182234063093
0.18  -1  0.00136419783421
0.18  -0.98  0.00178041389551
0.18  -0.96  0.00232361726418
0.18  -0.94  0.00303255170274
0.18  -0.92  0.00395778167581
0.18  -0.9  0.00516529884032
0.18  -0.88  0.00674122887396
0.18  -0.86  0.00879797435464
0.18  -0.84  0.0114822318292
0.18  -0.82  0.0149854548861
0.18  -0.8  0.0195575095054
0.18  -0.78  0.02552449565
0.18  -0.76  0.0333120062146
0.18  -0.74  0.0434754822685
0.18  -0.72  0.0567398296668
0.18  -0.7  0.0740511226704
0.18  -0.68  0.096644082313
0.18  -0.66  0.126130142384
0.18  -0.64  0.164612384298
0.18  -0.62  0.214835538533
0.18  -0.6  0.280381751431
0.18  -0.58  0.365926080351
0.18  -0.56  0.47756994026
0.18  -0.54  0.623276284711
0.18  -0.52  0.813437560313
0.18  -0.5  1.06161694381
0.18  -0.48  1.38551573026
0.18  -0.46  1.80823587073
0.18  -0.44  2.35992770981
0.18  -0.42  3.07994044675
0.18  -0.4  4.01962870138
0.18  -0.38  5.24601536175
0.18  -0.36  6.84657196479
0.18  -0.34  8.93545756858
0.18  -0.32  11.6616611014
0.18  -0.3  15.2196279374
0.18  -0.28  19.8631286349
0.18  -0.26  25.9233590195
0.18  -0.24  33.8325625942
0.18  -0.22  44.1548601331
0.18  -0.2  41.4881038071
0.18  -0.18  42.0007375467
0.18  -0.16  44.0515530415
0.18  -0.14  47.2519348722
0.18  -0.12  51.0975511985
0.18  -0.1  55.106390658
0.18  -0.08  58.8787354969
0.18  -0.06  62.1063517018
0.18  -0.04  64.5637473495
0.18  -0.02  66.0975112176
0.18  6.17561557e-16  66.6185141182
0.18  0.02  66.0975112176
0.18  0.04  64.5637473495
0.18  0.06  62.1063517018
0.18  0.08  58.8787354969
0.18  0.1  55.106390658
0.18  0.12  51.0975511985
0.18  0.14  47.2519348722
0.18  0.16  44.0515530415
0.18  0.18  42.0007375467
0.18  0.2  57.6264853704
0.18  0.22  44.1548601331
0.18  0.24  33.8325625942
0.18  0.26  25.9233590196
0.18  0.28  19.8631286349
0.18  0.3  15.2196279375
0.18  0.32  11.6616611014
0.18  0.34  8.93545756859
0.18  0.36  6.84657196479
0.18  0.38  5.24601536175
0.18  0.4  4.01962870138
0.18  0.42  3.07994044675
0.18  0.44  2.35992770981
0.18  0.46  1.80823587074
0.18  0.48  1.38551573026
0.18  0.5  1.06161694381
0.18  0.52  0.813437560313
0.18  0.54  0.623276284712
0.18  0.56  0.47756994026
0.18  0.58  0.365926080351
0.18  0.6  0.280381751431
0.18  0.62  0.214835538533
0.18  0.64  0.164612384298
0.18  0.66  0.126130142384
0.18  0.68  0.0966440823131
0.18  0.7  0.0740511226704
0.18  0.72  0.0567398296668
0.18  0.74  0.0434754822685
0.18  0.76  0.0333120062146
0.18  0.78  0.02552449565
0.18  0.8  0.0195575095054
0.18  0.82  0.0149854548861
0.18  0.84  0.0114822318293
0.18  0.86  0.00879797435464
0.18  0.88  0.00674122887397
0.18  0.9  0.00516529884032
0.18  0.92  0.00395778167581
0.18  0.94  0.00303255170274
0.18  0.96  0.00232361726418
0.18  0.98  0.00178041389551
0.2  -1  0.00130332946783
0.2  -0.98  0.00170097462169
0.2  -0.96  0.00221994110855
0.2  -0.94  0.00289724400506
0.2  -0.92  0.0037811916688
0.2  -0.9  0.00493483131251
0.2  -0.88  0.00644044582133
0.2  -0.86  0.00840542254653
0.2  -0.84  0.0109699126653
0.2  -0.82  0.0143168274074
0.2  -0.8  0.0186848841249
0.2  -0.78  0.0243856327124
0.2  -0.76  0.0318256767774
0.2  -0.74  0.0415356744803
0.2  -0.72  0.0542081875149
0.2  -0.7  0.0707470777931
0.2  -0.68  0.092331975034
0.2  -0.66  0.12050241338
0.2  -0.64  0.157267638054
0.2  -0.62  0.205249913968
0.2  -0.6  0.267871557715
0.2  -0.58  0.349599032932
0.2  -0.56  0.456261519027
0.2  -0.54  0.595466675061
0.2  -0.52  0.777143252985
0.2  -0.5  1.01424926189
0.2  -0.48  1.32369619281
0.2  -0.46  1.72755522404
0.2  -0.44  2.25463143909
0.2  -0.42  2.94251833769
0.2  -0.4  3.84027917715
0.2  -0.38  5.01194638944
0.2  -0.36  6.54108866877
0.2  -0.34  8.53677147523
0.2  -0.32  11.141336085
0.2  -0.3  14.5405520246
0.2  -0.28  18.9768670085
0.2  -0.26  24.7666994244
0.2  -0.24  32.3230067482
0.2  -0.22  42.1847395709
0.2  -0.2  39.6369697269
0.2  -0.18  40.1267305535
0.2  -0.16  42.0860418795
0.2  -0.14  45.1436276956
0.2  -0.12  48.8176586568
0.2  -0.1  52.6476299911
0.2  -0.08  56.2516587237
0.2  -0.06  59.335263759
0.2  -0.04  61.6830142695
0.2  -0.02  63.1483440009
0.2  6.17561557e-16  63.6461005697
0.2  0.02  63.1483440009
0.2  0.04  61.6830142695
0.2  0.06  59.335263759
0.2  0.08  56.2516587237
0.2  0.1  52.6476299911
0.2  0.12  48.8176586568
0.2  0.14  45.1436276956
0.2  0.16  42.0860418795
0.2  0.18  40.1267305535
0.2  0.2  55.0552820325
0.2  0.22  42.1847395709
0.2  0.24  32.3230067483
0.2  0.26  24.7666994244
0.2  0.28  18.9768670085
0.2  0.3  14.5405520247
0.2  0.32  11.141336085
0.2  0.34  8.53677147524
0.2  0.36  6.54108866878
0.2  0.38  5.01194638944
0.2  0.4  3.84027917715
0.2  0.42  2.9425183377
0.2  0.44  2.25463143909
0.2  0.46  1.72755522404
0.2  0.48  1.32369619281
0.2  0.5  1.01424926189
0.2  0.52  0.777143252986
0.2  0.54  0.595466675061
0.2  0.56  0.456261519027
0.2  0.58  0.349599032932
0.2  0.6  0.267871557715
0.2  0.62  0.205249913968
0.2  0.64  0.157267638055
0.2  0.66  0.12050241338
0.2  0.68  0.0923319750341
0.2  0.7  0.0707470777931
0.2  0.72  0.0542081875149
0.2  0.74  0.0415356744804
0.2  0.76  0.0318256767774
0.2  0.78  0.0243856327124
0.2  0.8  0.0186848841249
0.2  0.82  0.0143168274074
0.2  0.84  0.0109699126653
0.2  0.86  0.00840542254653
0.2  0.88  0.00644044582134
0.2  0.9  0.00493483131252
0.2  0.92  0.0037811916688
0.2  0.94  0.00289724400507
0.2  0.96  0.00221994110856
0.2  0.98  0.00170097462169
0.22  -1  0.00121500052228
0.22  -0.98  0.00158569656004
0.22  -0.96  0.00206949176928
0.22  -0.94  0.00270089264935
0.22  -0.92  0.0035249336149
0.22  -0.9  0.00460038905747
0.22  -0.88  0.00600396540538
0.22  -0.86  0.00783577217897
0.22  -0.84  0.010226462262
0.22  -0.82  0.0133465506664
0.22  -0.8  0.0174185764467
0.22  -0.78  0.0227329752093
0.22  -0.76  0.0296687943156
0.22  -0.74  0.038720728283
0.22  -0.72  0.0505344026728
0.22  -0.7  0.0659524230752
0.22  -0.68  0.0860744736146
0.22  -0.66  0.112335751479
0.22  -0.64  0.146609331785
0.22  -0.62  0.191339763908
0.22  -0.6  0.249717427989
0.22  -0.58  0.325906087514
0.22  -0.56  0.425339868083
0.22  -0.54  0.555110844234
0.22  -0.52  0.724474878818
0.22  -0.5  0.945511793709
0.22  -0.48  1.23398695825
0.22  -0.46  1.61047574791
0.22  -0.44  2.10183107469
0.22  -0.42  2.7430986603
0.22  -0.4  3.5800166582
0.22  -0.38  4.6722779091
0.22  -0.36  6.09778750886
0.22  -0.34  7.95821935822
0.22  -0.32  10.386268013
0.22  -0.3  13.5551130703
0.22  -0.28  17.6907711333
0.22  -0.26  23.0882163556
0.22  -0.24  30.1324193539
0.22  -0.22  39.3258050832
0.22  -0.2  36.9507021123
0.22  -0.18  37.4072709806
0.22  -0.16  39.2337963091
0.22  -0.14  42.0841641211
0.22  -0.12  45.5091994992
0.22  -0.1  49.0796068954
0.22  -0.08  52.4393842199
0.22  -0.06  55.3140078825
0.22  -0.04  57.5026471843
0.22  -0.02  58.8686689255
0.22  6.17561557e-16  59.3326916503
0.22  0.02  58.8686689255
0.22  0.04  57.5026471843
0.22  0.06  55.3140078825
0.22  0.08  52.4393842199
0.22  0.1  49.0796068954
0.22  0.12  45.5091994992
0.22  0.14  42.0841641211
0.22  0.16  39.2337963091
0.22  0.18  37.4072709806
0.22  0.2  51.3240880952
0.22  0.22  39.3258050832
0.22  0.24  30.1324193539
0.22  0.26  23.0882163556
0.22  0.28  17.6907711333
0.22  0.3  13.5551130703
0.22  0.32  10.386268013
0.22  0.34  7.95821935823
0.22  0.36  6.09778750887
0.22  0.38  4.67227790911
0.22  0.4  3.5800166582
0.22  0.42  2.7430986603
0.22  0.44  2.10183107469
0.22  0.46  1.61047574791
0.22  0.48  1.23398695825
0.22  0.5  0.945511793709
0.22  0.52  0.724474878819
0.22  0.54  0.555110844234
0.22  0.56  0.425339868083
0.22  0.58  0.325906087514
0.22  0.6  0.249717427989
0.22  0.62  0.191339763909
0.22  0.64  0.146609331785
0.22  0.66  0.112335751479
0.22  0.68  0.0860744736146
0.22  0.7  0.0659524230752
0.22  0.72  0.0505344026729
0.22  0.74  0.038720728283
0.22  0.76  0.0296687943157
0.22  0.78  0.0227329752093
0.22  0.8  0.0174185764467
0.22  0.82  0.0133465506664
0.22  0.84  0.010226462262
0.22  0.86  0.00783577217897
0.22  0.88  0.00600396540538
0.22  0.9  0.00460038905748
0.22  0.92  0.0035249336149
0.22  0.94  0.00270089264935
0.22  0.96  0.00206949176928
0.22  0.98  0.00158569656004
0.24  -1  0.00110107204964
0.24  -0.98  0.00143700856868
0.24  -0.96  0.00187543914783
0.24  -0.94  0.00244763467236
0.24  -0.92  0.00319440675871
0.24  -0.9  0.00416901862655
0.24  -0.88  0.00544098407667
0.24  -0.86  0.00710102553488
0.24  -0.84  0.00926754479273
0.24  -0.82  0.0120950679678
0.24  -0.8  0.015785267017
0.24  -0.78  0.0206013439082
0.24  -0.76  0.0268868033951
0.24  -0.74  0.0350899533558
0.24  -0.72  0.0457958801728
0.24  -0.7  0.0597681797847
0.24  -0.68  0.07800342086
0.24  -0.66  0.101802224658
0.24  -0.64  0.13286203132
0.24  -0.62  0.173398169104
0.24  -0.6  0.226301861789
0.24  -0.58  0.295346444046
0.24  -0.56  0.385456493027
0.24  -0.54  0.503059071852
0.24  -0.52  0.656542137312
0.24  -0.5  0.856852807523
0.24  -0.48  1.11827816074
0.24  -0.46  1.45946425547
0.24  -0.44  1.90474605317
0.24  -0.42  2.48588309953
0.24  -0.4  3.24432476143
0.24  -0.38  4.23416658637
0.24  -0.36  5.5260086457
0.24  -0.34  7.21199105643
0.24  -0.32  9.41236583814
0.24  -0.3  12.28407384
0.24  -0.28  16.0319384842
0.24  -0.26  20.9232747139
0.24  -0.24  27.3069551248
0.24  -0.22  35.6382931634
0.24  -0.2  33.4858994415
0.24  -0.18  33.899656646
0.24  -0.16  35.554911891
0.24  -0.14  38.1380057016
0.24  -0.12  41.2418815064
0.24  -0.1  44.4774980495
0.24  -0.08  47.5222349341
0.24  -0.06  50.1273101666
0.24  -0.04  52.1107245914
0.24  -0.02  53.3486568645
0.24  6.17561557e-16  53.7691689906
0.24  0.02  53.3486568645
0.24  0.04  52.1107245914
0.24  0.06  50.1273101666
0.24  0.08  47.5222349341
0.24  0.1  44.4774980495
0.24  0.12  41.2418815064
0.24  0.14  38.1380057016
0.24  0.16  35.554911891
0.24  0.18  33.899656646
0.24  0.2  46.5115181752
0.24  0.22  35.6382931634
0.24  0.24  27.3069551249
0.24  0.26  20.9232747139
0.24  0.28  16.0319384842
0.24  0.3  12.28407384
0.24  0.32  9.41236583814
0.24  0.34  7.21199105643
0.24  0.36  5.5260086457
0.24  0.38  4.23416658637
0.24  0.4  3.24432476144
0.24  0.42  2.48588309953
0.24  0.44  1.90474605317
0.24  0.46  1.45946425548
0.24  0.48  1.11827816074
0.24  0.5  0.856852807524
0.24  0.52  0.656542137312
0.24  0.54  0.503059071852
0.24  0.56  0.385456493027
0.24  0.58  0.295346444046
0.24  0.6  0.226301861789
0.24  0.62  0.173398169105
0.24  0.64  0.13286203132
0.24  0.66  0.101802224658
0.24  0.68  0.07800342086
0.24  0.7  0.0597681797847
0.24  0.72  0.0457958801729
0.24  0.74  0.0350899533558
0.24  0.76  0.0268868033951
0.24  0.78  0.0206013439082
0.24  0.8  0.015785267017
0.24  0.82  0.0120950679678
0.24  0.84  0.00926754479274
0.24  0.86  0.00710102553489
0.24  0.88  0.00544098407667
0.24  0.9  0.00416901862655
0.24  0.92  0.00319440675871
0.24  0.94  0.00244763467237
0.24  0.96  0.00187543914783
0.24  0.98  0.00143700856869
0.26  -1  0.00096394447276
0.26  -0.98  0.00125804343825
0.26  -0.96  0.00164187184765
0.26  -0.94  0.0021428061084
0.26  -0.92  0.00279657515583
0.26  -0.9  0.00364980880516
0.26  -0.88  0.0047633636044
0.26  -0.86  0.00621666340319
0.26  -0.84  0.0081133642271
0.26  -0.82  0.010588747502
0.26  -0.8  0.0138193689478
0.26  -0.78  0.0180356513438
0.26  -0.76  0.0235383193419
0.26  -0.74  0.030719848531
0.26  -0.72  0.0400924586018
0.26  -0.7  0.0523246472101
0.26  -0.68  0.068288870305
0.26  -0.66  0.0891237696988
0.26  -0.64  0.116315386239
0.26  -0.62  0.151803151074
0.26  -0.6  0.198118214805
0.26  -0.58  0.258563980786
0.26  -0.56  0.337451719044
0.26  -0.54  0.440408065886
0.26  -0.52  0.574776341478
0.26  -0.5  0.750140309211
0.26  -0.48  0.979007733784
0.26  -0.46  1.27770249251
0.26  -0.44  1.66752886931
0.26  -0.42  2.17629107423
0.26  -0.4  2.8402763676
0.26  -0.38  3.70684323429
0.26  -0.36  4.83779920868
0.26  -0.34  6.31380927225
0.26  -0.32  8.24014925111
0.26  -0.3  10.754214572
0.26  -0.28  14.0353199361
0.26  -0.26  18.3174888683
0.26  -0.24  23.9061453509
0.26  -0.22  31.1998980672
0.26  -0.2  29.3155635842
0.26  -0.18  29.6777914425
0.26  -0.16  31.1269011034
0.26  -0.14  33.388296261
0.26  -0.12  36.1056151932
0.26  -0.1  38.9382678645
0.26  -0.08  41.603813041
0.26  -0.06  43.8844520531
0.26  -0.04  45.6208519304
0.26  -0.02  46.7046120465
0.26  6.17561557e-16  47.072753568
0.26  0.02  46.7046120465
0.26  0.04  45.6208519304
0.26  0.06  43.8844520531
0.26  0.08  41.603813041
0.26  0.1  38.9382678645
0.26  0.12  36.1056151932
0.26  0.14  33.388296261
0.26  0.16  31.1269011034
0.26  0.18  29.6777914425
0.26  0.2  40.7189710058
0.26  0.22  31.1998980672
0.26  0.24  23.9061453509
0.26  0.26  18.3174888683
0.26  0.28  14.0353199362
0.26  0.3  10.754214572
0.26  0.32  8.24014925112
0.26  0.34  6.31380927226
0.26  0.36  4.83779920868
0.26  0.38  3.70684323429
0.26  0.4  2.84027636761
0.26  0.42  2.17629107423
0.26  0.44  1.66752886931
0.26  0.46  1.27770249251
0.26  0.48  0.979007733784
0.26  0.5  0.750140309211
0.26  0.52  0.574776341478
0.26  0.54  0.440408065886
0.26  0.56  0.337451719044
0.26  0.58  0.258563980786
0.26  0.6  0.198118214805
0.26  0.62  0.151803151074
0.26  0.64  0.116315386239
0.26  0.66  0.0891237696989
0.26  0.68  0.068288870305
0.26  0.7  0.0523246472102
0.26  0.72  0.0400924586018
0.26  0.74  0.0307198485311
0.26  0.76  0.0235383193419
0.26  0.78  0.0180356513438
0.26  0.8  0.0138193689478
0.26  0.82  0.010588747502
0.26  0.84  0.0081133642271
0.26  0.86  0.00621666340319
0.26  0.88  0.0047633636044
0.26  0.9  0.00364980880516
0.26  0.92  0.00279657515583
0.26  0.94  0.0021428061084
0.26  0.96  0.00164187184766
0.26  0.98  0.00125804343825
0.28  -1  0.000806507009426
0.28  -0.98  0.0010525718854
0.28  -0.96  0.00137371102914
0.28  -0.94  0.00179282956135
0.28  -0.92  0.00233982094332
0.28  -0.9  0.00305369911609
0.28  -0.88  0.00398538115416
0.28  -0.86  0.00520131890539
0.28  -0.84  0.00678823864246
0.28  -0.82  0.00885932677946
0.28  -0.8  0.0115623028475
0.28  -0.78  0.0150899555311
0.28  -0.76  0.0196938932437
0.28  -0.74  0.025702489997
0.28  -0.72  0.0335443065459
0.28  -0.7  0.0437786573119
0.28  -0.68  0.0571355032609
0.28  -0.66  0.0745675160757
0.28  -0.64  0.097318027082
0.28  -0.62  0.127009707357
0.28  -0.6  0.165760304095
0.28  -0.58  0.216333688072
0.28  -0.56  0.282336985628
0.28  -0.54  0.368477855501
0.28  -0.52  0.480900260704
0.28  -0.5  0.627622684219
0.28  -0.48  0.819110044086
0.28  -0.46  1.06902009948
0.28  -0.44  1.39517758493
0.28  -0.42  1.82084555233
0.28  -0.4  2.37638459881
0.28  -0.38  3.10141832417
0.28  -0.36  4.04765946821
0.28  -0.34  5.2825983012
0.28  -0.32  6.89431634035
0.28  -0.3  8.9977687287
0.28  -0.28  11.7429833646
0.28  -0.26  15.3257615815
0.28  -0.24  20.0016435995
0.28  -0.22  26.104134829
0.28  -0.2  24.5275616844
0.28  -0.18  24.8306282146
0.28  -0.16  26.0430601876
0.28  -0.14  27.9351100901
0.28  -0.12  30.2086194338
0.28  -0.1  32.5786254862
0.28  -0.08  34.8088170892
0.28  -0.06  36.716967819
0.28  -0.04  38.1697679665
0.28  -0.02  39.0765215762
0.28  6.17561557e-16  39.384535913
0.28  0.02  39.0765215762
0.28  0.04  38.1697679665
0.28  0.06  36.716967819
0.28  0.08  34.8088170892
0.28  0.1  32.5786254862
0.28  0.12  30.2086194338
0.28  0.14  27.9351100901
0.28  0.16  26.0430601876
0.28  0.18  24.8306282146
0.28  0.2  34.0684930106
0.28  0.22  26.104134829
0.28  0.24  20.0016435995
0.28  0.26  15.3257615815
0.28  0.28  11.7429833646
0.28  0.3  8.9977687287
0.28  0.32  6.89431634035
0.28  0.34  5.2825983012
0.28  0.36  4.04765946821
0.28  0.38  3.10141832417
0.28  0.4  2.37638459882
