-0.12  -0.4  3.92826712702
-0.12  -0.38  4.57726165944
-0.12  -0.36  5.33347749058
-0.12  -0.34  6.21462880188
-0.12  -0.32  7.2413563596
-0.12  -0.3  8.43771101998
-0.12  -0.28  9.83171711504
-0.12  -0.26  11.456028916
-0.12  -0.24  13.3486955523
-0.12  -0.22  15.5540523033
-0.12  -0.2  13.5291880439
-0.12  -0.18  13.5445063269
-0.12  -0.16  13.4370419969
-0.12  -0.14  13.2160031282
-0.12  -0.12  12.9009603373
-0.12  -0.1  12.5213929183
-0.12  -0.08  12.1155853679
-0.12  -0.06  11.7283019907
-0.12  -0.04  11.4065440379
-0.12  -0.02  11.1930248515
-0.12  6.17561557e-16  11.1181563472
-0.12  0.02  11.1930248515
-0.12  0.04  11.4065440379
-0.12  0.06  11.7283019907
-0.12  0.08  12.1155853679
-0.12  0.1  12.5213929183
-0.12  0.12  12.9009603373
-0.12  0.14  13.2160031282
-0.12  0.16  13.4370419969
-0.12  0.18  13.5445063269
-0.12  0.2  18.1237591423
-0.12  0.22  15.5540523033
-0.12  0.24  13.3486955523
-0.12  0.26  11.456028916
-0.12  0.28  9.83171711504
-0.12  0.3  8.43771101998
-0.12  0.32  7.2413563596
-0.12  0.34  6.21462880188
-0.12  0.36  5.33347749058
-0.12  0.38  4.57726165944
-0.12  0.4  3.92826712702
-0.12  0.42  3.37129134609
-0.12  0.44  2.89328728742
-0.12  0.46  2.48305781619
-0.12  0.48  2.13099340164
-0.12  0.5  1.82884701606
-0.12  0.52  1.56954095004
-0.12  0.54  1.3470010188
-0.12  0.56  1.15601427576
-0.12  0.58  0.992106900526
-0.12  0.6  0.851439400628
-0.12  0.62  0.730716672324
-0.12  0.64  0.627110813545
-0.12  0.66  0.538194880944
-0.12  0.68  0.461886039306
-0.12  0.7  0.396396771615
-0.12  0.72  0.340193006878
-0.12  0.74  0.29195818487
-0.12  0.76  0.250562416008
-0.12  0.78  0.215036013954
-0.12  0.8  0.184546780934
-0.12  0.82  0.158380513696
-0.12  0.84  0.135924273464
-0.12  0.86  0.11665202799
-0.12  0.88  0.100112329368
-0.12  0.9  0.0859177389727
-0.12  0.92  0.073735751798
-0.12  0.94  0.0632810076036
-0.12  0.96  0.0543086064179
-0.12  0.98  0.0466083718124
-0.1  -1  0.048338439453
-0.1  -0.98  0.0563245009646
-0.1  -0.96  0.0656299509213
-0.1  -0.94  0.0764727673422
-0.1  -0.92  0.0891069407013
-0.1  -0.9  0.103828423596
-0.1  -0.88  0.120982063367
-0.1  -0.86  0.140969680071
-0.1  -0.84  0.164259479019
-0.1  -0.82  0.19139701838
-0.1  -0.8  0.223017988755
-0.1  -0.78  0.259863104082
-0.1  -0.76  0.302795452691
-0.1  -0.74  0.352820714946
-0.1  -0.72  0.411110721078
-0.1  -0.7  0.479030901037
-0.1  -0.68  0.558172269375
-0.1  -0.66  0.650388694393
-0.1  -0.64  0.757840324579
-0.1  -0.62  0.883044189589
-0.1  -0.6  1.02893316109
-0.1  -0.58  1.19892465458
-0.1  -0.56  1.3970006816
-0.1  -0.54  1.6278011274
-0.1  -0.52  1.89673243919
-0.1  -0.5  2.21009427093
-0.1  -0.48  2.57522705126
-0.1  -0.46  3.00068393134
-0.1  -0.44  3.49643114047
-0.1  -0.42  4.07408144269
-0.1  -0.4  4.7471661631
-0.1  -0.38  5.53145215606
-0.1  -0.36  6.44531114006
-0.1  -0.34  7.51015005105
-0.1  -0.32  8.75091249493
-0.1  -0.3  10.1966630458
-0.1  -0.28  11.8812680769
-0.1  -0.26  13.8441890725
-0.1  -0.24  16.1314070043
-0.1  -0.22  18.7964994247
-0.1  -0.2  16.3495255336
-0.1  -0.18  16.3680371146
-0.1  -0.16  16.2381704292
-0.1  -0.14  15.9710530961
-0.1  -0.12  15.590335485
-0.1  -0.1  15.1316422367
-0.1  -0.08  14.6412387561
-0.1  -0.06  14.1732210567
-0.1  -0.04  13.7843884195
-0.1  -0.02  13.5263583458
-0.1  6.17561557e-16  13.4358825153
-0.1  0.02  13.5263583458
-0.1  0.04  13.7843884195
-0.1  0.06  14.1732210567
-0.1  0.08  14.6412387561
-0.1  0.1  15.1316422367
-0.1  0.12  15.590335485
-0.1  0.14  15.9710530961
-0.1  0.16  16.2381704292
-0.1  0.18  16.3680371146
-0.1  0.2  21.9018955093
-0.1  0.22  18.7964994247
-0.1  0.24  16.1314070043
-0.1  0.26  13.8441890725
-0.1  0.28  11.8812680769
-0.1  0.3  10.1966630458
-0.1  0.32  8.75091249493
-0.1  0.34  7.51015005105
-0.1  0.36  6.44531114006
-0.1  0.38  5.53145215606
-0.1  0.4  4.7471661631
-0.1  0.42  4.07408144269
-0.1  0.44  3.49643114047
-0.1  0.46  3.00068393134
-0.1  0.48  2.57522705126
-0.1  0.5  2.21009427093
-0.1  0.52  1.89673243919
-0.1  0.54  1.6278011274
-0.1  0.56  1.3970006816
-0.1  0.58  1.19892465458
-0.1  0.6  1.02893316109
-0.1  0.62  0.883044189589
-0.1  0.64  0.757840324579
-0.1  0.66  0.650388694393
-0.1  0.68  0.558172269375
-0.1  0.7  0.479030901037
-0.1  0.72  0.411110721078
-0.1  0.74  0.352820714946
-0.1  0.76  0.302795452691
-0.1  0.78  0.259863104082
-0.1  0.8  0.223017988755
-0.1  0.82  0.19139701838
-0.1  0.84  0.164259479019
-0.1  0.86  0.140969680071
-0.1  0.88  0.120982063367
-0.1  0.9  0.103828423596
-0.1  0.92  0.0891069407013
-0.1  0.94  0.0764727673422
-0.1  0.96  0.0656299509213
-0.1  0.98  0.0563245009646
-0.08  -1  0.0584152239979
-0.08  -0.98  0.0680660852449
-0.08  -0.96  0.0793113788409
-0.08  -0.94  0.0924145231948
-0.08  -0.92  0.107682456441
-0.08  -0.9  0.125472826395
-0.08  -0.88  0.146202368369
-0.08  -0.86  0.170356667105
-0.08  -0.84  0.198501531478
-0.08  -0.82  0.231296248445
-0.08  -0.8  0.26950902669
-0.08  -0.78  0.314034991728
-0.08  -0.76  0.365917154021
-0.08  -0.74  0.426370841257
-0.08  -0.72  0.496812167117
-0.08  -0.7  0.578891203412
-0.08  -0.68  0.674530632638
-0.08  -0.66  0.785970786368
-0.08  -0.64  0.915822124501
-0.08  -0.62  1.06712638469
-0.08  -0.6  1.24342783432
-0.08  -0.58  1.44885629421
-0.08  -0.56  1.68822387864
-0.08  -0.54  1.96713771808
-0.08  -0.52  2.29213130488
-0.08  -0.5  2.67081753887
-0.08  -0.48  3.11206705774
-0.08  -0.46  3.62621602971
-0.08  -0.44  4.22530827587
-0.08  -0.42  4.92337739391
-0.08  -0.4  5.73677549194
-0.08  -0.38  6.6845562328
-0.08  -0.36  7.78892116177
-0.08  -0.34  9.07573977261
-0.08  -0.32  10.5751554945
-0.08  -0.3  12.3222917949
-0.08  -0.28  14.3580749388
-0.08  -0.26  16.7301926767
-0.08  -0.24  19.4942113196
-0.08  -0.22  22.7148773667
-0.08  -0.2  19.75779953
-0.08  -0.18  19.7801700939
-0.08  -0.16  19.6232309869
-0.08  -0.14  19.3004295267
-0.08  -0.12  18.8403463137
-0.08  -0.1  18.2860324147
-0.08  -0.08  17.6933978677
-0.08  -0.06  17.1278157128
-0.08  -0.04  16.6579257897
-0.08  -0.02  16.3461059477
-0.08  6.17561557e-16  16.2367692383
-0.08  0.02  16.3461059477
-0.08  0.04  16.6579257897
-0.08  0.06  17.1278157128
-0.08  0.08  17.6933978677
-0.08  0.1  18.2860324147
-0.08  0.12  18.8403463137
-0.08  0.14  19.3004295267
-0.08  0.16  19.6232309869
-0.08  0.18  19.7801700939
-0.08  0.2  26.4676341775
-0.08  0.22  22.7148773667
-0.08  0.24  19.4942113196
-0.08  0.26  16.7301926767
-0.08  0.28  14.3580749388
-0.08  0.3  12.3222917949
-0.08  0.32  10.5751554945
-0.08  0.34  9.07573977261
-0.08  0.36  7.78892116177
-0.08  0.38  6.6845562328
-0.08  0.4  5.73677549194
-0.08  0.42  4.92337739391
-0.08  0.44  4.22530827587
-0.08  0.46  3.62621602971
-0.08  0.48  3.11206705774
-0.08  0.5  2.67081753887
-0.08  0.52  2.29213130488
-0.08  0.54  1.96713771808
-0.08  0.56  1.68822387864
-0.08  0.58  1.44885629421
-0.08  0.6  1.24342783432
-0.08  0.62  1.06712638469
-0.08  0.64  0.915822124501
-0.08  0.66  0.785970786368
-0.08  0.68  0.674530632638
-0.08  0.7  0.578891203412
-0.08  0.72  0.496812167117
-0.08  0.74  0.426370841257
-0.08  0.76  0.365917154021
-0.08  0.78  0.314034991728
-0.08  0.8  0.26950902669
-0.08  0.82  0.231296248445
-0.08  0.84  0.198501531478
-0.08  0.86  0.170356667105
-0.08  0.88  0.146202368369
-0.08  0.9  0.125472826395
-0.08  0.92  0.107682456441
-0.08  0.94  0.0924145231948
-0.08  0.96  0.0793113788409
-0.08  0.98  0.0680660852449
-0.06  -1  0.070592647039
-0.06  -0.98  0.0822553574595
-0.06  -0.96  0.0958448806581
-0.06  -0.94  0.111679548082
-0.06  -0.92  0.130130283162
-0.06  -0.9  0.151629290114
-0.06  -0.88  0.176680178218
-0.06  -0.86  0.205869758748
-0.06  -0.84  0.239881790898
-0.06  -0.82  0.279512998675
-0.06  -0.8  0.325691733984
-0.06  -0.78  0.379499723047
-0.06  -0.76  0.442197405599
-0.06  -0.74  0.515253460394
-0.06  -0.72  0.600379208667
-0.06  -0.7  0.699568701438
-0.06  -0.68  0.8151454297
-0.06  -0.66  0.949816751657
-0.06  -0.64  1.10673731197
-0.06  -0.62  1.28958293857
-0.06  -0.6  1.50263674808
-0.06  -0.58  1.75088947688
-0.06  -0.56  2.04015638786
-0.06  -0.54  2.37721349171
-0.06  -0.52  2.76995627336
-0.06  -0.5  3.22758464187
-0.06  -0.48  3.76081843625
-0.06  -0.46  4.38214853515
-0.06  -0.44  5.10612945283
-0.06  -0.42  5.94972027533
-0.06  -0.4  6.93268192311
-0.06  -0.38  8.07804004606
-0.06  -0.36  9.41262439407
-0.06  -0.34  10.9676972977
-0.06  -0.32  12.779685981
-0.06  -0.3  14.8910358611
-0.06  -0.28  17.351204822
-0.06  -0.26  20.2178217541
-0.06  -0.24  23.5580364981
-0.06  -0.22  27.4500928138
-0.06  -0.2  23.8765731436
-0.06  -0.18  23.9036071463
-0.06  -0.16  23.7139520149
-0.06  -0.14  23.3238583375
-0.06  -0.12  22.7678647173
-0.06  -0.1  22.0979967832
-0.06  -0.08  21.3818197571
-0.06  -0.06  20.6983345508
-0.06  -0.04  20.1304898825
-0.06  -0.02  19.7536670863
-0.06  6.17561557e-16  19.6215376994
-0.06  0.02  19.7536670863
-0.06  0.04  20.1304898825
-0.06  0.06  20.6983345508
-0.06  0.08  21.3818197571
-0.06  0.1  22.0979967832
-0.06  0.12  22.7678647173
-0.06  0.14  23.3238583375
-0.06  0.16  23.7139520149
-0.06  0.18  23.9036071463
-0.06  0.2  31.9851612229
-0.06  0.22  27.4500928138
-0.06  0.24  23.5580364981
-0.06  0.26  20.2178217541
-0.06  0.28  17.351204822
-0.06  0.3  14.8910358611
-0.06  0.32  12.779685981
-0.06  0.34  10.9676972977
-0.06  0.36  9.41262439407
-0.06  0.38  8.07804004606
-0.06  0.4  6.93268192311
-0.06  0.42  5.94972027533
-0.06  0.44  5.10612945283
-0.06  0.46  4.38214853515
-0.06  0.48  3.76081843625
-0.06  0.5  3.22758464187
-0.06  0.52  2.76995627336
-0.06  0.54  2.37721349171
-0.06  0.56  2.04015638786
-0.06  0.58  1.75088947688
-0.06  0.6  1.50263674808
-0.06  0.62  1.28958293857
-0.06  0.64  1.10673731197
-0.06  0.66  0.949816751657
-0.06  0.68  0.8151454297
-0.06  0.7  0.699568701438
-0.06  0.72  0.600379208667
-0.06  0.74  0.515253460394
-0.06  0.76  0.442197405599
-0.06  0.78  0.379499723047
-0.06  0.8  0.325691733984
-0.06  0.82  0.279512998675
-0.06  0.84  0.239881790898
-0.06  0.86  0.205869758748
-0.06  0.88  0.176680178218
-0.06  0.9  0.151629290114
-0.06  0.92  0.130130283162
-0.06  0.94  0.111679548082
-0.06  0.96  0.0958448806581
-0.06  0.98  0.0822553574595
-0.04  -1  0.085308614346
-0.04  -0.98  0.0994025704055
-0.04  -0.96  0.115825008752
-0.04  -0.94  0.134960621215
-0.04  -0.92  0.157257655105
-0.04  -0.9  0.183238413298
-0.04  -0.88  0.213511489062
-0.04  -0.86  0.248786022216
-0.04  -0.84  0.289888310563
-0.04  -0.82  0.337781165729
-0.04  -0.8  0.3935864668
-0.04  -0.78  0.458611440083
-0.04  -0.76  0.534379280582
-0.04  -0.74  0.622664832485
-0.04  -0.72  0.725536164485
-0.04  -0.7  0.845403013809
-0.04  -0.68  0.985073233757
-0.04  -0.66  1.14781856702
-0.04  -0.64  1.3374512855
-0.04  -0.62  1.55841349188
-0.04  -0.6  1.8158811749
-0.04  -0.58  2.11588545565
-0.04  -0.56  2.46545386521
-0.04  -0.54  2.87277496296
-0.04  -0.52  3.34739015168
-0.04  -0.5  3.90041718269
-0.04  -0.48  4.54481058666
-0.04  -0.46  5.29566513047
-0.04  -0.44  6.17056940862
-0.04  -0.42  7.19001785207
-0.04  -0.4  8.37789080547
-0.04  -0.38  9.76201391882
-0.04  -0.36  11.3748099568
-0.04  -0.34  13.2540582947
-0.04  -0.32  15.4437798914
-0.04  -0.3  17.9952684702
-0.04  -0.28  20.9682920628
-0.04  -0.26  24.432493061
-0.04  -0.24  28.4690195744
-0.04  -0.22  33.1724263055
-0.04  -0.2  28.8539593803
-0.04  -0.18  28.8866289771
-0.04  -0.16  28.6574377349
-0.04  -0.14  28.186023891
-0.04  -0.12  27.5141260757
-0.04  -0.1  26.7046153455
-0.04  -0.08  25.8391417829
-0.04  -0.06  25.0131750807
-0.04  -0.04  24.3269557102
-0.04  -0.02  23.8715792376
-0.04  6.17561557e-16  23.7119057393
-0.04  0.02  23.8715792376
-0.04  0.04  24.3269557102
-0.04  0.06  25.0131750807
-0.04  0.08  25.8391417829
-0.04  0.1  26.7046153455
-0.04  0.12  27.5141260757
-0.04  0.14  28.186023891
-0.04  0.16  28.6574377349
-0.04  0.18  28.8866289771
-0.04  0.2  38.6528894724
-0.04  0.22  33.1724263055
-0.04  0.24  28.4690195744
-0.04  0.26  24.432493061
-0.04  0.28  20.9682920628
-0.04  0.3  17.9952684702
-0.04  0.32  15.4437798914
-0.04  0.34  13.2540582947
-0.04  0.36  11.3748099568
-0.04  0.38  9.76201391882
-0.04  0.4  8.37789080547
-0.04  0.42  7.19001785207
-0.04  0.44  6.17056940862
-0.04  0.46  5.29566513047
-0.04  0.48  4.54481058666
-0.04  0.5  3.90041718269
-0.04  0.52  3.34739015168
-0.04  0.54  2.87277496296
-0.04  0.56  2.46545386521
-0.04  0.58  2.11588545565
-0.04  0.6  1.8158811749
-0.04  0.62  1.55841349188
-0.04  0.64  1.3374512855
-0.04  0.66  1.14781856702
-0.04  0.68  0.985073233757
-0.04  0.7  0.845403013809
-0.04  0.72  0.725536164485
-0.04  0.74  0.622664832485
-0.04  0.76  0.534379280582
-0.04  0.78  0.458611440083
-0.04  0.8  0.3935864668
-0.04  0.82  0.337781165729
-0.04  0.84  0.289888310563
-0.04  0.86  0.248786022216
-0.04  0.88  0.213511489062
-0.04  0.9  0.183238413298
-0.04  0.92  0.157257655105
-0.04  0.94  0.134960621215
-0.04  0.96  0.115825008752
-0.04  0.98  0.0994025704055
-0.02  -1  0.103092318916
-0.02  -0.98  0.120124345798
-0.02  -0.96  0.139970257777
-0.02  -0.94  0.163094940764
-0.02  -0.92  0.190040085123
-0.02  -0.9  0.221436874648
-0.02  -0.88  0.258020771891
-0.02  -0.86  0.30064874621
-0.02  -0.84  0.35031934807
-0.02  -0.82  0.408196099865
-0.02  -0.8  0.475634751158
-0.02  -0.78  0.554215036803
-0.02  -0.76  0.645777681866
-0.02  -0.74  0.752467520193
-0.02  -0.72  0.876783736639
-0.02  -0.7  1.02163840991
-0.02  -0.68  1.19042472731
-0.02  -0.66  1.3870964694
-0.02  -0.64  1.61626062638
-0.02  -0.62  1.88328531578
-0.02  -0.6  2.19442552936
-0.02  -0.58  2.55696965488
-0.02  -0.56  2.97941020485
-0.02  -0.54  3.47164275173
-0.02  -0.52  4.04519772941
-0.02  -0.5  4.71351053096
-0.02  -0.48  5.49223622964
-0.02  -0.46  6.39961629532
-0.02  -0.44  7.4569058968
-0.02  -0.42  8.68887179913
-0.02  -0.4  10.1243725195
-0.02  -0.38  11.7970343311
-0.02  -0.36  13.7460389512
-0.02  -0.34  16.0170413635
-0.02  -0.32  18.6632392758
-0.02  -0.3  21.7466192638
-0.02  -0.28  25.3394087927
-0.02  -0.26  29.5257681286
-0.02  -0.24  34.4037617734
-0.02  -0.22  40.0876556033
-0.02  -0.2  34.8689473533
-0.02  -0.18  34.9084273579
-0.02  -0.16  34.6314581817
-0.02  -0.14  34.0617719115
-0.02  -0.12  33.2498081445
-0.02  -0.1  32.2715442376
-0.02  -0.08  31.2256513086
-0.02  -0.06  30.2275009655
-0.02  -0.04  29.3982301266
-0.02  -0.02  28.8479244288
-0.02  6.17561557e-16  28.6549648861
-0.02  0.02  28.8479244288
-0.02  0.04  29.3982301266
-0.02  0.06  30.2275009655
-0.02  0.08  31.2256513086
-0.02  0.1  32.2715442376
-0.02  0.12  33.2498081445
-0.02  0.14  34.0617719115
-0.02  0.16  34.6314581817
-0.02  0.18  34.9084273579
-0.02  0.2  46.7105935203
-0.02  0.22  40.0876556033
-0.02  0.24  34.4037617734
-0.02  0.26  29.5257681286
-0.02  0.28  25.3394087927
-0.02  0.3  21.7466192638
-0.02  0.32  18.6632392758
-0.02  0.34  16.0170413635
-0.02  0.36  13.7460389512
-0.02  0.38  11.7970343311
-0.02  0.4  10.1243725195
-0.02  0.42  8.68887179913
-0.02  0.44  7.4569058968
-0.02  0.46  6.39961629532
-0.02  0.48  5.49223622964
-0.02  0.5  4.71351053096
-0.02  0.52  4.04519772941
-0.02  0.54  3.47164275173
-0.02  0.56  2.97941020485
-0.02  0.58  2.55696965488
-0.02  0.6  2.19442552936
-0.02  0.62  1.88328531578
-0.02  0.64  1.61626062638
-0.02  0.66  1.3870964694
-0.02  0.68  1.19042472731
-0.02  0.7  1.02163840991
-0.02  0.72  0.87678373664
-0.02  0.74  0.752467520193
-0.02  0.76  0.645777681866
-0.02  0.78  0.554215036803
-0.02  0.8  0.475634751158
-0.02  0.82  0.408196099865
-0.02  0.84  0.35031934807
-0.02  0.86  0.30064874621
-0.02  0.88  0.258020771891
-0.02  0.9  0.221436874648
-0.02  0.92  0.190040085123
-0.02  0.94  0.163094940764
-0.02  0.96  0.139970257777
-0.02  0.98  0.120124345798
2.8449465e-16  -1  0.124583270996
2.8449465e-16  -0.98  0.145165848273
2.8449465e-16  -0.96  0.169148902067
2.8449465e-16  -0.94  0.197094229881
2.8449465e-16  -0.92  0.229656444574
2.8449465e-16  -0.9  0.267598308516
2.8449465e-16  -0.88  0.311808601119
2.8449465e-16  -0.86  0.363322938292
2.8449465e-16  -0.84  0.423348031502
2.8449465e-16  -0.82  0.493289954713
2.8449465e-16  -0.8  0.574787081348
2.8449465e-16  -0.78  0.6697484628
2.8449465e-16  -0.76  0.780398547531
2.8449465e-16  -0.74  0.909329288255
2.8449465e-16  -0.72  1.05956085784
2.8449465e-16  -0.7  1.23461239616
2.8449465e-16  -0.68  1.43858444511
2.8449465e-16  -0.66  1.67625500292
2.8449465e-16  -0.64  1.95319144758
2.8449465e-16  -0.62  2.27588095144
2.8449465e-16  -0.6  2.6518824417
2.8449465e-16  -0.58  3.09000366656
2.8449465e-16  -0.56  3.60050751466
2.8449465e-16  -0.54  4.19535242092
2.8449465e-16  -0.52  4.88847249007
2.8449465e-16  -0.5  5.69610389988
2.8449465e-16  -0.48  6.63716522986
2.8449465e-16  -0.46  7.73370062464
2.8449465e-16  -0.44  9.01139617293
2.8449465e-16  -0.42  10.5001815983
2.8449465e-16  -0.4  12.234931356
2.8449465e-16  -0.38  14.2562815589
2.8449465e-16  -0.36  16.6115818695
2.8449465e-16  -0.34  19.3560046542
2.8449465e-16  -0.32  22.553837384
2.8449465e-16  -0.3  26.2799885529
2.8449465e-16  -0.28  30.6217423928
2.8449465e-16  -0.26  35.6808034859
2.8449465e-16  -0.24  41.5756791717
2.8449465e-16  -0.22  48.4444555536
2.8449465e-16  -0.2  42.1378388144
2.8449465e-16  -0.18  42.1855489461
2.8449465e-16  -0.16  41.8508418962
2.8449465e-16  -0.14  41.1623970175
2.8449465e-16  -0.12  40.181168706
2.8449465e-16  -0.1  38.9989727995
2.8449465e-16  -0.08  37.7350497102
2.8449465e-16  -0.06  36.5288217778
2.8449465e-16  -0.04  35.5266785072
2.8449465e-16  -0.02  34.8616543366
2.8449465e-16  6.17561557e-16  34.6284698351
2.8449465e-16  0.02  34.8616543366
2.8449465e-16  0.04  35.5266785072
2.8449465e-16  0.06  36.5288217778
2.8449465e-16  0.08  37.7350497102
2.8449465e-16  0.1  38.9989727995
2.8449465e-16  0.12  40.181168706
2.8449465e-16  0.14  41.1623970175
2.8449465e-16  0.16  41.8508418962
2.8449465e-16  0.18  42.1855489461
2.8449465e-16  0.2  56.4480321342
2.8449465e-16  0.22  48.4444555536
2.8449465e-16  0.24  41.5756791717
2.8449465e-16  0.26  35.6808034859
2.8449465e-16  0.28  30.6217423928
2.8449465e-16  0.3  26.2799885529
2.8449465e-16  0.32  22.553837384
2.8449465e-16  0.34  19.3560046543
2.8449465e-16  0.36  16.6115818695
2.8449465e-16  0.38  14.2562815589
2.8449465e-16  0.4  12.234931356
2.8449465e-16  0.42  10.5001815983
2.8449465e-16  0.44  9.01139617293
2.8449465e-16  0.46  7.73370062464
2.8449465e-16  0.48  6.63716522986
2.8449465e-16  0.5  5.69610389988
2.8449465e-16  0.52  4.88847249007
2.8449465e-16  0.54  4.19535242092
2.8449465e-16  0.56  3.60050751466
2.8449465e-16  0.58  3.09000366656
2.8449465e-16  0.6  2.6518824417
2.8449465e-16  0.62  2.27588095144
2.8449465e-16  0.64  1.95319144758
2.8449465e-16  0.66  1.67625500292
2.8449465e-16  0.68  1.43858444511
2.8449465e-16  0.7  1.23461239616
2.8449465e-16  0.72  1.05956085784
2.8449465e-16  0.74  0.909329288255
2.8449465e-16  0.76  0.780398547531
2.8449465e-16  0.78  0.6697484628
2.8449465e-16  0.8  0.574787081348
2.8449465e-16  0.82  0.493289954713
2.8449465e-16  0.84  0.423348031502
2.8449465e-16  0.86  0.363322938292
2.8449465e-16  0.88  0.311808601119
2.8449465e-16  0.9  0.267598308516
2.8449465e-16  0.92  0.229656444574
2.8449465e-16  0.94  0.197094229881
2.8449465e-16  0.96  0.169148902067
2.8449465e-16  0.98  0.145165848273
0.02  -1  0.147037789149
0.02  -0.98  0.171330108925
0.02  -0.96  0.199635796989
0.02  -0.94  0.232617907556
0.02  -0.92  0.271049038959
0.02  -0.9  0.315829431588
0.02  -0.88  0.368008055813
0.02  -0.86  0.428807183873
0.02  -0.84  0.499651021319
0.02  -0.82  0.582199068706
0.02  -0.8  0.678384995007
0.02  -0.78  0.79046193336
0.02  -0.76  0.921055260199
0.02  -0.74  1.07322409409
0.02  -0.72  1.25053295486
0.02  -0.7  1.4571352617
0.02  -0.68  1.69787062598
0.02  -0.66  1.9783782181
0.02  -0.64  2.30522886371
0.02  -0.62  2.68607896381
0.02  -0.6  3.12984984414
0.02  -0.58  3.64693673524
0.02  -0.56  4.24945227827
0.02  -0.54  4.95151026088
0.02  -0.52  5.7695562294
0.02  -0.5  6.72275272196
0.02  -0.48  7.83342814658
0.02  -0.46  9.12759981892
0.02  -0.44  10.6355834119
0.02  -0.42  12.3927030935
0.02  -0.4  14.4401189869
0.02  -0.38  16.8257913373
0.02  -0.36  19.6056039693
0.02  -0.34  22.8446733527
0.02  -0.32  26.6188739407
0.02  -0.3  31.0166155117
0.02  -0.28  36.1409141477
0.02  -0.26  42.1118053626
0.02  -0.24  49.0691559059
0.02  -0.22  57.1759401095
0.02  -0.2  49.7326375302
0.02  -0.18  49.7889467941
0.02  -0.16  49.3939131412
0.02  -0.14  48.5813850056
0.02  -0.12  47.4233030222
0.02  -0.1  46.0280316423
0.02  -0.08  44.5363028153
0.02  -0.06  43.1126679486
0.02  -0.04  41.9299013561
0.02  -0.02  41.1450152074
0.02  6.17561557e-16  40.869802225
0.02  0.02  41.1450152074
0.02  0.04  41.9299013561
0.02  0.06  43.1126679486
0.02  0.08  44.5363028153
0.02  0.1  46.0280316423
0.02  0.12  47.4233030222
0.02  0.14  48.5813850056
0.02  0.16  49.3939131412
0.02  0.18  49.7889467941
0.02  0.2  66.6220575238
0.02  0.22  57.1759401095
0.02  0.24  49.0691559059
0.02  0.26  42.1118053626
0.02  0.28  36.1409141477
0.02  0.3  31.0166155117
0.02  0.32  26.6188739407
0.02  0.34  22.8446733527
0.02  0.36  19.6056039693
0.02  0.38  16.8257913373
0.02  0.4  14.4401189869
0.02  0.42  12.3927030935
0.02  0.44  10.6355834119
0.02  0.46  9.12759981892
0.02  0.48  7.83342814658
0.02  0.5  6.72275272196
0.02  0.52  5.7695562294
0.02  0.54  4.95151026088
0.02  0.56  4.24945227827
0.02  0.58  3.64693673524
0.02  0.6  3.12984984414
0.02  0.62  2.68607896381
0.02  0.64  2.30522886371
0.02  0.66  1.9783782181
0.02  0.68  1.69787062598
0.02  0.7  1.4571352617
0.02  0.72  1.25053295486
0.02  0.74  1.07322409409
0.02  0.76  0.921055260199
0.02  0.78  0.79046193336
0.02  0.8  0.678384995007
0.02  0.82  0.582199068706
0.02  0.84  0.499651021319
0.02  0.86  0.428807183873
0.02  0.88  0.368008055813
0.02  0.9  0.315829431589
0.02  0.92  0.271049038959
0.02  0.94  0.232617907556
0.02  0.96  0.199635796989
0.02  0.98  0.171330108925
0.04  -1  0.166971746126
0.04  -0.98  0.194557382948
0.04  -0.96  0.226700481594
0.04  -0.94  0.264153986739
0.04  -0.92  0.307795238101
0.04  -0.9  0.35864652193
0.04  -0.88  0.41789901782
0.04  -0.86  0.486940701824
0.04  -0.84  0.567388859466
0.04  -0.82  0.661127970284
0.04  -0.8  0.770353851332
0.04  -0.78  0.897625093682
0.04  -0.76  1.04592299683
0.04  -0.74  1.21872140497
0.04  -0.72  1.42006808094
0.04  -0.7  1.6546795242
0.04  -0.68  1.9280514537
0.04  -0.66  2.24658754384
0.04  -0.64  2.61774942907
0.04  -0.62  3.05023149094
0.04  -0.6  3.55416452202
0.04  -0.58  4.14135303734
0.04  -0.56  4.82555179244
0.04  -0.54  5.62278798538
0.04  -0.52  6.5517366901
0.04  -0.5  7.63415831576
0.04  -0.48  8.89540833932
0.04  -0.46  10.3650312517
0.04  -0.44  12.0774526307
0.04  -0.42  14.0727855521
0.04  -0.4  16.3977702295
0.04  -0.38  19.1068688928
0.04  -0.36  22.2635415533
0.04  -0.34  25.9417325401
0.04  -0.32  30.2276026287
0.04  -0.3  35.2215473376
0.04  -0.28  41.0405486697
0.04  -0.26  47.8209153894
0.04  -0.24  55.7214760231
0.04  -0.22  64.9272993818
0.04  -0.2  56.4749060494
0.04  -0.18  56.538849177
0.04  -0.16  56.0902606939
0.04  -0.14  55.1675778763
0.04  -0.12  53.8524943726
0.04  -0.1  52.2680656351
0.04  -0.08  50.5741026856
0.04  -0.06  48.9574652151
0.04  -0.04  47.6143506025
0.04  -0.02  46.7230572042
0.04  6.17561557e-16  46.4105335156
0.04  0.02  46.7230572042
0.04  0.04  47.6143506025
0.04  0.06  48.9574652151
0.04  0.08  50.5741026856
0.04  0.1  52.2680656351
0.04  0.12  53.8524943726
0.04  0.14  55.1675778763
0.04  0.16  56.0902606939
0.04  0.18  56.538849177
0.04  0.2  75.6540297544
0.04  0.22  64.9272993818
0.04  0.24  55.7214760231
0.04  0.26  47.8209153894
0.04  0.28  41.0405486697
0.04  0.3  35.2215473376
0.04  0.32  30.2276026287
0.04  0.34  25.9417325401
0.04  0.36  22.2635415533
0.04  0.38  19.1068688928
0.04  0.4  16.3977702295
0.04  0.42  14.0727855521
0.04  0.44  12.0774526307
0.04  0.46  10.3650312517
0.04  0.48  8.89540833932
0.04  0.5  7.63415831576
0.04  0.52  6.5517366901
0.04  0.54  5.62278798538
0.04  0.56  4.82555179244
0.04  0.58  4.14135303734
0.04  0.6  3.55416452202
0.04  0.62  3.05023149094
0.04  0.64  2.61774942907
0.04  0.66  2.24658754384
0.04  0.68  1.9280514537
0.04  0.7  1.6546795242
0.04  0.72  1.42006808094
0.04  0.74  1.21872140497
0.04  0.76  1.04592299683
0.04  0.78  0.897625093682
0.04  0.8  0.770353851332
0.04  0.82  0.661127970284
0.04  0.84  0.567388859466
0.04  0.86  0.486940701824
0.04  0.88  0.41789901782
0.04  0.9  0.35864652193
0.04  0.92  0.307795238101
0.04  0.94  0.264153986739
0.04  0.96  0.226700481594
0.04  0.98  0.194557382948
0.06  -1  0.184043428698
0.06  -0.98  0.214449502188
0.06  -0.96  0.249879005808
0.06  -0.94  0.29116186751
0.06  -0.92  0.339265128809
0.06  -0.9  0.395315597505
0.06  -0.88  0.460626242903
0.06  -0.86  0.536726951806
0.06  -0.84  0.625400365772
0.06  -0.82  0.728723639071
0.06  -0.8  0.84911709555
0.06  -0.78  0.989400924162
0.06  -0.76  1.15286124124
0.06  -0.74  1.34332706701
0.06  -0.72  1.56526001952
0.06  -0.7  1.82385882699
0.06  -0.68  2.12518110684
0.06  -0.66  2.476285264
0.06  -0.64  2.88539583237
0.06  -0.62  3.36209613266
0.06  -0.6  3.91755275946
0.06  -0.58  4.56477715615
0.06  -0.56  5.31893040496
0.06  -0.54  6.1976783718
0.06  -0.52  7.22160552515
0.06  -0.5  8.41469712242
0.06  -0.48  9.80490105911
0.06  -0.46  11.4247825418
0.06  -0.44  13.3122869207
0.06  -0.42  15.5116285505
0.06  -0.4  18.0743265017
0.06  -0.38  21.0604113827
0.06  -0.36  24.5398315433
0.06  -0.34  28.5940915981
0.06  -0.32  33.3181616541
0.06  -0.3  38.8227019626
0.06  -0.28  45.2366551111
0.06  -0.26  52.7102664726
0.06  -0.24  61.4186036699
0.06  -0.22  71.5656574932
0.06  -0.2  62.2490665987
0.06  -0.18  62.3195474598
0.06  -0.16  61.8250939703
0.06  -0.14  60.8080733468
0.06  -0.12  59.3585318366
0.06  -0.1  57.6121064435
0.06  -0.08  55.7449477382
0.06  -0.06  53.9630204964
0.06  -0.04  52.4825818942
0.06  -0.02  51.5001600366
0.06  6.17561557e-16  51.1556830066
0.06  0.02  51.5001600366
0.06  0.04  52.4825818942
0.06  0.06  53.9630204964
0.06  0.08  55.7449477382
0.06  0.1  57.6121064435
0.06  0.12  59.3585318366
0.06  0.14  60.8080733468
0.06  0.16  61.8250939703
0.06  0.18  62.3195474598
0.06  0.2  83.3891203382
0.06  0.22  71.5656574932
0.06  0.24  61.4186036699
0.06  0.26  52.7102664726
0.06  0.28  45.2366551111
0.06  0.3  38.8227019626
0.06  0.32  33.3181616541
0.06  0.34  28.5940915981
0.06  0.36  24.5398315433
0.06  0.38  21.0604113827
0.06  0.4  18.0743265017
0.06  0.42  15.5116285505
0.06  0.44  13.3122869207
0.06  0.46  11.4247825418
0.06  0.48  9.80490105911
0.06  0.5  8.41469712242
0.06  0.52  7.22160552515
0.06  0.54  6.1976783718
0.06  0.56  5.31893040496
0.06  0.58  4.56477715615
0.06  0.6  3.91755275946
0.06  0.62  3.36209613266
0.06  0.64  2.88539583237
0.06  0.66  2.476285264
0.06  0.68  2.12518110684
0.06  0.7  1.82385882699
0.06  0.72  1.56526001952
0.06  0.74  1.34332706701
0.06  0.76  1.15286124124
0.06  0.78  0.989400924162
0.06  0.8  0.84911709555
0.06  0.82  0.728723639071
0.06  0.84  0.625400365772
0.06  0.86  0.536726951806
0.06  0.88  0.460626242903
0.06  0.9  0.395315597505
0.06  0.92  0.339265128809
0.06  0.94  0.29116186751
0.06  0.96  0.249879005808
0.06  0.98  0.214449502188
0.08  -1  0.197960189507
0.08  -0.98  0.230665470607
0.08  -0.96  0.268774037158
0.08  -0.94  0.313178573542
0.08  -0.92  0.364919245784
0.08  -0.9  0.425208067198
0.08  -0.88  0.495457289521
0.08  -0.86  0.577312484584
0.08  -0.84  0.672691091455
0.08  -0.82  0.783827332
0.08  -0.8  0.913324547026
0.08  -0.78  1.06421617893
0.08  -0.76  1.24003682938
0.08  -0.74  1.44490505657
0.08  -0.72  1.68361985148
0.08  -0.7  1.96177305312
0.08  -0.68  2.28588033609
0.08  -0.66  2.66353383874
0.08  -0.64  3.10358000728
0.08  -0.62  3.61632682172
0.08  -0.6  4.21378525792
0.08  -0.58  4.90995064198
0.08  -0.56  5.72113048745
0.08  -0.54  6.66632649514
0.08  -0.52  7.76767966353
0.08  -0.5  9.05098893659
0.08  -0.48  10.5463155381
0.08  -0.46  12.2886871488
0.08  -0.44  14.3189184218
0.08  -0.42  16.6845670565
0.08  -0.4  19.4410478266
0.08  -0.38  22.6529306583
0.08  -0.36  26.3954531663
0.08  -0.34  30.7562830772
0.08  -0.32  35.837571826
0.08  -0.3  41.7583474295
0.08  -0.28  48.657302691
0.08  -0.26  56.6960440463
0.08  -0.24  66.0628771576
0.08  -0.22  76.9772179303
0.08  -0.2  66.9561369709
0.08  -0.18  67.0319473637
0.08  -0.16  66.5001049222
0.08  -0.14  65.4061805327
0.08  -0.12  63.8470294449
0.08  -0.1  61.9685450881
0.08  -0.08  59.9601979619
0.08  -0.06  58.0435272229
0.08  -0.04  56.4511427063
0.08  -0.02  55.3944333281
0.08  6.17561557e-16  55.0239080742
0.08  0.02  55.3944333281
0.08  0.04  56.4511427063
0.08  0.06  58.0435272229
0.08  0.08  59.9601979619
0.08  0.1  61.9685450881
0.08  0.12  63.8470294449
0.08  0.14  65.4061805327
0.08  0.16  66.5001049222
0.08  0.18  67.0319473637
0.08  0.2  89.69473228
0.08  0.22  76.9772179303
0.08  0.24  66.0628771576
0.08  0.26  56.6960440463
0.08  0.28  48.657302691
0.08  0.3  41.7583474295
0.08  0.32  35.837571826
0.08  0.34  30.7562830772
0.08  0.36  26.3954531663
0.08  0.38  22.6529306583
0.08  0.4  19.4410478266
0.08  0.42  16.6845670565
0.08  0.44  14.3189184218
0.08  0.46  12.2886871488
0.08  0.48  10.5463155381
0.08  0.5  9.05098893659
0.08  0.52  7.76767966353
0.08  0.54  6.66632649514
0.08  0.56  5.72113048745
0.08  0.58  4.90995064198
0.08  0.6  4.21378525792
0.08  0.62  3.61632682172
0.08  0.64  3.10358000728
0.08  0.66  2.66353383874
0.08  0.68  2.28588033609
0.08  0.7  1.96177305312
0.08  0.72  1.68361985148
0.08  0.74  1.44490505657
0.08  0.76  1.24003682938
0.08  0.78  1.06421617893
0.08  0.8  0.913324547026
0.08  0.82  0.783827332
0.08  0.84  0.672691091455
0.08  0.86  0.577312484584
0.08  0.88  0.495457289521
0.08  0.9  0.425208067198
0.08  0.92  0.364919245784
0.08  0.94  0.313178573542
0.08  0.96  0.268774037158
0.08  0.98  0.230665470607
0.1  -1  0.208483463711
0.1  -0.98  0.24292730973
0.1  -0.96  0.283061671955
0.1  -0.94  0.329826688562
0.1  -0.92  0.384317819282
0.1  -0.9  0.447811506284
0.1  -0.88  0.521795074542
0.1  -0.86  0.608001572081
0.1  -0.84  0.708450366224
0.1  -0.82  0.825494446807
0.1  -0.8  0.961875544424
0.1  -0.78  1.12078835483
0.1  -0.76  1.30595537397
0.1  -0.74  1.52171409655
0.1  -0.72  1.77311862089
0.1  -0.7  2.06605804
0.1  -0.68  2.4073943922
0.1  -0.66  2.80512340282
0.1  -0.64  3.26856178221
0.1  -0.62  3.80856546753
0.1  -0.6  4.43778392057
0.1  -0.58  5.17095643846
0.1  -0.56  6.02525741836
0.1  -0.54  7.02069866369
0.1  -0.52  8.18059815604
0.1  -0.5  9.53212627352
0.1  -0.48  11.1069422506
0.1  -0.46  12.9419357883
0.1  -0.44  15.080091187
0.1  -0.42  17.571494244
0.1  -0.4  20.4745055011
0.1  -0.38  23.8571273276
0.1  -0.36  27.7985968595
0.1  -0.34  32.3912421118
0.1  -0.32  37.7426447402
0.1  -0.3  43.9781601172
0.1  -0.28  51.2438537522
0.1  -0.26  59.7099228432
0.1  -0.24  69.5746831059
0.1  -0.22  81.0692142745
0.1  -0.2  70.5154273047
0.1  -0.18  70.5952676672
0.1  -0.16  70.0351532591
0.1  -0.14  68.8830774487
0.1  -0.12  67.241044169
0.1  -0.1  65.2627023306
0.1  -0.08  63.1475944079
0.1  -0.06  61.1290362551
0.1  -0.04  59.4520029061
0.1  -0.02  58.3391204025
0.1  6.17561557e-16  57.948898568
0.1  0.02  58.3391204025
0.1  0.04  59.4520029061
0.1  0.06  61.1290362551
0.1  0.08  63.1475944079
0.1  0.1  65.2627023306
0.1  0.12  67.241044169
0.1  0.14  68.8830774487
0.1  0.16  70.0351532591
0.1  0.18  70.5952676672
0.1  0.2  94.4627730906
0.1  0.22  81.0692142745
0.1  0.24  69.5746831059
0.1  0.26  59.7099228432
0.1  0.28  51.2438537522
0.1  0.3  43.9781601172
0.1  0.32  37.7426447402
0.1  0.34  32.3912421118
0.1  0.36  27.7985968595
0.1  0.38  23.8571273276
0.1  0.4  20.4745055011
0.1  0.42  17.571494244
0.1  0.44  15.080091187
0.1  0.46  12.9419357883
0.1  0.48  11.1069422506
0.1  0.5  9.53212627352
0.1  0.52  8.18059815604
0.1  0.54  7.02069866369
0.1  0.56  6.02525741836
0.1  0.58  5.17095643846
0.1  0.6  4.43778392057
0.1  0.62  3.80856546753
0.1  0.64  3.26856178221
0.1  0.66  2.80512340282
0.1  0.68  2.4073943922
0.1  0.7  2.06605804
0.1  0.72  1.77311862089
0.1  0.74  1.52171409655
0.1  0.76  1.30595537397
0.1  0.78  1.12078835483
0.1  0.8  0.961875544424
0.1  0.82  0.825494446807
0.1  0.84  0.708450366224
0.1  0.86  0.608001572081
0.1  0.88  0.521795074542
0.1  0.9  0.447811506284
0.1  0.92  0.384317819282
0.1  0.94  0.329826688562
0.1  0.96  0.283061671955
0.1  0.98  0.24292730973
0.12  -1  0.215432858524
0.12  -0.98  0.251024823827
0.12  -0.96  0.292496987734
0.12  -0.94  0.340820826121
0.12  -0.92  0.397128313757
0.12  -0.9  0.462738440554
0.12  -0.88  0.5391881086
0.12  -0.86  0.628268133738
0.12  -0.84  0.732065195012
0.12  -0.82  0.853010714645
0.12  -0.8  0.993937813539
0.12  -0.78  1.15814767649
0.12  -0.76  1.34948688165
0.12  -0.74  1.57243750579
0.12  -0.72  1.83222211586
0.12  -0.7  2.13492610642
0.12  -0.68  2.48764024866
0.12  -0.66  2.89862679
0.12  -0.64  3.37751299538
0.12  -0.62  3.93551666374
0.12  -0.6  4.5857089023
0.12  -0.58  5.34332031431
0.12  -0.56  6.22609777235
0.12  -0.54  7.2547201348
0.12  -0.52  8.45328264327
0.12  -0.5  9.84986134808
0.12  -0.48  11.4771707833
0.12  -0.46  13.3733302972
0.12  -0.44  15.582756989
0.12  -0.42  18.1572061695
0.12  -0.4  21.1569837169
0.12  -0.38  24.6523587285
0.12  -0.36  28.7252095577
0.12  -0.34  33.4709417961
0.12  -0.32  39.0007231266
0.12  -0.3  45.4440874017
0.12  -0.28  52.9519689435
0.12  -0.26  61.7002381456
0.12  -0.24  71.8938211964
0.12  -0.22  83.771500428
0.12  -0.2  72.8659232916
0.12  -0.18  72.9484249788
0.12  -0.16  72.3696402355
0.12  -0.14  71.1791621964
0.12  -0.12  69.4823948991
0.12  -0.1  67.438108845
0.12  -0.08  65.2524978724
0.12  -0.06  63.1666549705
0.12  -0.04  61.433720944
0.12  -0.02  60.2837426451
0.12  6.17561557e-16  59.8805135171
0.12  0.02  60.2837426451
0.12  0.04  61.433720944
0.12  0.06  63.1666549705
0.12  0.08  65.2524978724
0.12  0.1  67.438108845
0.12  0.12  69.4823948991
0.12  0.14  71.1791621964
0.12  0.16  72.3696402355
0.12  0.18  72.9484249788
0.12  0.2  97.611507737
0.12  0.22  83.771500428
0.12  0.24  71.8938211964
0.12  0.26  61.7002381456
0.12  0.28  52.9519689435
0.12  0.3  45.4440874017
0.12  0.32  39.0007231266
0.12  0.34  33.4709417961
0.12  0.36  28.7252095577
0.12  0.38  24.6523587285
0.12  0.4  21.1569837169
0.12  0.42  18.1572061695
0.12  0.44  15.582756989
0.12  0.46  13.3733302972
0.12  0.48  11.4771707833
0.12  0.5  9.84986134808
0.12  0.52  8.45328264327
0.12  0.54  7.2547201348
0.12  0.56  6.22609777235
0.12  0.58  5.34332031431
0.12  0.6  4.5857089023
0.12  0.62  3.93551666374
0.12  0.64  3.37751299538
0.12  0.66  2.89862679
0.12  0.68  2.48764024866
0.12  0.7  2.13492610642
0.12  0.72  1.83222211586
0.12  0.74  1.57243750579
0.12  0.76  1.34948688165
0.12  0.78  1.15814767649
0.12  0.8  0.99393781354
0.12  0.82  0.853010714645
0.12  0.84  0.732065195012
0.12  0.86  0.628268133738
0.12  0.88  0.5391881086
0.12  0.9  0.462738440554
0.12  0.92  0.397128313757
0.12  0.94  0.340820826121
0.12  0.96  0.292496987734
0.12  0.98  0.251024823827
0.14  -1  0.21868924556
0.14  -0.98  0.254819203141
0.14  -0.96  0.296918241786
0.14  -0.94  0.345972521769
0.14  -0.92  0.403131128282
0.14  -0.9  0.469732988502
0.14  -0.88  0.547338235644
0.14  -0.86  0.637764754724
0.14  -0.84  0.743130766097
0.14  -0.82  0.865904444279
0.14  -0.8  1.00896173437
0.14  -0.78  1.17565372039
0.14  -0.76  1.36988512367
0.14  -0.74  1.59620577003
0.14  -0.72  1.85991716843
0.14  -0.7  2.16719669756
0.14  -0.68  2.5252423095
0.14  -0.66  2.94244114015
0.14  -0.64  3.4285659759
0.14  -0.62  3.99500417892
0.14  -0.6  4.65502443346
0.14  -0.58  5.42408756177
0.14  -0.56  6.32020869027
0.14  -0.54  7.36437924973
0.14  -0.52  8.58105869467
0.14  -0.5  9.9987474605
0.14  -0.48  11.6506545796
0.14  -0.46  13.5754755953
0.14  -0.44  15.8182989958
0.14  -0.42  18.4316624022
0.14  -0.4  21.4767832496
0.14  -0.38  25.0249927914
0.14  -0.36  29.1594070178
0.14  -0.34  33.9768736287
0.14  -0.32  39.5902406683
0.14  -0.3  46.1309999649
0.14  -0.28  53.7523672966
0.14  -0.26  62.6328714353
0.14  -0.24  72.9805361426
0.14  -0.22  85.0377530776
0.14  -0.2  73.9673320997
0.14  -0.18  74.0510808456
0.14  -0.16  73.4635474501
0.14  -0.14  72.2550746758
0.14  -0.12  70.5326598006
0.14  -0.1  68.4574732299
0.14  -0.08  66.2388255364
0.14  -0.06  64.1214539632
0.14  -0.04  62.3623256786
0.14  -0.02  61.1949648205
0.14  6.17561557e-16  60.7856406608
0.14  0.02  61.1949648205
0.14  0.04  62.3623256786
0.14  0.06  64.1214539632
0.14  0.08  66.2388255364
0.14  0.1  68.4574732299
0.14  0.12  70.5326598006
0.14  0.14  72.2550746758
0.14  0.16  73.4635474501
0.14  0.18  74.0510808456
0.14  0.2  99.0869597663
0.14  0.22  85.0377530776
0.14  0.24  72.9805361426
0.14  0.26  62.6328714353
0.14  0.28  53.7523672966
0.14  0.3  46.1309999649
0.14  0.32  39.5902406683
0.14  0.34  33.9768736287
0.14  0.36  29.1594070178
0.14  0.38  25.0249927914
0.14  0.4  21.4767832496
0.14  0.42  18.4316624022
0.14  0.44  15.8182989958
0.14  0.46  13.5754755953
0.14  0.48  11.6506545796
0.14  0.5  9.9987474605
0.14  0.52  8.58105869467
0.14  0.54  7.36437924973
0.14  0.56  6.32020869027
0.14  0.58  5.42408756177
0.14  0.6  4.65502443346
0.14  0.62  3.99500417892
0.14  0.64  3.4285659759
0.14  0.66  2.94244114015
0.14  0.68  2.5252423095
0.14  0.7  2.16719669756
0.14  0.72  1.85991716843
0.14  0.74  1.59620577003
0.14  0.76  1.36988512367
0.14  0.78  1.17565372039
0.14  0.8  1.00896173437
0.14  0.82  0.865904444279
0.14  0.84  0.743130766097
0.14  0.86  0.637764754724
0.14  0.88  0.547338235644
0.14  0.9  0.469732988502
0.14  0.92  0.403131128282
0.14  0.94  0.345972521769
0.14  0.96  0.296918241787
0.14  0.98  0.254819203141
0.16  -1  0.218196802958
0.16  -0.98  0.254245403404
0.16  -0.96  0.296249643789
0.16  -0.94  0.345193463757
0.16  -0.92  0.402223361001
0.16  -0.9  0.468675247713
0.16  -0.88  0.546105744013
0.16  -0.86  0.636328641419
0.16  -0.84  0.741457390494
0.16  -0.82  0.863954607941
0.16  -0.8  1.00668976283
0.16  -0.78  1.17300639324
0.16  -0.76  1.36680042788
0.16  -0.74  1.59261144732
0.16  -0.72  1.85572902261
0.16  -0.7  2.16231662228
0.16  -0.68  2.51955599013
0.16  -0.66  2.93581537597
0.16  -0.64  3.4208455599
0.16  -0.62  3.98600826214
0.16  -0.6  4.64454228863
0.16  -0.58  5.41187364707
0.16  -0.56  6.30597689755
0.16  -0.54  7.34779620253
0.16  -0.52  8.56173593894
0.16  -0.5  9.97623236515
0.16  -0.48  11.6244197337
0.16  -0.46  13.5449064536
0.16  -0.44  15.7826794833
0.16  -0.42  18.39015814
0.16  -0.4  21.4284220099
0.16  -0.38  24.9686417233
0.16  -0.36  29.0937461106
0.16  -0.34  33.9003647907
0.16  -0.32  39.5010916976
0.16  -0.3  46.0271225675
0.16  -0.28  53.6313281684
0.16  -0.26  62.4918352627
0.16  -0.24  72.8161991857
0.16  -0.22  84.8462657811
0.16  -0.2  73.800773084
0.16  -0.18  73.8843332451
0.16  -0.16  73.2981228525
0.16  -0.14  72.0923713069
0.16  -0.12  70.373834951
0.16  -0.1  68.3033212681
0.16  -0.08  66.0896695067
0.16  -0.06  63.977065813
0.16  -0.04  62.2218987187
0.16  -0.02  61.0571665139
0.16  6.17561557e-16  60.6487640669
0.16  0.02  61.0571665139
0.16  0.04  62.2218987187
0.16  0.06  63.977065813
0.16  0.08  66.0896695067
0.16  0.1  68.3033212681
0.16  0.12  70.373834951
0.16  0.14  72.0923713069
0.16  0.16  73.2981228525
0.16  0.18  73.8843332451
0.16  0.2  98.8638365845
0.16  0.22  84.8462657811
0.16  0.24  72.8161991857
0.16  0.26  62.4918352627
0.16  0.28  53.6313281684
0.16  0.3  46.0271225675
0.16  0.32  39.5010916976
0.16  0.34  33.9003647907
0.16  0.36  29.0937461106
0.16  0.38  24.9686417233
0.16  0.4  21.4284220099
0.16  0.42  18.39015814
0.16  0.44  15.7826794833
0.16  0.46  13.5449064536
0.16  0.48  11.6244197337
0.16  0.5  9.97623236515
0.16  0.52  8.56173593894
0.16  0.54  7.34779620253
0.16  0.56  6.30597689755
0.16  0.58  5.41187364707
0.16  0.6  4.64454228863
0.16  0.62  3.98600826214
0.16  0.64  3.4208455599
0.16  0.66  2.93581537597
0.16  0.68  2.51955599013
0.16  0.7  2.16231662228
0.16  0.72  1.85572902261
0.16  0.74  1.59261144732
0.16  0.76  1.36680042788
0.16  0.78  1.17300639324
0.16  0.8  1.00668976283
0.16  0.82  0.863954607941
0.16  0.84  0.741457390494
0.16  0.86  0.636328641419
0.16  0.88  0.546105744013
0.16  0.9  0.468675247713
0.16  0.92  0.402223361001
0.16  0.94  0.345193463757
0.16  0.96  0.296249643789
0.16  0.98  0.254245403404
0.18  -1  0.213963972301
0.18  -0.98  0.249313260847
0.18  -0.96  0.290502655029
0.18  -0.94  0.338497006907
0.18  -0.92  0.394420573105
0.18  -0.9  0.459583350263
0.18  -0.88  0.535511761409
0.18  -0.86  0.623984412061
0.18  -0.84  0.727073753657
0.18  -0.82  0.847194630249
0.18  -0.8  0.987160845667
0.18  -0.78  1.15025107623
0.18  -0.76  1.34028567297
0.18  -0.74  1.56171615249
0.18  -0.72  1.81972947271
0.18  -0.7  2.12036953615
0.18  -0.68  2.47067876695
0.18  -0.66  2.87886307806
0.18  -0.64  3.35448409282
0.18  -0.62  3.90868312383
0.18  -0.6  4.55444215555
0.18  -0.58  5.30688794439
0.18  -0.56  6.1836463594
0.18  -0.54  7.20525526426
0.18  -0.52  8.39564561194
0.18  -0.5  9.78270202182
0.18  -0.48  11.3989159704
0.18  -0.46  13.2821468966
0.18  -0.44  15.4765090507
0.18  -0.42  18.03340486
0.18  -0.4  21.0127290191
0.18  -0.38  24.4842715093
0.18  -0.36  28.5293524129
0.18  -0.34  33.2427268171
0.18  -0.32  38.7348044302
0.18  -0.3  45.1342359038
0.18  -0.28  52.5909264442
0.18  -0.26  61.2795473076
0.18  -0.24  71.4036274339
0.18  -0.22  83.2003210651
0.18  -0.2  72.3691014438
0.18  -0.18  72.4510406096
0.18  -0.16  71.8762021953
0.18  -0.14  70.6938411946
0.18  -0.12  69.0086429686
0.18  -0.1  66.9782954736
0.18  -0.08  64.807586656
0.18  -0.06  62.7359656602
0.18  -0.04  61.0148473008
0.18  -0.02  59.8727099009
0.18  6.17561557e-16  59.4722301107
0.18  0.02  59.8727099009
0.18  0.04  61.0148473008
0.18  0.06  62.7359656602
0.18  0.08  64.807586656
0.18  0.1  66.9782954736
0.18  0.12  69.0086429686
0.18  0.14  70.6938411946
0.18  0.16  71.8762021953
0.18  0.18  72.4510406096
0.18  0.2  96.945963029
0.18  0.22  83.2003210651
0.18  0.24  71.4036274339
0.18  0.26  61.2795473076
0.18  0.28  52.5909264442
0.18  0.3  45.1342359038
0.18  0.32  38.7348044302
0.18  0.34  33.2427268171
0.18  0.36  28.5293524129
0.18  0.38  24.4842715093
0.18  0.4  21.0127290191
0.18  0.42  18.03340486
0.18  0.44  15.4765090507
0.18  0.46  13.2821468966
0.18  0.48  11.3989159704
0.18  0.5  9.78270202182
0.18  0.52  8.39564561194
0.18  0.54  7.20525526426
0.18  0.56  6.1836463594
0.18  0.58  5.30688794439
0.18  0.6  4.55444215555
0.18  0.62  3.90868312383
0.18  0.64  3.35448409282
0.18  0.66  2.87886307806
0.18  0.68  2.47067876695
0.18  0.7  2.12036953615
0.18  0.72  1.81972947271
0.18  0.74  1.56171615249
0.18  0.76  1.34028567297
0.18  0.78  1.15025107623
0.18  0.8  0.987160845667
0.18  0.82  0.847194630249
0.18  0.84  0.727073753657
0.18  0.86  0.623984412061
0.18  0.88  0.535511761409
0.18  0.9  0.459583350263
0.18  0.92  0.394420573105
0.18  0.94  0.338497006907
0.18  0.96  0.290502655029
0.18  0.98  0.249313260847
0.2  -1  0.206063313908
0.2  -0.98  0.240107323578
0.2  -0.96  0.279775791926
0.2  -0.94  0.325997943677
0.2  -0.92  0.379856522074
0.2  -0.9  0.442613151895
0.2  -0.88  0.515737892719
0.2  -0.86  0.600943674737
0.2  -0.84  0.700226423741
0.2  -0.82  0.815911815229
0.2  -0.8  0.950709752817
0.2  -0.78  1.1077778471
0.2  -0.76  1.29079538197
0.2  -0.74  1.50404950097
0.2  -0.72  1.75253563266
0.2  -0.7  2.04207450735
0.2  -0.68  2.37944850642
0.2  -0.66  2.77256053798
0.2  -0.64  3.23061916071
0.2  -0.62  3.76435429221
0.2  -0.6  4.38626855484
0.2  -0.58  5.11093014677
0.2  -0.56  5.95531409866
0.2  -0.54  6.93919990985
0.2  -0.52  8.08563487856
0.2  -0.5  9.42147397951
0.2  -0.48  10.9780089356
0.2  -0.46  12.7917012191
0.2  -0.44  14.9050361536
0.2  -0.42  17.3675181224
0.2  -0.4  20.2368301979
0.2  -0.38  23.5801853535
0.2  -0.36  27.4759009128
0.2  -0.34  32.0152331142
0.2  -0.32  37.3045147677
0.2  -0.3  43.4676460762
0.2  -0.28  50.6489969691
0.2  -0.26  59.0167889349
0.2  -0.24  68.7670355706
0.2  -0.22  80.128134155
0.2  -0.2  69.696859278
0.2  -0.18  69.7757728253
0.2  -0.16  69.2221604234
0.2  -0.14  68.0834583166
0.2  -0.12  66.4604863401
0.2  -0.1  64.5051097937
0.2  -0.08  62.414554792
0.2  -0.06  60.4194287763
0.2  -0.04  58.7618630237
0.2  -0.02  57.661899254
0.2  6.17561557e-16  57.2762072526
0.2  0.02  57.661899254
0.2  0.04  58.7618630237
0.2  0.06  60.4194287763
0.2  0.08  62.414554792
0.2  0.1  64.5051097937
0.2  0.12  66.4604863401
0.2  0.14  68.0834583166
0.2  0.16  69.2221604234
0.2  0.18  69.7757728253
0.2  0.2  93.366215802
0.2  0.22  80.128134155
0.2  0.24  68.7670355706
0.2  0.26  59.0167889349
0.2  0.28  50.6489969691
0.2  0.3  43.4676460762
0.2  0.32  37.3045147677
0.2  0.34  32.0152331142
0.2  0.36  27.4759009128
0.2  0.38  23.5801853535
0.2  0.4  20.2368301979
0.2  0.42  17.3675181224
0.2  0.44  14.9050361536
0.2  0.46  12.7917012191
0.2  0.48  10.9780089356
0.2  0.5  9.42147397951
0.2  0.52  8.08563487856
0.2  0.54  6.93919990985
0.2  0.56  5.95531409867
0.2  0.58  5.11093014677
0.2  0.6  4.38626855484
0.2  0.62  3.76435429221
0.2  0.64  3.23061916071
0.2  0.66  2.77256053798
0.2  0.68  2.37944850642
0.2  0.7  2.04207450735
0.2  0.72  1.75253563266
0.2  0.74  1.50404950097
0.2  0.76  1.29079538197
0.2  0.78  1.1077778471
0.2  0.8  0.950709752817
0.2  0.82  0.815911815229
0.2  0.84  0.700226423741
0.2  0.86  0.600943674737
0.2  0.88  0.515737892719
0.2  0.9  0.442613151895
0.2  0.92  0.379856522074
0.2  0.94  0.325997943677
0.2  0.96  0.279775791926
0.2  0.98  0.240107323578
0.22  -1  0.19463026298
0.22  -0.98  0.226785402239
0.22  -0.96  0.264252937243
0.22  -0.94  0.307910536357
0.22  -0.92  0.358780868772
0.22  -0.9  0.418055560294
0.22  -0.88  0.4871231069
0.22  -0.86  0.56760139994
0.22  -0.84  0.661375624869
0.22  -0.82  0.770642421279
0.22  -0.8  0.897961338676
0.22  -0.78  1.04631479334
0.22  -0.76  1.21917793072
0.22  -0.74  1.42060002995
0.22  -0.72  1.65529935726
0.22  -0.7  1.92877369025
0.22  -0.68  2.2474291021
0.22  -0.66  2.61873002235
0.22  -0.64  3.05137408942
0.22  -0.62  3.5554958908
0.22  -0.6  4.14290436343
0.22  -0.58  4.8273594153
0.22  -0.56  5.62489424814
0.22  -0.54  6.55419093149
0.22  -0.52  7.63701802582
0.22  -0.5  8.8987405061
0.22  -0.48  10.3689139304
0.22  -0.46  12.0819767722
0.22  -0.44  14.0780571335
0.22  -0.42  16.4039127362
0.22  -0.4  19.1140262117
0.22  -0.38  22.2718813429
0.22  -0.36  25.951450158
0.22  -0.34  30.2389257079
0.22  -0.32  35.2347411186
0.22  -0.3  41.0559222139
0.22  -0.28  47.8388288184
0.22  -0.26  55.7423489549
0.22  -0.24  64.95162076
0.22  -0.22  75.6823693016
0.22  -0.2  65.8298548777
0.22  -0.18  65.9043900493
0.22  -0.16  65.381493832
0.22  -0.14  64.3059705557
0.22  -0.12  62.773046249
0.22  -0.1  60.9261602399
0.22  -0.08  58.951595908
0.22  -0.06  57.0671658572
0.22  -0.04  55.5015671476
0.22  -0.02  54.4626328817
0.22  6.17561557e-16  54.0983403046
0.22  0.02  54.4626328817
0.22  0.04  55.5015671476
0.22  0.06  57.0671658572
0.22  0.08  58.951595908
0.22  0.1  60.9261602399
0.22  0.12  62.773046249
0.22  0.14  64.3059705557
0.22  0.16  65.381493832
0.22  0.18  65.9043900493
0.22  0.2  88.1859598897
0.22  0.22  75.6823693016
0.22  0.24  64.95162076
0.22  0.26  55.7423489549
0.22  0.28  47.8388288184
0.22  0.3  41.0559222139
0.22  0.32  35.2347411186
0.22  0.34  30.2389257079
0.22  0.36  25.951450158
0.22  0.38  22.2718813429
0.22  0.4  19.1140262117
0.22  0.42  16.4039127362
0.22  0.44  14.0780571335
0.22  0.46  12.0819767722
0.22  0.48  10.3689139304
0.22  0.5  8.8987405061
0.22  0.52  7.63701802582
0.22  0.54  6.55419093149
0.22  0.56  5.62489424814
0.22  0.58  4.8273594153
0.22  0.6  4.14290436343
0.22  0.62  3.5554958908
0.22  0.64  3.05137408942
0.22  0.66  2.61873002235
0.22  0.68  2.2474291021
0.22  0.7  1.92877369025
0.22  0.72  1.65529935726
0.22  0.74  1.42060002995
0.22  0.76  1.21917793072
0.22  0.78  1.04631479334
0.22  0.8  0.897961338676
0.22  0.82  0.770642421279
0.22  0.84  0.661375624869
0.22  0.86  0.56760139994
