-0.08  0.86  0.0149363208726
-0.08  0.88  0.0121020593009
-0.08  0.9  0.00980561682975
-0.08  0.92  0.00794493887537
-0.08  0.94  0.00643733635827
-0.08  0.96  0.00521581097595
-0.08  0.98  0.00422607777857
-0.06  -1  0.00429463763113
-0.06  -0.98  0.00530042731532
-0.06  -0.96  0.00654176955962
-0.06  -0.94  0.00807382998113
-0.06  -0.92  0.00996469379883
-0.06  -0.9  0.012298391561
-0.06  -0.88  0.0151786334874
-0.06  -0.86  0.0187334183826
-0.06  -0.84  0.0231207219405
-0.06  -0.82  0.0285355172308
-0.06  -0.8  0.0352184393603
-0.06  -0.78  0.0434664793683
-0.06  -0.76  0.0536461825963
-0.06  -0.74  0.0662099380712
-0.06  -0.72  0.0817160828085
-0.06  -0.7  0.100853714474
-0.06  -0.68  0.124473315088
-0.06  -0.66  0.153624546699
-0.06  -0.64  0.189602898676
-0.06  -0.62  0.23400725964
-0.06  -0.6  0.288810972545
-0.06  -0.58  0.356449530629
-0.06  -0.56  0.439928811451
-0.06  -0.54  0.542958658981
-0.06  -0.52  0.670117750166
-0.06  -0.5  0.827057072687
-0.06  -0.48  1.02075105653
-0.06  -0.46  1.25980751972
-0.06  -0.44  1.5548502023
-0.06  -0.42  1.91899088848
-0.06  -0.4  2.36841209825
-0.06  -0.38  2.92308624329
-0.06  -0.36  3.60766320693
-0.06  -0.34  4.45256579225
-0.06  -0.32  5.49534172043
-0.06  -0.3  6.78233226263
-0.06  -0.28  8.37073165982
-0.06  -0.26  10.3311288518
-0.06  -0.24  12.7506444704
-0.06  -0.22  15.7368025067
-0.06  -0.2  14.1539326482
-0.06  -0.18  14.1823417123
-0.06  -0.16  14.387145982
-0.06  -0.14  14.740191961
-0.06  -0.12  15.195709099
-0.06  -0.1  15.6992976527
-0.06  -0.08  16.1961633296
-0.06  -0.06  16.637001498
-0.06  -0.04  16.9815015836
-0.06  -0.02  17.2001479105
-0.06  6.17561557e-16  17.2750287776
-0.06  0.02  17.2001479105
-0.06  0.04  16.9815015836
-0.06  0.06  16.637001498
-0.06  0.08  16.1961633296
-0.06  0.1  15.6992976527
-0.06  0.12  15.195709099
-0.06  0.14  14.740191961
-0.06  0.16  14.387145982
-0.06  0.18  14.1823417123
-0.06  0.2  19.4223087083
-0.06  0.22  15.7368025067
-0.06  0.24  12.7506444704
-0.06  0.26  10.3311288518
-0.06  0.28  8.37073165982
-0.06  0.3  6.78233226263
-0.06  0.32  5.49534172042
-0.06  0.34  4.45256579225
-0.06  0.36  3.60766320693
-0.06  0.38  2.92308624329
-0.06  0.4  2.36841209825
-0.06  0.42  1.91899088848
-0.06  0.44  1.5548502023
-0.06  0.46  1.25980751972
-0.06  0.48  1.02075105653
-0.06  0.5  0.827057072687
-0.06  0.52  0.670117750166
-0.06  0.54  0.542958658981
-0.06  0.56  0.439928811451
-0.06  0.58  0.356449530629
-0.06  0.6  0.288810972545
-0.06  0.62  0.234007259639
-0.06  0.64  0.189602898676
-0.06  0.66  0.153624546699
-0.06  0.68  0.124473315088
-0.06  0.7  0.100853714474
-0.06  0.72  0.0817160828085
-0.06  0.74  0.0662099380712
-0.06  0.76  0.0536461825963
-0.06  0.78  0.0434664793683
-0.06  0.8  0.0352184393603
-0.06  0.82  0.0285355172307
-0.06  0.84  0.0231207219405
-0.06  0.86  0.0187334183826
-0.06  0.88  0.0151786334874
-0.06  0.9  0.012298391561
-0.06  0.92  0.00996469379883
-0.06  0.94  0.00807382998112
-0.06  0.96  0.00654176955962
-0.06  0.98  0.00530042731532
-0.04  -1  0.00538641638941
-0.04  -0.98  0.00664789698556
-0.04  -0.96  0.00820481209317
-0.04  -0.94  0.0101263514808
-0.04  -0.92  0.0124979089282
-0.04  -0.9  0.0154248771508
-0.04  -0.88  0.0190373314835
-0.04  -0.86  0.0234958104671
-0.04  -0.84  0.0289984502283
-0.04  -0.82  0.0357897897084
-0.04  -0.8  0.0441716380457
-0.04  -0.78  0.0545164870634
-0.04  -0.76  0.0672840649165
-0.04  -0.74  0.0830417665471
-0.04  -0.72  0.102489868884
-0.04  -0.7  0.126492651356
-0.04  -0.68  0.156116804727
-0.04  -0.66  0.192678835149
-0.04  -0.64  0.237803570086
-0.04  -0.62  0.293496366125
-0.04  -0.6  0.362232227623
-0.04  -0.58  0.447065796625
-0.04  -0.56  0.551767102071
-0.04  -0.54  0.680989100992
-0.04  -0.52  0.8404744573
-0.04  -0.5  1.03731074748
-0.04  -0.48  1.28024543457
-0.04  -0.46  1.58007460805
-0.04  -0.44  1.9501227652
-0.04  -0.42  2.40683495574
-0.04  -0.4  2.97050760474
-0.04  -0.38  3.66619049169
-0.04  -0.36  4.52479997018
-0.04  -0.34  5.58449289981
-0.04  -0.32  6.89236234828
-0.04  -0.3  8.50653042134
-0.04  -0.28  10.4987312263
-0.04  -0.26  12.9574987573
-0.04  -0.24  15.9921013716
-0.04  -0.22  19.7373977084
-0.04  -0.2  17.7521321562
-0.04  -0.18  17.787763346
-0.04  -0.16  18.0446327654
-0.04  -0.14  18.4874297626
-0.04  -0.12  19.058748041
-0.04  -0.1  19.6903584054
-0.04  -0.08  20.3135368096
-0.04  -0.06  20.8664444445
-0.04  -0.04  21.2985230194
-0.04  -0.02  21.5727534108
-0.04  6.17561557e-16  21.6666704219
-0.04  0.02  21.5727534108
-0.04  0.04  21.2985230194
-0.04  0.06  20.8664444445
-0.04  0.08  20.3135368096
-0.04  0.1  19.6903584054
-0.04  0.12  19.058748041
-0.04  0.14  18.4874297626
-0.04  0.16  18.0446327654
-0.04  0.18  17.787763346
-0.04  0.2  24.3598298465
-0.04  0.22  19.7373977084
-0.04  0.24  15.9921013715
-0.04  0.26  12.9574987573
-0.04  0.28  10.4987312263
-0.04  0.3  8.50653042134
-0.04  0.32  6.89236234827
-0.04  0.34  5.5844928998
-0.04  0.36  4.52479997018
-0.04  0.38  3.66619049169
-0.04  0.4  2.97050760474
-0.04  0.42  2.40683495574
-0.04  0.44  1.95012276519
-0.04  0.46  1.58007460805
-0.04  0.48  1.28024543457
-0.04  0.5  1.03731074748
-0.04  0.52  0.8404744573
-0.04  0.54  0.680989100991
-0.04  0.56  0.551767102071
-0.04  0.58  0.447065796625
-0.04  0.6  0.362232227623
-0.04  0.62  0.293496366125
-0.04  0.64  0.237803570086
-0.04  0.66  0.192678835149
-0.04  0.68  0.156116804727
-0.04  0.7  0.126492651356
-0.04  0.72  0.102489868884
-0.04  0.74  0.083041766547
-0.04  0.76  0.0672840649165
-0.04  0.78  0.0545164870634
-0.04  0.8  0.0441716380457
-0.04  0.82  0.0357897897084
-0.04  0.84  0.0289984502283
-0.04  0.86  0.0234958104671
-0.04  0.88  0.0190373314835
-0.04  0.9  0.0154248771508
-0.04  0.92  0.0124979089282
-0.04  0.94  0.0101263514808
-0.04  0.96  0.00820481209316
-0.04  0.98  0.00664789698556
-0.02  -1  0.00675574612158
-0.02  -0.98  0.00833791913399
-0.02  -0.96  0.0102906317428
-0.02  -0.94  0.0127006630748
-0.02  -0.92  0.0156751156363
-0.02  -0.9  0.0193461749805
-0.02  -0.88  0.0238769840719
-0.02  -0.86  0.029468893409
-0.02  -0.84  0.0363704090993
-0.02  -0.82  0.0448882365444
-0.02  -0.8  0.0554009105196
-0.02  -0.78  0.0683756173705
-0.02  -0.76  0.0843889569134
-0.02  -0.74  0.104152566701
-0.02  -0.72  0.128544747408
-0.02  -0.7  0.158649494771
-0.02  -0.68  0.19580467268
-0.02  -0.66  0.24166146825
-0.02  -0.64  0.29825777106
-0.02  -0.62  0.368108737573
-0.02  -0.6  0.454318565435
-0.02  -0.58  0.560718444935
-0.02  -0.56  0.692036818238
-0.02  -0.54  0.854109512756
-0.02  -0.52  1.05413908705
-0.02  -0.5  1.30101491465
-0.02  -0.48  1.60570823048
-0.02  -0.46  1.98175969576
-0.02  -0.44  2.44588114901
-0.02  -0.42  3.0186982851
-0.02  -0.4  3.72566726725
-0.02  -0.38  4.59820600648
-0.02  -0.36  5.67509038283
-0.02  -0.34  7.00417745702
-0.02  -0.32  8.64453225236
-0.02  -0.3  10.6690526219
-0.02  -0.28  13.1677088506
-0.02  -0.26  16.2515419615
-0.02  -0.24  20.0575984117
-0.02  -0.22  24.7550204772
-0.02  -0.2  22.2650625748
-0.02  -0.18  22.3097518923
-0.02  -0.16  22.6319224151
-0.02  -0.14  23.1872868504
-0.02  -0.12  23.9038451267
-0.02  -0.1  24.6960228867
-0.02  -0.08  25.4776251214
-0.02  -0.06  26.1710924176
-0.02  -0.04  26.7130136034
-0.02  -0.02  27.0569585882
-0.02  6.17561557e-16  27.1747510939
-0.02  0.02  27.0569585882
-0.02  0.04  26.7130136034
-0.02  0.06  26.1710924176
-0.02  0.08  25.4776251214
-0.02  0.1  24.6960228867
-0.02  0.12  23.9038451267
-0.02  0.14  23.1872868504
-0.02  0.16  22.6319224151
-0.02  0.18  22.3097518923
-0.02  0.2  30.5525629863
-0.02  0.22  24.7550204772
-0.02  0.24  20.0575984116
-0.02  0.26  16.2515419615
-0.02  0.28  13.1677088506
-0.02  0.3  10.6690526219
-0.02  0.32  8.64453225235
-0.02  0.34  7.00417745702
-0.02  0.36  5.67509038283
-0.02  0.38  4.59820600648
-0.02  0.4  3.72566726725
-0.02  0.42  3.0186982851
-0.02  0.44  2.44588114901
-0.02  0.46  1.98175969576
-0.02  0.48  1.60570823048
-0.02  0.5  1.30101491465
-0.02  0.52  1.05413908705
-0.02  0.54  0.854109512756
-0.02  0.56  0.692036818237
-0.02  0.58  0.560718444934
-0.02  0.6  0.454318565435
-0.02  0.62  0.368108737573
-0.02  0.64  0.29825777106
-0.02  0.66  0.24166146825
-0.02  0.68  0.19580467268
-0.02  0.7  0.158649494771
-0.02  0.72  0.128544747408
-0.02  0.74  0.104152566701
-0.02  0.76  0.0843889569134
-0.02  0.78  0.0683756173705
-0.02  0.8  0.0554009105196
-0.02  0.82  0.0448882365444
-0.02  0.84  0.0363704090992
-0.02  0.86  0.029468893409
-0.02  0.88  0.0238769840719
-0.02  0.9  0.0193461749805
-0.02  0.92  0.0156751156363
-0.02  0.94  0.0127006630748
-0.02  0.96  0.0102906317428
-0.02  0.98  0.00833791913398
2.8449465e-16  -1  0.0084731855764
2.8449465e-16  -0.98  0.0104575771309
2.8449465e-16  -0.96  0.0129067065111
2.8449465e-16  -0.94  0.0159294137523
2.8449465e-16  -0.92  0.0196600288596
2.8449465e-16  -0.9  0.0242643414736
2.8449465e-16  -0.88  0.0299469686109
2.8449465e-16  -0.86  0.036960447905
2.8449465e-16  -0.84  0.0456164604533
2.8449465e-16  -0.82  0.0562996820178
2.8449465e-16  -0.8  0.0694848781298
2.8449465e-16  -0.78  0.0857580028105
2.8449465e-16  -0.76  0.105842238541
2.8449465e-16  -0.74  0.130630134709
2.8449465e-16  -0.72  0.161223272761
2.8449465e-16  -0.7  0.198981220816
2.8449465e-16  -0.68  0.245581953272
2.8449465e-16  -0.66  0.303096420484
2.8449465e-16  -0.64  0.374080582413
2.8449465e-16  -0.62  0.461688996244
2.8449465e-16  -0.6  0.569815005842
2.8449465e-16  -0.58  0.703263763104
2.8449465e-16  -0.56  0.867965770338
2.8449465e-16  -0.54  1.07124043354
2.8449465e-16  -0.52  1.32212133895
2.8449465e-16  -0.5  1.63175770834
2.8449465e-16  -0.48  2.0139098737
2.8449465e-16  -0.46  2.48556079045
2.8449465e-16  -0.44  3.06767076506
2.8449465e-16  -0.42  3.78610893726
2.8449465e-16  -0.4  4.67280291225
2.8449465e-16  -0.38  5.76715763296
2.8449465e-16  -0.36  7.11780654738
2.8449465e-16  -0.34  8.78477289337
2.8449465e-16  -0.32  10.8421371492
2.8449465e-16  -0.3  13.3813291919
2.8449465e-16  -0.28  16.515191468
2.8449465e-16  -0.26  20.3829937455
2.8449465e-16  -0.24  25.1566223035
2.8449465e-16  -0.22  31.0482186091
2.8449465e-16  -0.2  27.9252659397
2.8449465e-16  -0.18  27.9813161337
2.8449465e-16  -0.16  28.3853885451
2.8449465e-16  -0.14  29.0819372073
2.8449465e-16  -0.12  29.9806582579
2.8449465e-16  -0.1  30.9742227064
2.8449465e-16  -0.08  31.9545231296
2.8449465e-16  -0.06  32.8242830327
2.8449465e-16  -0.04  33.5039709149
2.8449465e-16  -0.02  33.9353532718
2.8449465e-16  6.17561557e-16  34.083090878
2.8449465e-16  0.02  33.9353532718
2.8449465e-16  0.04  33.5039709149
2.8449465e-16  0.06  32.8242830327
2.8449465e-16  0.08  31.9545231296
2.8449465e-16  0.1  30.9742227064
2.8449465e-16  0.12  29.9806582579
2.8449465e-16  0.14  29.0819372073
2.8449465e-16  0.16  28.3853885451
2.8449465e-16  0.18  27.9813161337
2.8449465e-16  0.2  38.3196069477
2.8449465e-16  0.22  31.0482186091
2.8449465e-16  0.24  25.1566223035
2.8449465e-16  0.26  20.3829937455
2.8449465e-16  0.28  16.515191468
2.8449465e-16  0.3  13.3813291919
2.8449465e-16  0.32  10.8421371492
2.8449465e-16  0.34  8.78477289337
2.8449465e-16  0.36  7.11780654737
2.8449465e-16  0.38  5.76715763296
2.8449465e-16  0.4  4.67280291225
2.8449465e-16  0.42  3.78610893726
2.8449465e-16  0.44  3.06767076506
2.8449465e-16  0.46  2.48556079045
2.8449465e-16  0.48  2.0139098737
2.8449465e-16  0.5  1.63175770834
2.8449465e-16  0.52  1.32212133895
2.8449465e-16  0.54  1.07124043354
2.8449465e-16  0.56  0.867965770338
2.8449465e-16  0.58  0.703263763104
2.8449465e-16  0.6  0.569815005842
2.8449465e-16  0.62  0.461688996244
2.8449465e-16  0.64  0.374080582413
2.8449465e-16  0.66  0.303096420484
2.8449465e-16  0.68  0.245581953272
2.8449465e-16  0.7  0.198981220816
2.8449465e-16  0.72  0.161223272761
2.8449465e-16  0.74  0.130630134709
2.8449465e-16  0.76  0.105842238541
2.8449465e-16  0.78  0.0857580028104
2.8449465e-16  0.8  0.0694848781298
2.8449465e-16  0.82  0.0562996820178
2.8449465e-16  0.84  0.0456164604533
2.8449465e-16  0.86  0.036960447905
2.8449465e-16  0.88  0.0299469686109
2.8449465e-16  0.9  0.0242643414736
2.8449465e-16  0.92  0.0196600288596
2.8449465e-16  0.94  0.0159294137523
2.8449465e-16  0.96  0.0129067065111
2.8449465e-16  0.98  0.0104575771309
0.02  -1  0.0103053920085
0.02  -0.98  0.0127188801451
0.02  -0.96  0.0156975990833
0.02  -0.94  0.019373923975
0.02  -0.92  0.0239112317877
0.02  -0.9  0.0295111618246
0.02  -0.88  0.0364225766355
0.02  -0.86  0.0449526215421
0.02  -0.84  0.0554803742671
0.02  -0.82  0.0684736912604
0.02  -0.8  0.0845099993783
0.02  -0.78  0.104301956904
0.02  -0.76  0.128729124294
0.02  -0.74  0.158877052103
0.02  -0.72  0.196085523174
0.02  -0.7  0.242008092985
0.02  -0.68  0.298685574141
0.02  -0.66  0.368636730697
0.02  -0.64  0.454970212772
0.02  -0.62  0.561522705885
0.02  -0.6  0.693029434397
0.02  -0.58  0.85533459628
0.02  -0.56  1.05565108101
0.02  -0.54  1.30288101251
0.02  -0.52  1.60801136219
0.02  -0.5  1.98460221316
0.02  -0.48  2.44938937442
0.02  -0.46  3.0230281251
0.02  -0.44  3.73101114122
0.02  -0.42  4.60480139774
0.02  -0.4  5.68323039254
0.02  -0.38  7.01422382962
0.02  -0.36  8.65693145161
0.02  -0.34  10.6843556719
0.02  -0.32  13.1865958234
0.02  -0.3  16.2748521998
0.02  -0.28  20.0863678294
0.02  -0.26  24.7905275957
0.02  -0.24  30.5963857525
0.02  -0.22  37.7619563562
0.02  -0.2  33.9637093814
0.02  -0.18  34.0318796364
0.02  -0.16  34.5233269866
0.02  -0.14  35.3704944365
0.02  -0.12  36.4635511917
0.02  -0.1  37.671959887
0.02  -0.08  38.8642363993
0.02  -0.06  39.9220695689
0.02  -0.04  40.7487303338
0.02  -0.02  41.2733930186
0.02  6.17561557e-16  41.4530767908
0.02  0.02  41.2733930186
0.02  0.04  40.7487303338
0.02  0.06  39.9220695689
0.02  0.08  38.8642363993
0.02  0.1  37.671959887
0.02  0.12  36.4635511917
0.02  0.14  35.3704944365
0.02  0.16  34.5233269866
0.02  0.18  34.0318796364
0.02  0.2  46.6056794872
0.02  0.22  37.7619563562
0.02  0.24  30.5963857525
0.02  0.26  24.7905275957
0.02  0.28  20.0863678294
0.02  0.3  16.2748521998
0.02  0.32  13.1865958234
0.02  0.34  10.6843556719
0.02  0.36  8.65693145161
0.02  0.38  7.01422382961
0.02  0.4  5.68323039254
0.02  0.42  4.60480139774
0.02  0.44  3.73101114121
0.02  0.46  3.0230281251
0.02  0.48  2.44938937442
0.02  0.5  1.98460221316
0.02  0.52  1.60801136219
0.02  0.54  1.30288101251
0.02  0.56  1.05565108101
0.02  0.58  0.85533459628
0.02  0.6  0.693029434397
0.02  0.62  0.561522705885
0.02  0.64  0.454970212771
0.02  0.66  0.368636730697
0.02  0.68  0.298685574141
0.02  0.7  0.242008092984
0.02  0.72  0.196085523174
0.02  0.74  0.158877052103
0.02  0.76  0.128729124294
0.02  0.78  0.104301956904
0.02  0.8  0.0845099993783
0.02  0.82  0.0684736912604
0.02  0.84  0.0554803742671
0.02  0.86  0.0449526215421
0.02  0.88  0.0364225766355
0.02  0.9  0.0295111618245
0.02  0.92  0.0239112317877
0.02  0.94  0.019373923975
0.02  0.96  0.0156975990833
0.02  0.98  0.0127188801451
0.04  -1  0.0119406553013
0.04  -0.98  0.0147371165993
0.04  -0.96  0.0181884997248
0.04  -0.94  0.0224481851663
0.04  -0.92  0.0277054746068
0.04  -0.9  0.0341940035465
0.04  -0.88  0.0422021241336
0.04  -0.86  0.0520857196193
0.04  -0.84  0.0642840199152
0.04  -0.82  0.0793391210999
0.04  -0.8  0.0979200763302
0.04  -0.78  0.120852628761
0.04  -0.76  0.149155907816
0.04  -0.74  0.184087719601
0.04  -0.72  0.227200444181
0.04  -0.7  0.280410023807
0.04  -0.68  0.346081107961
0.04  -0.66  0.427132139078
0.04  -0.64  0.527165048992
0.04  -0.62  0.650625329853
0.04  -0.6  0.802999593119
0.04  -0.58  0.991059396187
0.04  -0.56  1.22316217242
0.04  -0.54  1.50962263795
0.04  -0.52  1.86317118073
0.04  -0.5  2.29951960274
0.04  -0.48  2.83805935712
0.04  -0.46  3.50272331009
0.04  -0.44  4.32304932463
0.04  -0.42  5.33549293184
0.04  -0.4  6.58504742556
0.04  -0.38  8.12724337766
0.04  -0.36  10.0306164331
0.04  -0.34  12.3797530544
0.04  -0.32  15.2790495689
0.04  -0.3  18.8573515725
0.04  -0.28  23.2736798665
0.04  -0.26  28.7242973885
0.04  -0.24  35.4514311958
0.04  -0.22  43.7540371078
0.04  -0.2  39.3530829434
0.04  -0.18  39.4320704789
0.04  -0.16  40.0015008706
0.04  -0.14  40.9830971547
0.04  -0.12  42.249600547
0.04  -0.1  43.6497599667
0.04  -0.08  45.0312273427
0.04  -0.06  46.2569178583
0.04  -0.04  47.2147534493
0.04  -0.02  47.8226697967
0.04  6.17561557e-16  48.0308658542
0.04  0.02  47.8226697967
0.04  0.04  47.2147534493
0.04  0.06  46.2569178583
0.04  0.08  45.0312273427
0.04  0.1  43.6497599667
0.04  0.12  42.249600547
0.04  0.14  40.9830971547
0.04  0.16  40.0015008706
0.04  0.18  39.4320704789
0.04  0.2  54.0010853909
0.04  0.22  43.7540371078
0.04  0.24  35.4514311958
0.04  0.26  28.7242973885
0.04  0.28  23.2736798665
0.04  0.3  18.8573515725
0.04  0.32  15.2790495689
0.04  0.34  12.3797530544
0.04  0.36  10.0306164331
0.04  0.38  8.12724337766
0.04  0.4  6.58504742556
0.04  0.42  5.33549293184
0.04  0.44  4.32304932463
0.04  0.46  3.50272331009
0.04  0.48  2.83805935712
0.04  0.5  2.29951960274
0.04  0.52  1.86317118073
0.04  0.54  1.50962263795
0.04  0.56  1.22316217242
0.04  0.58  0.991059396187
0.04  0.6  0.802999593118
0.04  0.62  0.650625329853
0.04  0.64  0.527165048992
0.04  0.66  0.427132139078
0.04  0.68  0.346081107961
0.04  0.7  0.280410023807
0.04  0.72  0.227200444181
0.04  0.74  0.184087719601
0.04  0.76  0.149155907816
0.04  0.78  0.120852628761
0.04  0.8  0.0979200763302
0.04  0.82  0.0793391210999
0.04  0.84  0.0642840199152
0.04  0.86  0.0520857196193
0.04  0.88  0.0422021241335
0.04  0.9  0.0341940035465
0.04  0.92  0.0277054746068
0.04  0.94  0.0224481851663
0.04  0.96  0.0181884997248
0.04  0.98  0.0147371165993
0.06  -1  0.0133477244468
0.06  -0.98  0.0164737166047
0.06  -0.96  0.0203318056088
0.06  -0.94  0.0250934460773
0.06  -0.92  0.0309702467234
0.06  -0.9  0.0382233743086
0.06  -0.88  0.0471751599717
0.06  -0.86  0.0582234237193
0.06  -0.84  0.0718591536654
0.06  -0.82  0.0886883256884
0.06  -0.8  0.109458833179
0.06  -0.78  0.135093723642
0.06  -0.76  0.166732219205
0.06  -0.74  0.205780343983
0.06  -0.72  0.253973408209
0.06  -0.7  0.313453125935
0.06  -0.68  0.386862793436
0.06  -0.66  0.477464758084
0.06  -0.64  0.589285398028
0.06  -0.62  0.727294055634
0.06  -0.6  0.89762387653
0.06  -0.58  1.10784436842
0.06  -0.56  1.36729779223
0.06  -0.54  1.68751433498
0.06  -0.52  2.08272451471
0.06  -0.5  2.57049158886
0.06  -0.48  3.17249207072
0.06  -0.46  3.91547904004
0.06  -0.44  4.83247105784
0.06  -0.42  5.96421952105
0.06  -0.4  7.36101966665
0.06  -0.38  9.08494570691
0.06  -0.36  11.2126094258
0.06  -0.34  13.8385648292
0.06  -0.32  17.0795101532
0.06  -0.3  21.0794739682
0.06  -0.28  26.0162158511
0.06  -0.26  32.1091260735
0.06  -0.24  39.6289753709
0.06  -0.22  48.9099480736
0.06  -0.2  43.990391985
0.06  -0.18  44.0786872947
0.06  -0.16  44.7152185209
0.06  -0.14  45.812484658
0.06  -0.12  47.2282309354
0.06  -0.1  48.7933830685
0.06  -0.08  50.3376405152
0.06  -0.06  51.7077645868
0.06  -0.04  52.778470106
0.06  -0.02  53.458022416
0.06  6.17561557e-16  53.6907519887
0.06  0.02  53.458022416
0.06  0.04  52.778470106
0.06  0.06  51.7077645868
0.06  0.08  50.3376405152
0.06  0.1  48.7933830685
0.06  0.12  47.2282309354
0.06  0.14  45.812484658
0.06  0.16  44.7152185209
0.06  0.18  44.0786872947
0.06  0.2  60.3644933581
0.06  0.22  48.9099480736
0.06  0.24  39.6289753708
0.06  0.26  32.1091260735
0.06  0.28  26.016215851
0.06  0.3  21.0794739682
0.06  0.32  17.0795101532
0.06  0.34  13.8385648292
0.06  0.36  11.2126094258
0.06  0.38  9.08494570691
0.06  0.4  7.36101966665
0.06  0.42  5.96421952105
0.06  0.44  4.83247105784
0.06  0.46  3.91547904004
0.06  0.48  3.17249207072
0.06  0.5  2.57049158886
0.06  0.52  2.0827245147
0.06  0.54  1.68751433498
0.06  0.56  1.36729779223
0.06  0.58  1.10784436842
0.06  0.6  0.897623876529
0.06  0.62  0.727294055633
0.06  0.64  0.589285398028
0.06  0.66  0.477464758084
0.06  0.68  0.386862793436
0.06  0.7  0.313453125934
0.06  0.72  0.253973408209
0.06  0.74  0.205780343983
0.06  0.76  0.166732219205
0.06  0.78  0.135093723642
0.06  0.8  0.109458833179
0.06  0.82  0.0886883256884
0.06  0.84  0.0718591536654
0.06  0.86  0.0582234237193
0.06  0.88  0.0471751599716
0.06  0.9  0.0382233743086
0.06  0.92  0.0309702467234
0.06  0.94  0.0250934460773
0.06  0.96  0.0203318056088
0.06  0.98  0.0164737166047
0.08  -1  0.0144997093846
0.08  -0.98  0.0178954925391
0.08  -0.96  0.0220865566836
0.08  -0.94  0.0272591539501
0.08  -0.92  0.0336431560935
0.08  -0.9  0.0415222700604
0.08  -0.88  0.0512466460096
0.08  -0.86  0.0632484380891
0.08  -0.84  0.0780610094943
0.08  -0.82  0.0963426352866
0.08  -0.8  0.118905756332
0.08  -0.78  0.146753084415
0.08  -0.76  0.181122163043
0.08  -0.74  0.223540364254
0.08  -0.72  0.275892765476
0.08  -0.7  0.340505922927
0.08  -0.68  0.420251264466
0.08  -0.66  0.518672696696
0.08  -0.64  0.640144097222
0.08  -0.62  0.790063691068
0.08  -0.6  0.975093949399
0.08  -0.58  1.20345767171
0.08  -0.56  1.48530340947
0.08  -0.54  1.83315647076
0.08  -0.52  2.26247554867
0.08  -0.5  2.79233971022
0.08  -0.48  3.44629627571
0.08  -0.46  4.25340726864
0.08  -0.44  5.24954094065
0.08  -0.42  6.47896576721
0.08  -0.4  7.99631775183
0.08  -0.38  9.86902846622
0.08  -0.36  12.1803217293
0.08  -0.34  15.0329120984
0.08  -0.32  18.5535695346
0.08  -0.3  22.8987530973
0.08  -0.28  28.2615640314
0.08  -0.26  34.8803272433
0.08  -0.24  43.0491825311
0.08  -0.22  53.1311562437
0.08  -0.2  47.7870143362
0.08  -0.18  47.882930036
0.08  -0.16  48.5743975465
0.08  -0.14  49.7663640251
0.08  -0.12  51.304297301
0.08  -0.1  53.0045310122
0.08  -0.08  54.6820667061
0.08  -0.06  56.170440319
0.08  -0.04  57.3335538465
0.08  -0.02  58.0717554062
0.08  6.17561557e-16  58.3245708717
0.08  0.02  58.0717554062
0.08  0.04  57.3335538465
0.08  0.06  56.170440319
0.08  0.08  54.6820667061
0.08  0.1  53.0045310122
0.08  0.12  51.304297301
0.08  0.14  49.7663640251
0.08  0.16  48.5743975465
0.08  0.18  47.882930036
0.08  0.2  65.5742942797
0.08  0.22  53.1311562437
0.08  0.24  43.0491825311
0.08  0.26  34.8803272433
0.08  0.28  28.2615640313
0.08  0.3  22.8987530973
0.08  0.32  18.5535695346
0.08  0.34  15.0329120984
0.08  0.36  12.1803217293
0.08  0.38  9.86902846621
0.08  0.4  7.99631775183
0.08  0.42  6.4789657672
0.08  0.44  5.24954094064
0.08  0.46  4.25340726864
0.08  0.48  3.44629627571
0.08  0.5  2.79233971022
0.08  0.52  2.26247554867
0.08  0.54  1.83315647076
0.08  0.56  1.48530340947
0.08  0.58  1.20345767171
0.08  0.6  0.975093949398
0.08  0.62  0.790063691068
0.08  0.64  0.640144097222
0.08  0.66  0.518672696696
0.08  0.68  0.420251264466
0.08  0.7  0.340505922927
0.08  0.72  0.275892765476
0.08  0.74  0.223540364254
0.08  0.76  0.181122163043
0.08  0.78  0.146753084415
0.08  0.8  0.118905756332
0.08  0.82  0.0963426352866
0.08  0.84  0.0780610094942
0.08  0.86  0.063248438089
0.08  0.88  0.0512466460096
0.08  0.9  0.0415222700604
0.08  0.92  0.0336431560935
0.08  0.94  0.0272591539501
0.08  0.96  0.0220865566836
0.08  0.98  0.0178954925391
0.1  -1  0.015374594889
0.1  -0.98  0.0189752732851
0.1  -0.96  0.0234192184474
0.1  -0.94  0.0289039206154
0.1  -0.92  0.0356731215781
0.1  -0.9  0.0440276466318
0.1  -0.88  0.0543387733449
0.1  -0.86  0.067064731243
0.1  -0.84  0.0827710656652
0.1  -0.82  0.102155770766
0.1  -0.8  0.126080308583
0.1  -0.78  0.155607892664
0.1  -0.76  0.192050737594
0.1  -0.74  0.237028374196
0.1  -0.72  0.292539621966
0.1  -0.7  0.3610514172
0.1  -0.68  0.445608444374
0.1  -0.66  0.549968442826
0.1  -0.64  0.678769201803
0.1  -0.62  0.83773466519
0.1  -0.6  1.03392930527
0.1  -0.58  1.27607206998
0.1  -0.56  1.57492385551
0.1  -0.54  1.94376572374
0.1  -0.52  2.39898911657
0.1  -0.5  2.96082429643
0.1  -0.48  3.65423938515
0.1  -0.46  4.5100499547
0.1  -0.44  5.56628848032
0.1  -0.42  6.869894515
0.1  -0.4  8.4788006971
0.1  -0.38  10.464507294
0.1  -0.36  12.9152596951
0.1  -0.34  15.9399700631
0.1  -0.32  19.6730574229
0.1  -0.3  24.2804212826
0.1  -0.28  29.9668142571
0.1  -0.26  36.9849413348
0.1  -0.24  45.6466901619
0.1  -0.22  56.3369914226
0.1  -0.2  50.670393929
0.1  -0.18  50.7720970037
0.1  -0.16  51.5052863781
0.1  -0.14  52.7691738977
0.1  -0.12  54.399903208
0.1  -0.1  56.20272586
0.1  -0.08  57.9814809385
0.1  -0.06  59.5596602479
0.1  -0.04  60.792953883
0.1  -0.02  61.5756971523
0.1  6.17561557e-16  61.8437670329
0.1  0.02  61.5756971523
0.1  0.04  60.792953883
0.1  0.06  59.5596602479
0.1  0.08  57.9814809385
0.1  0.1  56.20272586
0.1  0.12  54.399903208
0.1  0.14  52.7691738977
0.1  0.16  51.5052863781
0.1  0.18  50.7720970037
0.1  0.2  69.5309252716
0.1  0.22  56.3369914225
0.1  0.24  45.6466901619
0.1  0.26  36.9849413348
0.1  0.28  29.9668142571
0.1  0.3  24.2804212826
0.1  0.32  19.6730574229
0.1  0.34  15.9399700631
0.1  0.36  12.9152596951
0.1  0.38  10.464507294
0.1  0.4  8.4788006971
0.1  0.42  6.869894515
0.1  0.44  5.56628848032
0.1  0.46  4.5100499547
0.1  0.48  3.65423938515
0.1  0.5  2.96082429643
0.1  0.52  2.39898911657
0.1  0.54  1.94376572374
0.1  0.56  1.57492385551
0.1  0.58  1.27607206998
0.1  0.6  1.03392930527
0.1  0.62  0.83773466519
0.1  0.64  0.678769201803
0.1  0.66  0.549968442826
0.1  0.68  0.445608444374
0.1  0.7  0.3610514172
0.1  0.72  0.292539621966
0.1  0.74  0.237028374196
0.1  0.76  0.192050737594
0.1  0.78  0.155607892664
0.1  0.8  0.126080308583
0.1  0.82  0.102155770766
0.1  0.84  0.0827710656651
0.1  0.86  0.067064731243
0.1  0.88  0.0543387733449
0.1  0.9  0.0440276466318
0.1  0.92  0.0356731215781
0.1  0.94  0.0289039206154
0.1  0.96  0.0234192184474
0.1  0.98  0.0189752732851
0.12  -1  0.0159556612954
0.12  -0.98  0.0196924234889
0.12  -0.96  0.0243043228162
0.12  -0.94  0.0299963134494
0.12  -0.92  0.0370213491386
0.12  -0.9  0.045691624551
0.12  -0.88  0.0563924492943
0.12  -0.86  0.0695993711903
0.12  -0.84  0.0858993097605
0.12  -0.82  0.106016639104
0.12  -0.8  0.130845379296
0.12  -0.78  0.161488926906
0.12  -0.76  0.199309090269
0.12  -0.74  0.245986608647
0.12  -0.72  0.303595844786
0.12  -0.7  0.374696970207
0.12  -0.68  0.462449739986
0.12  -0.66  0.570753913208
0.12  -0.64  0.704422559417
0.12  -0.62  0.869395952849
0.12  -0.6  1.07300555998
0.12  -0.58  1.32429985207
0.12  -0.56  1.6344464219
0.12  -0.54  2.01722827493
0.12  -0.52  2.48965635008
0.12  -0.5  3.07272549098
0.12  -0.48  3.79234746299
0.12  -0.46  4.68050247971
0.12  -0.44  5.77666041322
0.12  -0.42  7.12953484679
0.12  -0.4  8.79924792106
0.12  -0.38  10.8600021797
0.12  -0.36  13.4033781524
0.12  -0.34  16.5424042209
0.12  -0.32  20.4165796336
0.12  -0.3  25.1980738935
0.12  -0.28  31.0993780221
0.12  -0.26  38.382747723
0.12  -0.24  47.3718581035
0.12  -0.22  58.4661878918
0.12  -0.2  52.5854273932
0.12  -0.18  52.6909742271
0.12  -0.16  53.4518737114
0.12  -0.14  54.7635285111
0.12  -0.12  56.4558894953
0.12  -0.1  58.3268479056
0.12  -0.08  60.1728291341
0.12  -0.06  61.8106540462
0.12  -0.04  63.0905586982
0.12  -0.02  63.902884914
0.12  6.17561557e-16  64.1810862096
0.12  0.02  63.902884914
0.12  0.04  63.0905586982
0.12  0.06  61.8106540462
0.12  0.08  60.1728291341
0.12  0.1  58.3268479056
0.12  0.12  56.4558894953
0.12  0.14  54.7635285111
0.12  0.16  53.4518737114
0.12  0.18  52.6909742271
0.12  0.2  72.1587723903
0.12  0.22  58.4661878918
0.12  0.24  47.3718581035
0.12  0.26  38.382747723
0.12  0.28  31.0993780221
0.12  0.3  25.1980738935
0.12  0.32  20.4165796336
0.12  0.34  16.5424042209
0.12  0.36  13.4033781524
0.12  0.38  10.8600021797
0.12  0.4  8.79924792105
0.12  0.42  7.12953484679
0.12  0.44  5.77666041321
0.12  0.46  4.68050247971
0.12  0.48  3.79234746299
0.12  0.5  3.07272549098
0.12  0.52  2.48965635008
0.12  0.54  2.01722827493
0.12  0.56  1.6344464219
0.12  0.58  1.32429985207
0.12  0.6  1.07300555998
0.12  0.62  0.869395952849
0.12  0.64  0.704422559417
0.12  0.66  0.570753913208
0.12  0.68  0.462449739986
0.12  0.7  0.374696970207
0.12  0.72  0.303595844786
0.12  0.74  0.245986608647
0.12  0.76  0.199309090269
0.12  0.78  0.161488926906
0.12  0.8  0.130845379296
0.12  0.82  0.106016639104
0.12  0.84  0.0858993097605
0.12  0.86  0.0695993711903
0.12  0.88  0.0563924492943
0.12  0.9  0.045691624551
0.12  0.92  0.0370213491386
0.12  0.94  0.0299963134494
0.12  0.96  0.0243043228162
0.12  0.98  0.0196924234889
0.14  -1  0.0162318040245
0.14  -0.98  0.0200332379162
0.14  -0.96  0.0247249548357
0.14  -0.94  0.0305154560727
0.14  -0.92  0.0376620732177
0.14  -0.9  0.0464824040537
0.14  -0.88  0.057368426696
0.14  -0.86  0.0708039192159
0.14  -0.84  0.087385958881
0.14  -0.82  0.107851456447
0.14  -0.8  0.133109904687
0.14  -0.78  0.164283796525
0.14  -0.76  0.202758508949
0.14  -0.74  0.250243869578
0.14  -0.72  0.308850141904
0.14  -0.7  0.381181806031
0.14  -0.68  0.470453302542
0.14  -0.66  0.580631883188
0.14  -0.64  0.716613916733
0.14  -0.62  0.884442485031
0.14  -0.6  1.09157593938
0.14  -0.58  1.34721935184
0.14  -0.56  1.66273359141
0.14  -0.54  2.05214020436
0.14  -0.52  2.53274453593
0.14  -0.5  3.12590478499
0.14  -0.48  3.85798116873
0.14  -0.46  4.76150737852
0.14  -0.44  5.87663638679
0.14  -0.42  7.25292485702
0.14  -0.4  8.95153545654
0.14  -0.38  11.0479549436
0.14  -0.36  13.6353488213
0.14  -0.34  16.82870164
0.14  -0.32  20.769926945
0.14  -0.3  25.6341739564
0.14  -0.28  31.6376112525
0.14  -0.26  39.0470333652
0.14  -0.24  48.1917172081
0.14  -0.22  59.4780552403
0.14  -0.2  53.4955171204
0.14  -0.18  53.6028906407
0.14  -0.16  54.3769589218
0.14  -0.14  55.7113143749
0.14  -0.12  57.432964849
0.14  -0.1  59.3363037136
0.14  -0.08  61.2142331193
0.14  -0.06  62.8804036721
0.14  -0.04  64.1824594813
0.14  -0.02  65.0088445302
0.14  6.17561557e-16  65.2918606225
0.14  0.02  65.0088445302
0.14  0.04  64.1824594813
0.14  0.06  62.8804036721
0.14  0.08  61.2142331193
0.14  0.1  59.3363037136
0.14  0.12  57.432964849
0.14  0.14  55.7113143749
0.14  0.16  54.3769589218
0.14  0.18  53.6028906407
0.14  0.2  73.4076156675
0.14  0.22  59.4780552403
0.14  0.24  48.1917172081
0.14  0.26  39.0470333652
0.14  0.28  31.6376112525
0.14  0.3  25.6341739564
0.14  0.32  20.769926945
0.14  0.34  16.82870164
0.14  0.36  13.6353488213
0.14  0.38  11.0479549436
0.14  0.4  8.95153545653
0.14  0.42  7.25292485702
0.14  0.44  5.87663638679
0.14  0.46  4.76150737852
0.14  0.48  3.85798116873
0.14  0.5  3.12590478499
0.14  0.52  2.53274453593
0.14  0.54  2.05214020436
0.14  0.56  1.66273359141
0.14  0.58  1.34721935184
0.14  0.6  1.09157593938
0.14  0.62  0.88444248503
0.14  0.64  0.716613916732
0.14  0.66  0.580631883188
0.14  0.68  0.470453302542
0.14  0.7  0.381181806031
0.14  0.72  0.308850141903
0.14  0.74  0.250243869578
0.14  0.76  0.202758508949
0.14  0.78  0.164283796525
0.14  0.8  0.133109904687
0.14  0.82  0.107851456447
0.14  0.84  0.087385958881
0.14  0.86  0.0708039192158
0.14  0.88  0.057368426696
0.14  0.9  0.0464824040536
0.14  0.92  0.0376620732177
0.14  0.94  0.0305154560727
0.14  0.96  0.0247249548357
0.14  0.98  0.0200332379162
0.16  -1  0.0161977457987
0.16  -0.98  0.0199912033685
0.16  -0.96  0.0246730759383
0.16  -0.94  0.0304514273121
0.16  -0.92  0.0375830491368
0.16  -0.9  0.0463848727989
0.16  -0.88  0.0572480539496
0.16  -0.86  0.0706553555772
0.16  -0.84  0.087202602138
0.16  -0.82  0.107625158171
0.16  -0.8  0.132830608117
0.16  -0.78  0.163939089638
0.16  -0.76  0.202333072869
0.16  -0.74  0.249718797799
0.16  -0.72  0.30820210008
0.16  -0.7  0.380381994993
0.16  -0.68  0.46946617845
0.16  -0.66  0.579413577955
0.16  -0.64  0.715110288513
0.16  -0.62  0.882586712141
0.16  -0.6  1.08928555072
0.16  -0.58  1.34439256187
0.16  -0.56  1.65924477673
0.16  -0.54  2.04783432103
0.16  -0.52  2.5274302292
0.16  -0.5  3.11934588551
0.16  -0.48  3.84988619706
0.16  -0.46  4.75151659172
0.16  -0.44  5.86430579133
0.16  -0.42  7.23770647759
0.16  -0.4  8.93275298385
0.16  -0.38  11.024773679
0.16  -0.36  13.6067385825
0.16  -0.34  16.7933909795
0.16  -0.32  20.7263466467
0.16  -0.3  25.5803872989
0.16  -0.28  31.5712279407
0.16  -0.26  38.9651033051
0.16  -0.24  48.0905994036
0.16  -0.22  59.3532559862
0.16  -0.2  53.383270669
0.16  -0.18  53.4904188939
0.16  -0.16  54.2628629937
0.16  -0.14  55.5944186483
0.16  -0.12  57.312456686
0.16  -0.1  59.2118018882
0.16  -0.08  61.0857909467
0.16  -0.06  62.7484654732
0.16  -0.04  64.0477892565
0.16  -0.02  64.8724403509
0.16  6.17561557e-16  65.1548626075
0.16  0.02  64.8724403509
0.16  0.04  64.0477892565
0.16  0.06  62.7484654732
0.16  0.08  61.0857909467
0.16  0.1  59.2118018882
0.16  0.12  57.312456686
0.16  0.14  55.5944186483
0.16  0.16  54.2628629937
0.16  0.18  53.4904188939
0.16  0.2  73.253588848
0.16  0.22  59.3532559862
0.16  0.24  48.0905994035
0.16  0.26  38.9651033051
0.16  0.28  31.5712279407
0.16  0.3  25.5803872988
0.16  0.32  20.7263466466
0.16  0.34  16.7933909795
0.16  0.36  13.6067385825
0.16  0.38  11.024773679
0.16  0.4  8.93275298384
0.16  0.42  7.23770647758
0.16  0.44  5.86430579133
0.16  0.46  4.75151659172
0.16  0.48  3.84988619706
0.16  0.5  3.11934588551
0.16  0.52  2.5274302292
0.16  0.54  2.04783432102
0.16  0.56  1.65924477673
0.16  0.58  1.34439256187
0.16  0.6  1.08928555072
0.16  0.62  0.882586712141
0.16  0.64  0.715110288513
0.16  0.66  0.579413577955
0.16  0.68  0.46946617845
0.16  0.7  0.380381994993
0.16  0.72  0.30820210008
0.16  0.74  0.249718797799
0.16  0.76  0.202333072869
0.16  0.78  0.163939089638
0.16  0.8  0.132830608117
0.16  0.82  0.107625158171
0.16  0.84  0.087202602138
0.16  0.86  0.0706553555772
0.16  0.88  0.0572480539495
0.16  0.9  0.0463848727989
0.16  0.92  0.0375830491368
0.16  0.94  0.0304514273121
0.16  0.96  0.0246730759383
0.16  0.98  0.0199912033685
0.18  -1  0.0158541374941
0.18  -0.98  0.019567123155
0.18  -0.96  0.0241496775656
0.18  -0.94  0.0298054508015
0.18  -0.92  0.0367857871007
0.18  -0.9  0.0454008946762
0.18  -0.88  0.0560336314611
0.18  -0.86  0.0691565194278
0.18  -0.84  0.0853527436051
0.18  -0.82  0.105342068994
0.18  -0.8  0.130012827136
0.18  -0.78  0.160461393831
0.18  -0.76  0.198040912404
0.18  -0.74  0.244421427794
0.18  -0.72  0.301664103843
0.18  -0.7  0.372312822034
0.18  -0.68  0.459507232332
0.18  -0.66  0.567122280162
0.18  -0.64  0.699940410129
0.18  -0.62  0.863864099278
0.18  -0.6  1.06617816491
0.18  -0.58  1.31587350405
0.18  -0.56  1.62404665153
0.18  -0.54  2.00439291332
0.18  -0.52  2.47381498997
0.18  -0.5  3.05317413763
0.18  -0.48  3.76821724845
0.18  -0.46  4.65072105012
0.18  -0.44  5.73990427301
0.18  -0.42  7.08417054221
0.18  -0.4  8.74325944897
0.18  -0.38  10.7909013958
0.18  -0.36  13.3180941974
0.18  -0.34  16.4371470506
0.18  -0.32  20.2866715881
0.18  -0.3  25.0377418209
0.18  -0.28  30.9014967175
0.18  -0.26  38.1385232826
0.18  -0.24  47.0704371208
0.18  -0.22  58.0941751291
0.18  -0.2  52.250833146
0.18  -0.18  52.3557083991
0.18  -0.16  53.1117663789
0.18  -0.14  54.4150752893
0.18  -0.12  56.0966680003
0.18  -0.1  57.9557217451
0.18  -0.08  59.7899572347
0.18  -0.06  61.4173608796
0.18  -0.04  62.6891216644
0.18  -0.02  63.496279154
0.18  6.17561557e-16  63.7727102909
0.18  0.02  63.496279154
0.18  0.04  62.6891216644
0.18  0.06  61.4173608796
0.18  0.08  59.7899572347
0.18  0.1  57.9557217451
0.18  0.12  56.0966680003
0.18  0.14  54.4150752893
0.18  0.16  53.1117663789
0.18  0.18  52.3557083991
0.18  0.2  71.6996354902
0.18  0.22  58.0941751291
0.18  0.24  47.0704371208
0.18  0.26  38.1385232826
0.18  0.28  30.9014967174
0.18  0.3  25.0377418209
0.18  0.32  20.2866715881
0.18  0.34  16.4371470506
0.18  0.36  13.3180941974
0.18  0.38  10.7909013958
0.18  0.4  8.74325944897
0.18  0.42  7.08417054221
0.18  0.44  5.73990427301
0.18  0.46  4.65072105012
0.18  0.48  3.76821724845
0.18  0.5  3.05317413763
0.18  0.52  2.47381498997
0.18  0.54  2.00439291332
0.18  0.56  1.62404665153
0.18  0.58  1.31587350405
0.18  0.6  1.06617816491
0.18  0.62  0.863864099278
0.18  0.64  0.699940410129
0.18  0.66  0.567122280161
0.18  0.68  0.459507232332
0.18  0.7  0.372312822034
0.18  0.72  0.301664103843
0.18  0.74  0.244421427793
0.18  0.76  0.198040912404
0.18  0.78  0.160461393831
0.18  0.8  0.130012827135
0.18  0.82  0.105342068994
0.18  0.84  0.0853527436051
0.18  0.86  0.0691565194277
0.18  0.88  0.0560336314611
0.18  0.9  0.0454008946762
0.18  0.92  0.0367857871006
0.18  0.94  0.0298054508014
0.18  0.96  0.0241496775656
0.18  0.98  0.019567123155
0.2  -1  0.015207545702
0.2  -0.98  0.0187691017406
0.2  -0.96  0.0231647622209
0.2  -0.94  0.0285898715967
0.2  -0.92  0.0352855233359
0.2  -0.9  0.0435492741853
0.2  -0.88  0.0537483676808
0.2  -0.86  0.0663360545587
0.2  -0.84  0.0818717353531
0.2  -0.82  0.101045820321
0.2  -0.8  0.124710411478
0.2  -0.78  0.153917170266
0.2  -0.76  0.189964053698
0.2  -0.74  0.234452995952
0.2  -0.72  0.289361098802
0.2  -0.7  0.357128494605
0.2  -0.68  0.440766786506
0.2  -0.66  0.543992884974
0.2  -0.64  0.671394188406
0.2  -0.62  0.828632448469
0.2  -0.6  1.02269538002
0.2  -0.58  1.26220719723
0.2  -0.56  1.55781187621
0.2  -0.54  1.92264617646
0.2  -0.52  2.37292344237
0.2  -0.5  2.92865412902
0.2  -0.48  3.61453507277
0.2  -0.46  4.46104702595
0.2  -0.44  5.50580923053
0.2  -0.42  6.79525122838
0.2  -0.4  8.38667620388
0.2  -0.38  10.3508075544
0.2  -0.36  12.774931859
0.2  -0.34  15.76677792
0.2  -0.32  19.4593042626
0.2  -0.3  24.0166078513
0.2  -0.28  29.6412166077
0.2  -0.26  36.5830898113
0.2  -0.24  45.1507263637
0.2  -0.22  55.7248745714
0.2  -0.2  50.1198462125
0.2  -0.18  50.2204442555
0.2  -0.16  50.9456673264
0.2  -0.14  52.1958223618
0.2  -0.12  53.8088333511
0.2  -0.1  55.592067841
0.2  -0.08  57.3514962581
0.2  -0.06  58.9125282168
0.2  -0.04  60.1324217786
0.2  -0.02  60.9066603277
0.2  6.17561557e-16  61.1718175556
0.2  0.02  60.9066603277
0.2  0.04  60.1324217786
0.2  0.06  58.9125282168
0.2  0.08  57.3514962581
0.2  0.1  55.592067841
0.2  0.12  53.8088333511
0.2  0.14  52.1958223618
0.2  0.16  50.9456673264
0.2  0.18  50.2204442555
0.2  0.2  68.7754527133
0.2  0.22  55.7248745714
0.2  0.24  45.1507263637
0.2  0.26  36.5830898113
0.2  0.28  29.6412166077
0.2  0.3  24.0166078513
0.2  0.32  19.4593042626
0.2  0.34  15.76677792
0.2  0.36  12.774931859
0.2  0.38  10.3508075544
0.2  0.4  8.38667620388
0.2  0.42  6.79525122838
0.2  0.44  5.50580923052
0.2  0.46  4.46104702595
0.2  0.48  3.61453507277
0.2  0.5  2.92865412902
0.2  0.52  2.37292344237
0.2  0.54  1.92264617646
0.2  0.56  1.55781187621
0.2  0.58  1.26220719723
0.2  0.6  1.02269538002
0.2  0.62  0.828632448469
0.2  0.64  0.671394188406
0.2  0.66  0.543992884974
0.2  0.68  0.440766786506
0.2  0.7  0.357128494605
0.2  0.72  0.289361098802
0.2  0.74  0.234452995952
0.2  0.76  0.189964053698
0.2  0.78  0.153917170266
0.2  0.8  0.124710411478
0.2  0.82  0.101045820321
0.2  0.84  0.081871735353
0.2  0.86  0.0663360545587
0.2  0.88  0.0537483676808
0.2  0.9  0.0435492741853
0.2  0.92  0.0352855233359
0.2  0.94  0.0285898715967
0.2  0.96  0.0231647622209
0.2  0.98  0.0187691017406
0.22  -1  0.014270327237
0.22  -0.98  0.0176123898643
0.22  -0.96  0.0217371523148
0.22  -0.94  0.0268279202537
0.22  -0.92  0.0331109289163
0.22  -0.9  0.040865397069
0.22  -0.88  0.0504359355736
0.22  -0.86  0.0622478619965
0.22  -0.84  0.0768261018472
0.22  -0.82  0.0948185164233
0.22  -0.8  0.117024693959
0.22  -0.78  0.144431483562
0.22  -0.76  0.178256851082
0.22  -0.74  0.220004005872
0.22  -0.72  0.271528203858
0.22  -0.7  0.335119195663
0.22  -0.68  0.4136029838
0.22  -0.66  0.510467411066
0.22  -0.64  0.630017161303
0.22  -0.62  0.777565060829
0.22  -0.6  0.959668182008
0.22  -0.58  1.18441924149
0.22  -0.56  1.46180624295
0.22  -0.54  1.8041563469
0.22  -0.52  2.22668369337
0.22  -0.5  2.74816552283
0.22  -0.48  3.39177664225
0.22  -0.46  4.18611932045
0.22  -0.44  5.16649438138
0.22  -0.42  6.37646998316
0.22  -0.4  7.8698178
0.22  -0.38  9.71290265127
0.22  -0.36  11.9876317738
0.22  -0.34  14.7950948036
0.22  -0.32  18.2600562295
0.22  -0.3  22.5364999636
0.22  -0.28  27.8144724325
0.22  -0.26  34.3285282962
0.22  -0.24  42.3681541271
0.22  -0.22  52.2906332788
0.22  -0.2  47.0310344966
0.22  -0.18  47.1254328315
0.22  -0.16  47.8059614812
0.22  -0.14  48.9790713177
0.22  -0.12  50.4926748344
0.22  -0.1  52.16601123
0.22  -0.08  53.8170086858
0.22  -0.06  55.2818365623
0.22  -0.04  56.4265498949
0.22  -0.02  57.1530732716
0.22  6.17561557e-16  57.4018892532
0.22  0.02  57.1530732716
0.22  0.04  56.4265498949
0.22  0.06  55.2818365623
0.22  0.08  53.8170086858
0.22  0.1  52.16601123
0.22  0.12  50.4926748344
0.22  0.14  48.9790713177
0.22  0.16  47.8059614812
0.22  0.18  47.1254328315
0.22  0.2  64.5369236642
0.22  0.22  52.2906332788
0.22  0.24  42.3681541271
0.22  0.26  34.3285282962
0.22  0.28  27.8144724325
0.22  0.3  22.5364999636
0.22  0.32  18.2600562294
0.22  0.34  14.7950948036
0.22  0.36  11.9876317738
0.22  0.38  9.71290265127
0.22  0.4  7.8698178
0.22  0.42  6.37646998316
0.22  0.44  5.16649438138
0.22  0.46  4.18611932045
0.22  0.48  3.39177664225
0.22  0.5  2.74816552283
0.22  0.52  2.22668369337
0.22  0.54  1.8041563469
0.22  0.56  1.46180624295
0.22  0.58  1.18441924149
0.22  0.6  0.959668182008
0.22  0.62  0.777565060829
0.22  0.64  0.630017161303
0.22  0.66  0.510467411066
0.22  0.68  0.4136029838
0.22  0.7  0.335119195663
0.22  0.72  0.271528203858
0.22  0.74  0.220004005872
0.22  0.76  0.178256851082
0.22  0.78  0.144431483562
0.22  0.8  0.117024693959
0.22  0.82  0.0948185164233
0.22  0.84  0.0768261018471
0.22  0.86  0.0622478619964
0.22  0.88  0.0504359355735
0.22  0.9  0.040865397069
0.22  0.92  0.0331109289163
0.22  0.94  0.0268279202537
0.22  0.96  0.0217371523148
0.22  0.98  0.0176123898643
0.24  -1  0.0130603929894
0.24  -0.98  0.0161190930867
0.24  -0.96  0.019894130456
0.24  -0.94  0.0245532688763
0.24  -0.92  0.0303035618392
0.24  -0.9  0.0374005540676
0.24  -0.88  0.0461596379985
0.24  -0.86  0.0569700699166
0.24  -0.84  0.070312268619
0.24  -0.82  0.0867791653685
0.24  -0.8  0.107102553935
0.24  -0.78  0.132185611727
0.24  -0.76  0.163143037264
0.24  -0.74  0.201350587707
0.24  -0.72  0.248506217917
0.24  -0.7  0.30670553807
0.24  -0.68  0.378534943195
0.24  -0.66  0.467186553335
0.24  -0.64  0.576600072307
0.24  -0.62  0.711637869308
0.24  -0.6  0.878301064041
0.24  -0.58  1.08399621825
0.24  -0.56  1.33786448553
0.24  -0.54  1.65118784689
0.24  -0.52  2.03789048531
0.24  -0.5  2.51515758062
0.24  -0.48  3.10419902392
0.24  -0.46  3.83119199145
0.24  -0.44  4.72844426605
0.24  -0.42  5.83583000462
0.24  -0.4  7.20256175743
0.24  -0.38  8.88937748847
0.24  -0.36  10.9712397885
0.24  -0.34  13.540667235
0.24  -0.32  16.7118459447
0.24  -0.3  20.6257040391
0.24  -0.28  25.4561745312
0.24  -0.26  31.4179249607
0.24  -0.24  38.775897283
0.24  -0.22  47.8570819677
0.24  -0.2  43.0434273177
0.24  -0.18  43.1298219273
0.24  -0.16  43.7526507846
0.24  -0.14  44.8262964852
0.24  -0.12  46.2115665235
0.24  -0.1  47.7430262137
0.24  -0.08  49.2540410096
0.24  -0.06  50.5946709343
0.24  -0.04  51.6423277774
0.24  -0.02  52.3072516197
0.24  6.17561557e-16  52.5349713101
0.24  0.02  52.3072516197
0.24  0.04  51.6423277774
0.24  0.06  50.5946709343
0.24  0.08  49.2540410096
0.24  0.1  47.7430262137
0.24  0.12  46.2115665235
0.24  0.14  44.8262964852
0.24  0.16  43.7526507846
0.24  0.18  43.1298219273
0.24  0.2  59.0650495525
0.24  0.22  47.8570819677
0.24  0.24  38.775897283
0.24  0.26  31.4179249607
0.24  0.28  25.4561745312
0.24  0.3  20.6257040391
0.24  0.32  16.7118459447
0.24  0.34  13.540667235
0.24  0.36  10.9712397885
0.24  0.38  8.88937748846
0.24  0.4  7.20256175742
0.24  0.42  5.83583000461
0.24  0.44  4.72844426605
0.24  0.46  3.83119199145
0.24  0.48  3.10419902392
0.24  0.5  2.51515758062
0.24  0.52  2.03789048531
0.24  0.54  1.65118784689
0.24  0.56  1.33786448553
0.24  0.58  1.08399621825
0.24  0.6  0.87830106404
0.24  0.62  0.711637869308
0.24  0.64  0.576600072307
0.24  0.66  0.467186553335
0.24  0.68  0.378534943195
0.24  0.7  0.30670553807
0.24  0.72  0.248506217916
0.24  0.74  0.201350587707
0.24  0.76  0.163143037264
0.24  0.78  0.132185611727
0.24  0.8  0.107102553935
0.24  0.82  0.0867791653685
0.24  0.84  0.070312268619
0.24  0.86  0.0569700699166
0.24  0.88  0.0461596379985
0.24  0.9  0.0374005540676
0.24  0.92  0.0303035618392
0.24  0.94  0.0245532688762
0.24  0.96  0.019894130456
0.24  0.98  0.0161190930867
0.26  -1  0.0116008656361
0.26  -0.98  0.0143177493378
0.26  -0.96  0.0176709180615
0.26  -0.94  0.0218093876189
0.26  -0.92  0.026917072823
0.26  -0.9  0.0332209607174
0.26  -0.88  0.0410011979476
0.26  -0.86  0.0506035405611
0.26  -0.84  0.0624547195082
0.26  -0.82  0.0770814046922
0.26  -0.8  0.0951336103357
0.26  -0.78  0.117413581806
0.26  -0.76  0.144911447634
0.26  -0.74  0.178849221125
0.26  -0.72  0.220735106986
0.26  -0.7  0.272430526393
0.26  -0.68  0.336232839099
0.26  -0.66  0.414977438783
0.26  -0.64  0.512163758781
0.26  -0.62  0.632110787946
0.26  -0.6  0.780149007787
0.26  -0.58  0.962857280651
0.26  -0.56  1.18835521631
0.26  -0.54  1.46666400982
0.26  -0.52  1.81015178643
0.26  -0.5  2.23408324467
0.26  -0.48  2.75729802415
0.26  -0.46  3.40304794465
0.26  -0.44  4.20003032396
0.26  -0.42  5.1836632951
0.26  -0.4  6.39765979872
0.26  -0.38  7.89597019907
0.26  -0.36  9.74517985421
0.26  -0.34  12.027468189
0.26  -0.32  14.8442607733
0.26  -0.3  18.3207367038
0.26  -0.28  22.611391601
0.26  -0.26  27.9069034393
0.26  -0.24  34.4426063339
0.26  -0.22  42.5089488574
0.26  -0.2  38.2332305954
0.26  -0.18  38.3099704193
0.26  -0.16  38.8631967957
0.26  -0.14  39.8168602516
0.26  -0.12  41.0473233469
0.26  -0.1  42.4076390823
0.26  -0.08  43.7497946847
0.26  -0.06  44.9406062963
0.26  -0.04  45.8711852062
0.26  -0.02  46.4618023613
0.26  6.17561557e-16  46.6640738805
0.26  0.02  46.4618023613
0.26  0.04  45.8711852062
0.26  0.06  44.9406062963
0.26  0.08  43.7497946847
0.26  0.1  42.4076390823
0.26  0.12  41.0473233469
0.26  0.14  39.8168602516
0.26  0.16  38.8631967957
0.26  0.18  38.3099704193
0.26  0.2  52.4644016612
0.26  0.22  42.5089488574
0.26  0.24  34.4426063339
0.26  0.26  27.9069034393
0.26  0.28  22.611391601
0.26  0.3  18.3207367038
0.26  0.32  14.8442607733
0.26  0.34  12.027468189
0.26  0.36  9.74517985421
0.26  0.38  7.89597019907
0.26  0.4  6.39765979872
0.26  0.42  5.1836632951
0.26  0.44  4.20003032396
0.26  0.46  3.40304794465
0.26  0.48  2.75729802415
0.26  0.5  2.23408324467
0.26  0.52  1.81015178643
0.26  0.54  1.46666400982
0.26  0.56  1.18835521631
0.26  0.58  0.96285728065
0.26  0.6  0.780149007787
0.26  0.62  0.632110787946
0.26  0.64  0.512163758781
0.26  0.66  0.414977438783
0.26  0.68  0.336232839099
0.26  0.7  0.272430526393
0.26  0.72  0.220735106986
0.26  0.74  0.178849221125
0.26  0.76  0.144911447634
0.26  0.78  0.117413581805
0.26  0.8  0.0951336103357
0.26  0.82  0.0770814046922
0.26  0.84  0.0624547195082
0.26  0.86  0.0506035405611
0.26  0.88  0.0410011979476
0.26  0.9  0.0332209607174
0.26  0.92  0.026917072823
0.26  0.94  0.0218093876189
0.26  0.96  0.0176709180615
0.26  0.98  0.0143177493378
0.28  -1  0.00991963775015
0.28  -0.98  0.0122427835373
0.28  -0.96  0.0151100022516
0.28  -0.94  0.0186487139424
0.28  -0.92  0.0230161800053
0.28  -0.9  0.0284064919261
0.28  -0.88  0.0350591967634
0.28  -0.86  0.043269942691
0.28  -0.84  0.0534036176903
0.28  -0.82  0.0659105652804
0.28  -0.8  0.0813465979172
0.28  -0.78  0.100397697464
0.28  -0.76  0.123910500429
0.28  -0.74  0.15292992274
0.28  -0.72  0.188745596123
0.28  -0.7  0.232949179713
0.28  -0.68  0.28750509386
0.28  -0.66  0.354837819549
0.28  -0.64  0.437939643059
0.28  -0.62  0.540503634044
0.28  -0.6  0.667087766648
0.28  -0.58  0.823317477223
0.28  -0.56  1.01613566039
0.28  -0.54  1.25411121333
0.28  -0.52  1.54781984012
0.28  -0.5  1.91031403914
0.28  -0.48  2.35770315998
0.28  -0.46  2.9098693077
0.28  -0.44  3.5913509095
0.28  -0.42  4.43243320964
0.28  -0.4  5.4704941547
0.28  -0.38  6.75166548062
0.28  -0.36  8.33288282064
0.28  -0.34  10.2844159418
0.28  -0.32  12.6929915541
0.28  -0.3  15.6656474713
0.28  -0.28  19.3344894031
