0.44  0.9  0.197866131652
0.44  0.92  0.174087643592
0.44  0.94  0.153166726405
0.44  0.96  0.134759972583
0.44  0.98  0.118565243489
0.46  -1  0.0861809771027
0.46  -0.98  0.0979523658856
0.46  -0.96  0.111331598981
0.46  -0.94  0.126538290521
0.46  -0.92  0.143822051552
0.46  -0.9  0.163466587286
0.46  -0.88  0.185794354001
0.46  -0.86  0.211171852007
0.46  -0.84  0.240015641594
0.46  -0.82  0.272799180678
0.46  -0.8  0.310060596403
0.46  -0.78  0.352411518256
0.46  -0.76  0.400547117694
0.46  -0.74  0.455257519069
0.46  -0.72  0.517440769172
0.46  -0.7  0.588117578263
0.46  -0.68  0.66844807458
0.46  -0.66  0.759750847321
0.46  -0.64  0.863524590699
0.46  -0.62  0.981472704336
0.46  -0.6  1.11553125381
0.46  -0.58  1.2679007503
0.46  -0.56  1.44108227099
0.46  -0.54  1.63791851317
0.46  -0.52  1.86164045577
0.46  -0.5  2.11592039452
0.46  -0.48  2.40493222097
0.46  -0.46  2.73341993509
0.46  -0.44  3.10677551592
0.46  -0.42  3.53112742847
0.46  -0.4  4.01344121975
0.46  -0.38  4.56163385509
0.46  -0.36  5.18470367164
0.46  -0.34  5.89287808198
0.46  -0.32  6.6977814526
0.46  -0.3  7.61262591261
0.46  -0.28  8.65242822501
0.46  -0.26  9.83425628006
0.46  -0.24  11.1775092572
0.46  -0.22  12.7042360536
0.46  -0.2  11.000004084
0.46  -0.18  11.0585882927
0.46  -0.16  10.9288734453
0.46  -0.14  10.6195042627
0.46  -0.12  10.1520778621
0.46  -0.1  9.56223764937
0.46  -0.08  8.90139081143
0.46  -0.06  8.23844177286
0.46  -0.04  7.65917329231
0.46  -0.02  7.25765655633
0.46  6.17561557e-16  7.11315806385
0.46  0.02  7.25765655633
0.46  0.04  7.65917329231
0.46  0.06  8.23844177286
0.46  0.08  8.90139081143
0.46  0.1  9.56223764937
0.46  0.12  10.1520778621
0.46  0.14  10.6195042627
0.46  0.16  10.9288734453
0.46  0.18  11.0585882927
0.46  0.2  14.4394972076
0.46  0.22  12.7042360536
0.46  0.24  11.1775092572
0.46  0.26  9.83425628006
0.46  0.28  8.65242822501
0.46  0.3  7.61262591261
0.46  0.32  6.6977814526
0.46  0.34  5.89287808198
0.46  0.36  5.18470367164
0.46  0.38  4.56163385509
0.46  0.4  4.01344121975
0.46  0.42  3.53112742847
0.46  0.44  3.10677551592
0.46  0.46  2.73341993509
0.46  0.48  2.40493222097
0.46  0.5  2.11592039452
0.46  0.52  1.86164045577
0.46  0.54  1.63791851317
0.46  0.56  1.44108227099
0.46  0.58  1.2679007503
0.46  0.6  1.11553125381
0.46  0.62  0.981472704336
0.46  0.64  0.863524590699
0.46  0.66  0.759750847321
0.46  0.68  0.66844807458
0.46  0.7  0.588117578263
0.46  0.72  0.517440769172
0.46  0.74  0.455257519069
0.46  0.76  0.400547117694
0.46  0.78  0.352411518256
0.46  0.8  0.310060596403
0.46  0.82  0.272799180678
0.46  0.84  0.240015641594
0.46  0.86  0.211171852007
0.46  0.88  0.185794354001
0.46  0.9  0.163466587286
0.46  0.92  0.143822051552
0.46  0.94  0.126538290521
0.46  0.96  0.111331598981
0.46  0.98  0.0979523658856
0.48  -1  0.0711981888885
0.48  -0.98  0.0809230909517
0.48  -0.96  0.0919763093895
0.48  -0.94  0.104539277843
0.48  -0.92  0.118818211825
0.48  -0.9  0.135047493656
0.48  -0.88  0.153493519745
0.48  -0.86  0.174459073366
0.48  -0.84  0.198288294713
0.48  -0.82  0.225372329805
0.48  -0.8  0.256155750976
0.48  -0.78  0.291143854326
0.48  -0.76  0.330910953937
0.48  -0.74  0.376109808977
0.48  -0.72  0.427482338453
0.48  -0.7  0.48587179948
0.48  -0.68  0.552236628965
0.48  -0.66  0.627666175927
0.48  -0.64  0.713398582673
0.48  -0.62  0.810841108345
0.48  -0.6  0.921593228456
0.48  -0.58  1.04747288957
0.48  -0.56  1.19054635006
0.48  -0.54  1.35316209685
0.48  -0.52  1.53798939474
0.48  -0.5  1.74806210125
0.48  -0.48  1.98682846597
0.48  -0.46  2.25820773206
0.48  -0.44  2.56665446892
0.48  -0.42  2.91723169188
0.48  -0.4  3.3156939694
0.48  -0.38  3.76858188168
0.48  -0.36  4.28332938143
0.48  -0.34  4.86838581881
0.48  -0.32  5.53335463379
0.48  -0.3  6.28915099231
0.48  -0.28  7.14818095383
0.48  -0.26  8.12454511128
0.48  -0.24  9.23427004599
0.48  -0.22  10.4955713968
0.48  -0.2  9.08762461131
0.48  -0.18  9.13602380216
0.48  -0.16  9.02886022018
0.48  -0.14  8.7732756789
0.48  -0.12  8.38711258026
0.48  -0.1  7.89981763081
0.48  -0.08  7.35386074362
0.48  -0.06  6.80616712887
0.48  -0.04  6.32760598833
0.48  -0.02  5.99589398678
0.48  6.17561557e-16  5.87651693505
0.48  0.02  5.99589398678
0.48  0.04  6.32760598833
0.48  0.06  6.80616712887
0.48  0.08  7.35386074362
0.48  0.1  7.89981763081
0.48  0.12  8.38711258026
0.48  0.14  8.7732756789
0.48  0.16  9.02886022018
0.48  0.18  9.13602380216
0.48  0.2  11.9291528618
0.48  0.22  10.4955713968
0.48  0.24  9.23427004599
0.48  0.26  8.12454511128
0.48  0.28  7.14818095383
0.48  0.3  6.28915099231
0.48  0.32  5.53335463379
0.48  0.34  4.86838581881
0.48  0.36  4.28332938143
0.48  0.38  3.76858188168
0.48  0.4  3.3156939694
0.48  0.42  2.91723169188
0.48  0.44  2.56665446892
0.48  0.46  2.25820773206
0.48  0.48  1.98682846597
0.48  0.5  1.74806210125
0.48  0.52  1.53798939474
0.48  0.54  1.35316209685
0.48  0.56  1.19054635006
0.48  0.58  1.04747288957
0.48  0.6  0.921593228456
0.48  0.62  0.810841108345
0.48  0.64  0.713398582673
0.48  0.66  0.627666175927
0.48  0.68  0.552236628965
0.48  0.7  0.48587179948
0.48  0.72  0.427482338453
0.48  0.74  0.376109808977
0.48  0.76  0.330910953937
0.48  0.78  0.291143854326
0.48  0.8  0.256155750976
0.48  0.82  0.225372329805
0.48  0.84  0.198288294713
0.48  0.86  0.174459073366
0.48  0.88  0.153493519745
0.48  0.9  0.135047493656
0.48  0.92  0.118818211825
0.48  0.94  0.104539277843
0.48  0.96  0.0919763093895
0.48  0.98  0.0809230909517
0.5  -1  0.0588201975821
0.5  -0.98  0.0668543999931
0.5  -0.96  0.0759859875037
0.5  -0.94  0.086364851042
0.5  -0.92  0.098161355015
0.5  -0.9  0.111569133764
0.5  -0.88  0.126808269984
0.5  -0.86  0.144128907288
0.5  -0.84  0.163815356195
0.5  -0.82  0.186190760968
0.5  -0.8  0.211622403876
0.5  -0.78  0.240527733972
0.5  -0.76  0.273381219333
0.5  -0.74  0.310722135239
0.5  -0.72  0.353163416138
0.5  -0.7  0.401401716688
0.5  -0.68  0.456228847038
0.5  -0.66  0.518544770029
0.5  -0.64  0.589372373689
0.5  -0.62  0.669874261482
0.5  -0.6  0.761371835919
0.5  -0.58  0.865366988796
0.5  -0.56  0.983566754074
0.5  -0.54  1.11791132808
0.5  -0.52  1.27060591695
0.5  -0.5  1.44415693414
0.5  -0.48  1.64141314202
0.5  -0.46  1.86561241311
0.5  -0.44  2.12043487824
0.5  -0.42  2.41006333431
0.5  -0.4  2.73925190298
0.5  -0.38  3.11340406751
0.5  -0.36  3.53866136847
0.5  -0.34  4.02200421441
0.5  -0.32  4.57136646216
0.5  -0.3  5.1957656475
0.5  -0.28  5.90545100403
0.5  -0.26  6.71207169973
0.5  -0.24  7.62886805284
0.5  -0.22  8.67088886581
0.5  -0.2  7.50771731043
0.5  -0.18  7.5477021754
0.5  -0.16  7.45916926235
0.5  -0.14  7.24801876187
0.5  -0.12  6.92899112767
0.5  -0.1  6.52641367935
0.5  -0.08  6.07537282456
0.5  -0.06  5.62289717684
0.5  -0.04  5.22753514191
0.5  -0.02  4.95349213919
0.5  6.17561557e-16  4.85486910005
0.5  0.02  4.95349213919
0.5  0.04  5.22753514191
0.5  0.06  5.62289717684
0.5  0.08  6.07537282456
0.5  0.1  6.52641367935
0.5  0.12  6.92899112767
0.5  0.14  7.24801876187
0.5  0.16  7.45916926235
0.5  0.18  7.5477021754
0.5  0.2  9.85523844461
0.5  0.22  8.67088886581
0.5  0.24  7.62886805284
0.5  0.26  6.71207169973
0.5  0.28  5.90545100403
0.5  0.3  5.1957656475
0.5  0.32  4.57136646216
0.5  0.34  4.02200421441
0.5  0.36  3.53866136847
0.5  0.38  3.11340406751
0.5  0.4  2.73925190298
0.5  0.42  2.41006333431
0.5  0.44  2.12043487824
0.5  0.46  1.86561241311
0.5  0.48  1.64141314202
0.5  0.5  1.44415693414
0.5  0.52  1.27060591695
0.5  0.54  1.11791132808
0.5  0.56  0.983566754074
0.5  0.58  0.865366988796
0.5  0.6  0.761371835919
0.5  0.62  0.669874261482
0.5  0.64  0.589372373689
0.5  0.66  0.518544770029
0.5  0.68  0.456228847038
0.5  0.7  0.401401716688
0.5  0.72  0.353163416138
0.5  0.74  0.310722135239
0.5  0.76  0.273381219333
0.5  0.78  0.240527733972
0.5  0.8  0.211622403876
0.5  0.82  0.186190760968
0.5  0.84  0.163815356195
0.5  0.86  0.144128907288
0.5  0.88  0.126808269984
0.5  0.9  0.111569133764
0.5  0.92  0.098161355015
0.5  0.94  0.086364851042
0.5  0.96  0.0759859875037
0.5  0.98  0.0668543999931
0.52  -1  0.0485941524301
0.52  -0.98  0.0552315877442
0.52  -0.96  0.0627756248889
0.52  -0.94  0.0713500958626
0.52  -0.92  0.0810957467746
0.52  -0.9  0.0921725481292
0.52  -0.88  0.104762320671
0.52  -0.86  0.119071719889
0.52  -0.84  0.135335628178
0.52  -0.82  0.153821010324
0.52  -0.8  0.174831295614
0.52  -0.78  0.198711358492
0.52  -0.76  0.225853179518
0.52  -0.74  0.256702279555
0.52  -0.72  0.291765032795
0.52  -0.7  0.331616978662
0.52  -0.68  0.376912269039
0.52  -0.66  0.428394405875
0.52  -0.64  0.48690844544
0.52  -0.62  0.553414869544
0.52  -0.6  0.629005351419
0.52  -0.58  0.714920675043
0.52  -0.56  0.81257110206
0.52  -0.54  0.92355952059
0.52  -0.52  1.04970775593
0.52  -0.5  1.19308647497
0.52  -0.48  1.35604917534
0.52  -0.46  1.54127081691
0.52  -0.44  1.75179173017
0.52  -0.42  1.99106752183
0.52  -0.4  2.26302579709
0.52  -0.38  2.57213062948
0.52  -0.36  2.92345583671
0.52  -0.34  3.32276826505
0.52  -0.32  3.77662244956
0.52  -0.3  4.29246820386
0.52  -0.28  4.87877290548
0.52  -0.26  5.54516048409
0.52  -0.24  6.30256939399
0.52  -0.22  7.16343216396
0.52  -0.2  6.20248102492
0.52  -0.18  6.23551441656
0.52  -0.16  6.16237318195
0.52  -0.14  5.98793174809
0.52  -0.12  5.72436790228
0.52  -0.1  5.39177959601
0.52  -0.08  5.0191533732
0.52  -0.06  4.64534179996
0.52  -0.04  4.3187144886
0.52  -0.02  4.09231457846
0.52  6.17561557e-16  4.01083741255
0.52  0.02  4.09231457846
0.52  0.04  4.3187144886
0.52  0.06  4.64534179996
0.52  0.08  5.0191533732
0.52  0.1  5.39177959601
0.52  0.12  5.72436790228
0.52  0.14  5.98793174809
0.52  0.16  6.16237318195
0.52  0.18  6.23551441656
0.52  0.2  8.14187947166
0.52  0.22  7.16343216396
0.52  0.24  6.30256939399
0.52  0.26  5.54516048409
0.52  0.28  4.87877290548
0.52  0.3  4.29246820386
0.52  0.32  3.77662244956
0.52  0.34  3.32276826505
0.52  0.36  2.92345583671
0.52  0.38  2.57213062948
0.52  0.4  2.26302579709
0.52  0.42  1.99106752183
0.52  0.44  1.75179173017
0.52  0.46  1.54127081691
0.52  0.48  1.35604917534
0.52  0.5  1.19308647497
0.52  0.52  1.04970775593
0.52  0.54  0.92355952059
0.52  0.56  0.81257110206
0.52  0.58  0.714920675043
0.52  0.6  0.629005351419
0.52  0.62  0.553414869544
0.52  0.64  0.48690844544
0.52  0.66  0.428394405875
0.52  0.68  0.376912269039
0.52  0.7  0.331616978662
0.52  0.72  0.291765032795
0.52  0.74  0.256702279555
0.52  0.76  0.225853179518
0.52  0.78  0.198711358492
0.52  0.8  0.174831295614
0.52  0.82  0.153821010324
0.52  0.84  0.135335628178
0.52  0.86  0.119071719889
0.52  0.88  0.104762320671
0.52  0.9  0.0921725481292
0.52  0.92  0.0810957467746
0.52  0.94  0.0713500958626
0.52  0.96  0.0627756248889
0.52  0.98  0.0552315877442
0.54  -1  0.0401459319667
0.54  -0.98  0.045629431796
0.54  -0.96  0.0518619183571
0.54  -0.94  0.0589456951316
0.54  -0.92  0.0669970391497
0.54  -0.9  0.0761481096253
0.54  -0.88  0.086549117291
0.54  -0.86  0.0983707900393
0.54  -0.84  0.111807175346
0.54  -0.82  0.12707882547
0.54  -0.8  0.144436417725
0.54  -0.78  0.16416486923
0.54  -0.76  0.186588013701
0.54  -0.74  0.212073917033
0.54  -0.72  0.24104091894
0.54  -0.7  0.273964499814
0.54  -0.68  0.311385085521
0.54  -0.66  0.353916918253
0.54  -0.64  0.402258139038
0.54  -0.62  0.457202247412
0.54  -0.6  0.519651126359
0.54  -0.58  0.590629846321
0.54  -0.56  0.671303491266
0.54  -0.54  0.762996283024
0.54  -0.52  0.867213317795
0.54  -0.5  0.985665271632
0.54  -0.48  1.12029648042
0.54  -0.46  1.2733168553
0.54  -0.44  1.44723815732
0.54  -0.42  1.64491522695
0.54  -0.4  1.86959284493
0.54  -0.38  2.12495899397
0.54  -0.36  2.41520539528
0.54  -0.34  2.74509631384
0.54  -0.32  3.12004676164
0.54  -0.3  3.54621138273
0.54  -0.28  4.03058547891
0.54  -0.26  4.58111983451
0.54  -0.24  5.20685122496
0.54  -0.22  5.9180507514
0.54  -0.2  5.12416348057
0.54  -0.18  5.1514539307
0.54  -0.16  5.09102849097
0.54  -0.14  4.94691415651
0.54  -0.12  4.72917157446
0.54  -0.1  4.45440461488
0.54  -0.08  4.14656043525
0.54  -0.06  3.83773698146
0.54  -0.04  3.56789468223
0.54  -0.02  3.38085498846
0.54  6.17561557e-16  3.31354284089
0.54  0.02  3.38085498846
0.54  0.04  3.56789468223
0.54  0.06  3.83773698146
0.54  0.08  4.14656043525
0.54  0.1  4.45440461488
0.54  0.12  4.72917157446
0.54  0.14  4.94691415651
0.54  0.16  5.09102849097
0.54  0.18  5.1514539307
0.54  0.2  6.72639243623
0.54  0.22  5.9180507514
0.54  0.24  5.20685122496
0.54  0.26  4.58111983451
0.54  0.28  4.03058547891
0.54  0.3  3.54621138273
0.54  0.32  3.12004676164
0.54  0.34  2.74509631384
0.54  0.36  2.41520539528
0.54  0.38  2.12495899397
0.54  0.4  1.86959284493
0.54  0.42  1.64491522695
0.54  0.44  1.44723815732
0.54  0.46  1.2733168553
0.54  0.48  1.12029648042
0.54  0.5  0.985665271632
0.54  0.52  0.867213317795
0.54  0.54  0.762996283024
0.54  0.56  0.671303491266
0.54  0.58  0.590629846321
0.54  0.6  0.519651126359
0.54  0.62  0.457202247412
0.54  0.64  0.402258139038
0.54  0.66  0.353916918253
0.54  0.68  0.311385085521
0.54  0.7  0.273964499814
0.54  0.72  0.24104091894
0.54  0.74  0.212073917033
0.54  0.76  0.186588013701
0.54  0.78  0.16416486923
0.54  0.8  0.144436417725
0.54  0.82  0.12707882547
0.54  0.84  0.111807175346
0.54  0.86  0.0983707900393
0.54  0.88  0.086549117291
0.54  0.9  0.0761481096253
0.54  0.92  0.0669970391497
0.54  0.94  0.0589456951316
0.54  0.96  0.0518619183571
0.54  0.98  0.045629431796
0.56  -1  0.0331664567212
0.56  -0.98  0.037696635767
0.56  -0.96  0.0428455882428
0.56  -0.94  0.0486978319025
0.56  -0.92  0.0553494287105
0.56  -0.9  0.0629095616558
0.56  -0.88  0.0715023269424
0.56  -0.86  0.0812687709723
0.56  -0.84  0.0923692055598
0.56  -0.82  0.104985839378
0.56  -0.8  0.119325768833
0.56  -0.78  0.135624377458
0.56  -0.76  0.154149199631
0.56  -0.74  0.175204312028
0.56  -0.72  0.199135324911
0.56  -0.7  0.226335055162
0.56  -0.68  0.257249974197
0.56  -0.66  0.292387536597
0.56  -0.64  0.332324509747
0.56  -0.62  0.377716441212
0.56  -0.6  0.429308419264
0.56  -0.58  0.487947303167
0.56  -0.56  0.554595623993
0.56  -0.54  0.630347384147
0.56  -0.52  0.716446014918
0.56  -0.5  0.814304786854
0.56  -0.48  0.925530007964
0.56  -0.46  1.05194739055
0.56  -0.44  1.19563201945
0.56  -0.42  1.35894241364
0.56  -0.4  1.54455924025
0.56  -0.38  1.75552931655
0.56  -0.36  1.99531562207
0.56  -0.34  2.26785414183
0.56  -0.32  2.57761847387
0.56  -0.3  2.92969326125
0.56  -0.28  3.32985765427
0.56  -0.26  3.78468017263
0.56  -0.24  4.30162652469
0.56  -0.22  4.88918215382
0.56  -0.2  4.23331426087
0.56  -0.18  4.25586019489
0.56  -0.16  4.20593987585
0.56  -0.14  4.08688019527
0.56  -0.12  3.90699273046
0.56  -0.1  3.67999472526
0.56  -0.08  3.4256700612
0.56  -0.06  3.17053637236
0.56  -0.04  2.94760686244
0.56  -0.02  2.7930845085
0.56  6.17561557e-16  2.73747475379
0.56  0.02  2.7930845085
0.56  0.04  2.94760686244
0.56  0.06  3.17053637236
0.56  0.08  3.4256700612
0.56  0.1  3.67999472526
0.56  0.12  3.90699273046
0.56  0.14  4.08688019527
0.56  0.16  4.20593987585
0.56  0.18  4.25586019489
0.56  0.2  5.5569915231
0.56  0.22  4.88918215382
0.56  0.24  4.30162652469
0.56  0.26  3.78468017263
0.56  0.28  3.32985765427
0.56  0.3  2.92969326125
0.56  0.32  2.57761847387
0.56  0.34  2.26785414183
0.56  0.36  1.99531562207
0.56  0.38  1.75552931655
0.56  0.4  1.54455924025
0.56  0.42  1.35894241364
0.56  0.44  1.19563201945
0.56  0.46  1.05194739055
0.56  0.48  0.925530007964
0.56  0.5  0.814304786854
0.56  0.52  0.716446014918
0.56  0.54  0.630347384147
0.56  0.56  0.554595623993
0.56  0.58  0.487947303167
0.56  0.6  0.429308419264
0.56  0.62  0.377716441212
0.56  0.64  0.332324509747
0.56  0.66  0.292387536597
0.56  0.68  0.257249974197
0.56  0.7  0.226335055162
0.56  0.72  0.199135324911
0.56  0.74  0.175204312028
0.56  0.76  0.154149199631
0.56  0.78  0.135624377458
0.56  0.8  0.119325768833
0.56  0.82  0.104985839378
0.56  0.84  0.0923692055598
0.56  0.86  0.0812687709723
0.56  0.88  0.0715023269424
0.56  0.9  0.0629095616558
0.56  0.92  0.0553494287105
0.56  0.94  0.0486978319025
0.56  0.96  0.0428455882428
0.56  0.98  0.037696635767
0.58  -1  0.027400381497
0.58  -0.98  0.0311429770702
0.58  -0.96  0.0353967706947
0.58  -0.94  0.0402315864918
0.58  -0.92  0.0457267858022
0.58  -0.9  0.0519725698668
0.58  -0.88  0.0590714604401
0.58  -0.86  0.0671399826382
0.58  -0.84  0.0763105776474
0.58  -0.82  0.0867337766865
0.58  -0.8  0.0985806719099
0.58  -0.78  0.112045724808
0.58  -0.76  0.127349958208
0.58  -0.74  0.14474458426
0.58  -0.72  0.164515127979
0.58  -0.7  0.186986114004
0.58  -0.68  0.212526393529
0.58  -0.66  0.241555198829
0.58  -0.64  0.274549024769
0.58  -0.62  0.312049450259
0.58  -0.6  0.354672028025
0.58  -0.58  0.403116388632
0.58  -0.56  0.458177724612
0.58  -0.54  0.520759843188
0.58  -0.52  0.59189000187
0.58  -0.5  0.672735770425
0.58  -0.48  0.764624196015
0.58  -0.46  0.869063586083
0.58  -0.44  0.987768266544
0.58  -0.42  1.12268672168
0.58  -0.4  1.27603357764
0.58  -0.38  1.45032595453
0.58  -0.36  1.64842478384
0.58  -0.34  1.87358176932
0.58  -0.32  2.12949276226
0.58  -0.3  2.42035842726
0.58  -0.28  2.75095319421
0.58  -0.26  3.12670362848
0.58  -0.24  3.55377750553
0.58  -0.22  4.03918505221
0.58  -0.2  3.4973415074
0.58  -0.18  3.51596777184
0.58  -0.16  3.4747262308
0.58  -0.14  3.376365387
0.58  -0.12  3.22775182832
0.58  -0.1  3.04021801987
0.58  -0.08  2.83010836366
0.58  -0.06  2.61933033375
0.58  -0.04  2.43515770204
0.58  -0.02  2.30749946338
0.58  6.17561557e-16  2.26155760993
0.58  0.02  2.30749946338
0.58  0.04  2.43515770204
0.58  0.06  2.61933033375
0.58  0.08  2.83010836366
0.58  0.1  3.04021801987
0.58  0.12  3.22775182832
0.58  0.14  3.376365387
0.58  0.16  3.4747262308
0.58  0.18  3.51596777184
0.58  0.2  4.59089401646
0.58  0.22  4.03918505221
0.58  0.24  3.55377750553
0.58  0.26  3.12670362848
0.58  0.28  2.75095319421
0.58  0.3  2.42035842726
0.58  0.32  2.12949276226
0.58  0.34  1.87358176932
0.58  0.36  1.64842478384
0.58  0.38  1.45032595453
0.58  0.4  1.27603357764
0.58  0.42  1.12268672168
0.58  0.44  0.987768266544
0.58  0.46  0.869063586083
0.58  0.48  0.764624196015
0.58  0.5  0.672735770425
0.58  0.52  0.59189000187
0.58  0.54  0.520759843188
0.58  0.56  0.458177724612
0.58  0.58  0.403116388632
0.58  0.6  0.354672028025
0.58  0.62  0.312049450259
0.58  0.64  0.274549024769
0.58  0.66  0.241555198829
0.58  0.68  0.212526393529
0.58  0.7  0.186986114004
0.58  0.72  0.164515127979
0.58  0.74  0.14474458426
0.58  0.76  0.127349958208
0.58  0.78  0.112045724808
0.58  0.8  0.0985806719099
0.58  0.82  0.0867337766865
0.58  0.84  0.0763105776474
0.58  0.86  0.0671399826382
0.58  0.88  0.0590714604401
0.58  0.9  0.0519725698668
0.58  0.92  0.0457267858022
0.58  0.94  0.0402315864918
0.58  0.96  0.0353967706947
0.58  0.98  0.0311429770702
0.6  -1  0.0226367535276
0.6  -0.98  0.0257286890743
0.6  -0.96  0.0292429495544
0.6  -0.94  0.0332372199831
0.6  -0.92  0.0377770645246
0.6  -0.9  0.0429370026983
0.6  -0.88  0.0488017325832
0.6  -0.86  0.0554675210997
0.6  -0.84  0.0630437841874
0.6  -0.82  0.0716548828192
0.6  -0.8  0.0814421643308
0.6  -0.78  0.0925662825746
0.6  -0.76  0.10520983498
0.6  -0.74  0.11958035981
0.6  -0.72  0.135913742808
0.6  -0.7  0.154478089155
0.6  -0.68  0.175578124303
0.6  -0.66  0.199560195897
0.6  -0.64  0.226817958926
0.6  -0.62  0.257798837389
0.6  -0.6  0.293011368561
0.6  -0.58  0.333033550405
0.6  -0.56  0.378522329151
0.6  -0.54  0.430224382774
0.6  -0.52  0.488988377378
0.6  -0.5  0.555778897676
0.6  -0.48  0.631692280208
0.6  -0.46  0.717974609226
0.6  -0.44  0.816042170601
0.6  -0.42  0.927504699529
0.6  -0.4  1.05419180361
0.6  -0.38  1.19818299504
0.6  -0.36  1.36184182489
0.6  -0.34  1.5478546797
0.6  -0.32  1.75927487737
0.6  -0.3  1.99957278595
0.6  -0.28  2.27269278824
0.6  -0.26  2.583118027
0.6  -0.24  2.93594399382
0.6  -0.22  3.33696216927
0.6  -0.2  2.88931954154
0.6  -0.18  2.9047075812
0.6  -0.16  2.8706359899
0.6  -0.14  2.78937543599
0.6  -0.12  2.66659873308
0.6  -0.1  2.51166816759
0.6  -0.08  2.33808662451
0.6  -0.06  2.16395290623
0.6  -0.04  2.01179916812
0.6  -0.02  1.90633464805
0.6  6.17561557e-16  1.86837990595
0.6  0.02  1.90633464805
0.6  0.04  2.01179916812
0.6  0.06  2.16395290623
0.6  0.08  2.33808662451
0.6  0.1  2.51166816759
0.6  0.12  2.66659873308
0.6  0.14  2.78937543599
0.6  0.16  2.8706359899
0.6  0.18  2.9047075812
0.6  0.2  3.79275508748
0.6  0.22  3.33696216927
0.6  0.24  2.93594399382
0.6  0.26  2.583118027
0.6  0.28  2.27269278824
0.6  0.3  1.99957278595
0.6  0.32  1.75927487737
0.6  0.34  1.5478546797
0.6  0.36  1.36184182489
0.6  0.38  1.19818299504
0.6  0.4  1.05419180361
0.6  0.42  0.927504699529
0.6  0.44  0.816042170601
0.6  0.46  0.717974609226
0.6  0.48  0.631692280208
0.6  0.5  0.555778897676
0.6  0.52  0.488988377378
0.6  0.54  0.430224382774
0.6  0.56  0.378522329151
0.6  0.58  0.333033550405
0.6  0.6  0.293011368561
0.6  0.62  0.257798837389
0.6  0.64  0.226817958926
0.6  0.66  0.199560195897
0.6  0.68  0.175578124303
0.6  0.7  0.154478089155
0.6  0.72  0.135913742808
0.6  0.74  0.11958035981
0.6  0.76  0.10520983498
0.6  0.78  0.0925662825746
0.6  0.8  0.0814421643308
0.6  0.82  0.0716548828192
0.6  0.84  0.0630437841874
0.6  0.86  0.0554675210997
0.6  0.88  0.0488017325832
0.6  0.9  0.0429370026983
0.6  0.92  0.0377770645246
0.6  0.94  0.0332372199831
0.6  0.96  0.0292429495544
0.6  0.98  0.0257286890743
0.62  -1  0.0187012947365
0.62  -0.98  0.0212556892037
0.62  -0.96  0.0241589863102
0.62  -0.94  0.0274588423808
0.62  -0.92  0.031209423078
0.62  -0.9  0.035472292508
0.62  -0.88  0.0403174237675
0.62  -0.86  0.0458243475208
0.62  -0.84  0.0520834574604
0.62  -0.82  0.0591974940788
0.62  -0.8  0.067283231108
0.62  -0.78  0.0764733923078
0.62  -0.76  0.0869188300676
0.62  -0.74  0.09879100158
0.62  -0.72  0.112284783235
0.62  -0.7  0.127621669428
0.62  -0.68  0.145053408293
0.62  -0.66  0.164866134033
0.62  -0.64  0.187385063686
0.62  -0.62  0.21297983542
0.62  -0.6  0.242070575974
0.62  -0.58  0.275134796855
0.62  -0.56  0.312715232473
0.62  -0.54  0.355428748883
0.62  -0.52  0.40397646937
0.62  -0.5  0.459155283071
0.62  -0.48  0.521870925553
0.62  -0.46  0.593152846061
0.62  -0.44  0.674171105465
0.62  -0.42  0.766255582288
0.62  -0.4  0.870917802065
0.62  -0.38  0.989875748362
0.62  -0.36  1.12508206271
0.62  -0.34  1.27875609633
0.62  -0.32  1.45342033981
0.62  -0.3  1.65194182866
0.62  -0.28  1.87757920439
0.62  -0.26  2.1340362037
0.62  -0.24  2.42552245363
0.62  -0.22  2.7568225707
0.62  -0.2  2.38700378428
0.62  -0.18  2.39971657301
0.62  -0.16  2.37156841696
0.62  -0.14  2.30443522282
0.62  -0.12  2.20300357074
0.62  -0.1  2.07500808918
0.62  -0.08  1.93160415124
0.62  -0.06  1.78774403521
0.62  -0.04  1.66204262231
0.62  -0.02  1.57491338482
0.62  6.17561557e-16  1.54355717389
0.62  0.02  1.57491338482
0.62  0.04  1.66204262231
0.62  0.06  1.78774403521
0.62  0.08  1.93160415124
0.62  0.1  2.07500808918
0.62  0.12  2.20300357074
0.62  0.14  2.30443522282
0.62  0.16  2.37156841696
0.62  0.18  2.39971657301
0.62  0.2  3.13337469828
0.62  0.22  2.7568225707
0.62  0.24  2.42552245363
0.62  0.26  2.1340362037
0.62  0.28  1.87757920439
0.62  0.3  1.65194182866
0.62  0.32  1.45342033981
0.62  0.34  1.27875609633
0.62  0.36  1.12508206271
0.62  0.38  0.989875748362
0.62  0.4  0.870917802065
0.62  0.42  0.766255582288
0.62  0.44  0.674171105465
0.62  0.46  0.593152846061
0.62  0.48  0.521870925553
0.62  0.5  0.459155283071
0.62  0.52  0.40397646937
0.62  0.54  0.355428748883
0.62  0.56  0.312715232473
0.62  0.58  0.275134796855
0.62  0.6  0.242070575974
0.62  0.62  0.21297983542
0.62  0.64  0.187385063686
0.62  0.66  0.164866134033
0.62  0.68  0.145053408293
0.62  0.7  0.127621669428
0.62  0.72  0.112284783235
0.62  0.74  0.09879100158
0.62  0.76  0.0869188300675
0.62  0.78  0.0764733923078
0.62  0.8  0.067283231108
0.62  0.82  0.0591974940788
0.62  0.84  0.0520834574604
0.62  0.86  0.0458243475208
0.62  0.88  0.0403174237675
0.62  0.9  0.035472292508
0.62  0.92  0.031209423078
0.62  0.94  0.0274588423808
0.62  0.96  0.0241589863102
0.62  0.98  0.0212556892037
0.64  -1  0.0154500257467
0.64  -0.98  0.0175603320565
0.64  -0.96  0.0199588833696
0.64  -0.94  0.0226850508338
0.64  -0.92  0.0257835832699
0.64  -0.9  0.029305341703
0.64  -0.88  0.033308134224
0.64  -0.86  0.0378576648833
0.64  -0.84  0.0430286121937
0.64  -0.82  0.0489058549443
0.64  -0.8  0.0555858654485
0.64  -0.78  0.0631782930934
0.64  -0.76  0.071807764186
0.64  -0.74  0.0816159276378
0.64  -0.72  0.0927637800688
0.64  -0.7  0.105434308495
0.64  -0.68  0.119835493977
0.64  -0.66  0.136203725541
0.64  -0.64  0.154807680392
0.64  -0.62  0.175952734135
0.64  -0.6  0.199985973378
0.64  -0.58  0.227301893003
0.64  -0.56  0.258348871623
0.64  -0.54  0.293636531519
0.64  -0.52  0.333744103858
0.64  -0.5  0.379329936516
0.64  -0.48  0.431142300564
0.64  -0.46  0.490031672805
0.64  -0.44  0.556964695966
0.64  -0.42  0.633040045712
0.64  -0.4  0.719506464911
0.64  -0.38  0.817783261195
0.64  -0.36  0.929483604254
0.64  -0.34  1.0564410053
0.64  -0.32  1.20073941335
0.64  -0.3  1.36474742227
0.64  -0.28  1.55115715024
0.64  -0.26  1.76302842964
0.64  -0.24  2.00383903284
0.64  -0.22  2.27754175828
0.64  -0.2  1.97201693488
0.64  -0.18  1.98251957204
0.64  -0.16  1.95926504652
0.64  -0.14  1.90380313373
0.64  -0.12  1.82000563958
0.64  -0.1  1.71426250717
0.64  -0.08  1.59578971881
0.64  -0.06  1.47694006012
0.64  -0.04  1.37309216654
0.64  -0.02  1.30111057481
0.64  6.17561557e-16  1.27520572313
0.64  0.02  1.30111057481
0.64  0.04  1.37309216654
0.64  0.06  1.47694006012
0.64  0.08  1.59578971881
0.64  0.1  1.71426250717
0.64  0.12  1.82000563958
0.64  0.14  1.90380313373
0.64  0.16  1.95926504652
0.64  0.18  1.98251957204
0.64  0.2  2.58862931387
0.64  0.22  2.27754175828
0.64  0.24  2.00383903284
0.64  0.26  1.76302842964
0.64  0.28  1.55115715024
0.64  0.3  1.36474742227
0.64  0.32  1.20073941335
0.64  0.34  1.0564410053
0.64  0.36  0.929483604254
0.64  0.38  0.817783261195
0.64  0.4  0.719506464911
0.64  0.42  0.633040045712
0.64  0.44  0.556964695966
0.64  0.46  0.490031672805
0.64  0.48  0.431142300564
0.64  0.5  0.379329936516
0.64  0.52  0.333744103858
0.64  0.54  0.293636531519
0.64  0.56  0.258348871623
0.64  0.58  0.227301893003
0.64  0.6  0.199985973378
0.64  0.62  0.175952734135
0.64  0.64  0.154807680392
0.64  0.66  0.136203725541
0.64  0.68  0.119835493977
0.64  0.7  0.105434308495
0.64  0.72  0.0927637800688
0.64  0.74  0.0816159276378
0.64  0.76  0.071807764186
0.64  0.78  0.0631782930934
0.64  0.8  0.0555858654485
0.64  0.82  0.0489058549443
0.64  0.84  0.0430286121937
0.64  0.86  0.0378576648833
0.64  0.88  0.033308134224
0.64  0.9  0.029305341703
0.64  0.92  0.0257835832699
0.64  0.94  0.0226850508338
0.64  0.96  0.0199588833696
0.64  0.98  0.0175603320565
0.66  -1  0.0127639983721
0.66  -0.98  0.0145074224119
0.66  -0.96  0.0164889793075
0.66  -0.94  0.0187411954298
0.66  -0.92  0.0213010398998
0.66  -0.9  0.0242105314207
0.66  -0.88  0.0275174279955
0.66  -0.86  0.0312760108536
0.66  -0.84  0.0355479754531
0.66  -0.82  0.0404034441838
0.66  -0.8  0.045922117395
0.66  -0.78  0.0521945816413
0.66  -0.76  0.0593237966202
0.66  -0.74  0.0674267852097
0.66  -0.72  0.0766365543463
0.66  -0.7  0.0871042782746
0.66  -0.68  0.0990017800051
0.66  -0.66  0.112524351712
0.66  -0.64  0.127893960367
0.66  -0.62  0.145362891226
0.66  -0.6  0.165217888985
0.66  -0.58  0.187784864558
0.66  -0.56  0.213434244764
0.66  -0.54  0.242587052717
0.66  -0.52  0.275721818732
0.66  -0.5  0.313382435185
0.66  -0.48  0.356187084265
0.66  -0.46  0.404838385159
0.66  -0.44  0.460134927228
0.66  -0.42  0.522984378499
0.66  -0.4  0.59441838463
0.66  -0.38  0.675609502906
0.66  -0.36  0.767890449253
0.66  -0.34  0.872775974164
0.66  -0.32  0.991987726659
0.66  -0.3  1.12748251438
0.66  -0.28  1.28148442372
0.66  -0.26  1.4565213272
0.66  -0.24  1.65546637737
0.66  -0.22  1.88158516831
0.66  -0.2  1.62917663434
0.66  -0.18  1.63785336058
0.66  -0.16  1.61864169512
0.66  -0.14  1.57282198089
0.66  -0.12  1.50359290021
0.66  -0.1  1.41623348787
0.66  -0.08  1.31835750354
0.66  -0.06  1.22017016878
0.66  -0.04  1.13437650304
0.66  -0.02  1.07490909925
0.66  6.17561557e-16  1.05350787377
0.66  0.02  1.07490909925
0.66  0.04  1.13437650304
0.66  0.06  1.22017016878
0.66  0.08  1.31835750354
0.66  0.1  1.41623348787
0.66  0.12  1.50359290021
0.66  0.14  1.57282198089
0.66  0.16  1.61864169512
0.66  0.18  1.63785336058
0.66  0.2  2.13858933894
0.66  0.22  1.88158516831
0.66  0.24  1.65546637737
0.66  0.26  1.4565213272
0.66  0.28  1.28148442372
0.66  0.3  1.12748251438
0.66  0.32  0.991987726659
0.66  0.34  0.872775974164
0.66  0.36  0.767890449253
0.66  0.38  0.675609502906
0.66  0.4  0.59441838463
0.66  0.42  0.522984378499
0.66  0.44  0.460134927228
0.66  0.46  0.404838385159
0.66  0.48  0.356187084265
0.66  0.5  0.313382435185
0.66  0.52  0.275721818732
0.66  0.54  0.242587052717
0.66  0.56  0.213434244764
0.66  0.58  0.187784864558
0.66  0.6  0.165217888985
0.66  0.62  0.145362891226
0.66  0.64  0.127893960366
0.66  0.66  0.112524351712
0.66  0.68  0.0990017800051
0.66  0.7  0.0871042782746
0.66  0.72  0.0766365543463
0.66  0.74  0.0674267852097
0.66  0.76  0.0593237966202
0.66  0.78  0.0521945816413
0.66  0.8  0.045922117395
0.66  0.82  0.0404034441838
0.66  0.84  0.0355479754531
0.66  0.86  0.0312760108536
0.66  0.88  0.0275174279955
0.66  0.9  0.0242105314207
0.66  0.92  0.0213010398998
0.66  0.94  0.0187411954298
0.66  0.96  0.0164889793075
0.66  0.98  0.0145074224119
0.68  -1  0.0105449438799
0.68  -0.98  0.0119852690918
0.68  -0.96  0.0136223271398
0.68  -0.94  0.0154829896001
0.68  -0.92  0.0175977984155
0.68  -0.9  0.0200014672278
0.68  -0.88  0.0227334511862
0.68  -0.86  0.0258385945866
0.68  -0.84  0.0293678669702
0.68  -0.82  0.033379199766
0.68  -0.8  0.0379384372093
0.68  -0.78  0.0431204171452
0.68  -0.76  0.0490101994587
0.68  -0.74  0.0557044622943
0.68  -0.72  0.0633130889848
0.68  -0.7  0.0719609717374
0.68  -0.68  0.0817900616826
0.68  -0.66  0.0929616989395
0.68  -0.64  0.105659260941
0.68  -0.62  0.120091172494
0.68  -0.6  0.136494326975
0.68  -0.58  0.155137974837
0.68  -0.56  0.176328143227
0.68  -0.54  0.200412659289
0.68  -0.52  0.227786859592
0.68  -0.5  0.2589000794
0.68  -0.48  0.294263028312
0.68  -0.46  0.334456173333
0.68  -0.44  0.380139266974
0.68  -0.42  0.432062176804
0.68  -0.4  0.491077194184
0.68  -0.38  0.558153024251
0.68  -0.36  0.63439068678
0.68  -0.34  0.721041588932
0.68  -0.32  0.819528066543
0.68  -0.3  0.93146673113
0.68  -0.28  1.05869500585
0.68  -0.26  1.20330128597
0.68  -0.24  1.36765921897
0.68  -0.22  1.55446666685
0.68  -0.2  1.34594001651
0.68  -0.18  1.3531082712
0.68  -0.16  1.33723660402
0.68  -0.14  1.29938276691
0.68  -0.12  1.24218934294
0.68  -0.1  1.17001759285
0.68  -0.08  1.08915760433
0.68  -0.06  1.00804039445
0.68  -0.04  0.937162181833
0.68  -0.02  0.888033341687
0.68  6.17561557e-16  0.870352775218
0.68  0.02  0.888033341687
0.68  0.04  0.937162181833
0.68  0.06  1.00804039445
0.68  0.08  1.08915760433
0.68  0.1  1.17001759285
0.68  0.12  1.24218934294
0.68  0.14  1.29938276691
0.68  0.16  1.33723660402
0.68  0.18  1.3531082712
0.68  0.2  1.76678999041
0.68  0.22  1.55446666685
0.68  0.24  1.36765921897
0.68  0.26  1.20330128597
0.68  0.28  1.05869500585
0.68  0.3  0.93146673113
0.68  0.32  0.819528066543
0.68  0.34  0.721041588932
0.68  0.36  0.63439068678
0.68  0.38  0.558153024251
0.68  0.4  0.491077194184
0.68  0.42  0.432062176804
0.68  0.44  0.380139266974
0.68  0.46  0.334456173333
0.68  0.48  0.294263028312
0.68  0.5  0.2589000794
0.68  0.52  0.227786859592
0.68  0.54  0.200412659289
0.68  0.56  0.176328143227
0.68  0.58  0.155137974837
0.68  0.6  0.136494326975
0.68  0.62  0.120091172494
0.68  0.64  0.105659260941
0.68  0.66  0.0929616989395
0.68  0.68  0.0817900616826
0.68  0.7  0.0719609717374
0.68  0.72  0.0633130889848
0.68  0.74  0.0557044622943
0.68  0.76  0.0490101994587
0.68  0.78  0.0431204171452
0.68  0.8  0.0379384372093
0.68  0.82  0.033379199766
0.68  0.84  0.0293678669702
0.68  0.86  0.0258385945866
0.68  0.88  0.0227334511862
0.68  0.9  0.0200014672278
0.68  0.92  0.0175977984155
0.68  0.94  0.0154829896001
0.68  0.96  0.0136223271398
0.68  0.98  0.0119852690918
0.7  -1  0.00871167781362
0.7  -0.98  0.00990159872126
0.7  -0.96  0.011254049947
0.7  -0.94  0.0127912313734
0.7  -0.92  0.0145383751465
0.7  -0.9  0.0165241598507
0.7  -0.88  0.0187811812544
0.7  -0.86  0.0213464873553
0.7  -0.84  0.0242621865067
0.7  -0.82  0.0275761386072
0.7  -0.8  0.0313427406995
0.7  -0.78  0.0356238198738
0.7  -0.76  0.0404896481315
0.7  -0.74  0.0460200958691
0.7  -0.72  0.0523059429146
0.7  -0.7  0.0594503686382
0.7  -0.68  0.0675706455955
0.7  -0.66  0.0768000645038
0.7  -0.64  0.0872901221501
0.7  -0.62  0.0992130081427
0.7  -0.6  0.112764431327
0.7  -0.58  0.128166832259
0.7  -0.56  0.145673034466
0.7  -0.54  0.165570394435
0.7  -0.52  0.188185518437
0.7  -0.5  0.213889623627
0.7  -0.48  0.243104631405
0.7  -0.46  0.276310093067
0.7  -0.44  0.314051061427
0.7  -0.42  0.356947037616
0.7  -0.4  0.405702139913
0.7  -0.38  0.461116661533
0.7  -0.36  0.524100207086
0.7  -0.34  0.595686623325
0.7  -0.32  0.677050969282
0.7  -0.3  0.769528804335
0.7  -0.28  0.87463811082
0.7  -0.26  0.99410421103
0.7  -0.24  1.12988808761
0.7  -0.22  1.28421857222
0.7  -0.2  1.11194482529
0.7  -0.18  1.11786686016
0.7  -0.16  1.10475452382
0.7  -0.14  1.07348167528
0.7  -0.12  1.02623147761
0.7  -0.1  0.966606974986
0.7  -0.08  0.8998047069
0.7  -0.06  0.832789936065
0.7  -0.04  0.774234086041
0.7  -0.02  0.733646423216
0.7  6.17561557e-16  0.719039669459
0.7  0.02  0.733646423216
0.7  0.04  0.774234086041
0.7  0.06  0.832789936065
0.7  0.08  0.8998047069
0.7  0.1  0.966606974986
0.7  0.12  1.02623147761
0.7  0.14  1.07348167528
0.7  0.16  1.10475452382
0.7  0.18  1.11786686016
0.7  0.2  1.45962893079
0.7  0.22  1.28421857222
0.7  0.24  1.12988808761
0.7  0.26  0.99410421103
0.7  0.28  0.87463811082
0.7  0.3  0.769528804335
0.7  0.32  0.677050969282
0.7  0.34  0.595686623325
0.7  0.36  0.524100207086
0.7  0.38  0.461116661533
0.7  0.4  0.405702139913
0.7  0.42  0.356947037616
0.7  0.44  0.314051061427
0.7  0.46  0.276310093067
0.7  0.48  0.243104631405
0.7  0.5  0.213889623627
0.7  0.52  0.188185518437
0.7  0.54  0.165570394435
0.7  0.56  0.145673034466
0.7  0.58  0.128166832259
0.7  0.6  0.112764431327
0.7  0.62  0.0992130081427
0.7  0.64  0.0872901221501
0.7  0.66  0.0768000645038
0.7  0.68  0.0675706455955
0.7  0.7  0.0594503686382
0.7  0.72  0.0523059429146
0.7  0.74  0.0460200958691
0.7  0.76  0.0404896481315
0.7  0.78  0.0356238198738
0.7  0.8  0.0313427406995
0.7  0.82  0.0275761386072
0.7  0.84  0.0242621865067
0.7  0.86  0.0213464873553
0.7  0.88  0.0187811812544
0.7  0.9  0.0165241598507
0.7  0.92  0.0145383751465
0.7  0.94  0.0127912313734
0.7  0.96  0.011254049947
0.7  0.98  0.00990159872126
0.72  -1  0.00719712984654
0.72  -0.98  0.00818017989299
0.72  -0.96  0.00929750393678
0.72  -0.94  0.0105674423528
0.72  -0.92  0.0120108406125
0.72  -0.9  0.0136513914535
0.72  -0.88  0.0155160237845
0.72  -0.86  0.017635344712
0.72  -0.84  0.020044141942
0.72  -0.82  0.0227819548046
0.72  -0.8  0.0258937232743
0.72  -0.78  0.02943052564
0.72  -0.76  0.033450416932
0.72  -0.74  0.0380193818695
0.72  -0.72  0.0432124179699
0.72  -0.7  0.0491147666004
0.72  -0.68  0.0558233121758
0.72  -0.66  0.063448172474
0.72  -0.64  0.0721145061692
0.72  -0.62  0.0819645672562
0.72  -0.6  0.0931600400859
0.72  -0.58  0.105884693342
0.72  -0.56  0.12034739652
0.72  -0.54  0.136785548431
0.72  -0.52  0.155468973992
0.72  -0.5  0.176704353284
0.72  -0.48  0.200840255568
0.72  -0.46  0.228272860895
0.72  -0.44  0.259452463221
0.72  -0.42  0.294890861786
0.72  -0.4  0.335169762064
0.72  -0.38  0.380950324204
0.72  -0.36  0.432984015674
0.72  -0.34  0.492124946266
0.72  -0.32  0.559343887928
0.72  -0.3  0.635744209547
0.72  -0.28  0.722579988261
0.72  -0.26  0.821276594571
0.72  -0.24  0.933454089164
0.72  -0.22  1.06095381548
0.72  -0.2  0.918630309918
0.72  -0.18  0.923522783539
0.72  -0.16  0.912690061156
0.72  -0.14  0.886854079103
0.72  -0.12  0.847818451846
0.72  -0.1  0.798559824913
0.72  -0.08  0.743371305808
0.72  -0.06  0.688007228112
0.72  -0.04  0.639631465725
0.72  -0.02  0.60610007421
0.72  6.17561557e-16  0.594032742788
0.72  0.02  0.60610007421
0.72  0.04  0.639631465725
0.72  0.06  0.688007228112
0.72  0.08  0.743371305808
0.72  0.1  0.798559824913
0.72  0.12  0.847818451846
0.72  0.14  0.886854079103
0.72  0.16  0.912690061157
0.72  0.18  0.923522783539
0.72  0.2  1.20586862456
0.72  0.22  1.06095381548
0.72  0.24  0.933454089164
0.72  0.26  0.821276594571
0.72  0.28  0.722579988261
0.72  0.3  0.635744209547
0.72  0.32  0.559343887928
0.72  0.34  0.492124946266
0.72  0.36  0.432984015674
0.72  0.38  0.380950324204
0.72  0.4  0.335169762064
0.72  0.42  0.294890861786
0.72  0.44  0.259452463221
0.72  0.46  0.228272860895
0.72  0.48  0.200840255568
0.72  0.5  0.176704353284
0.72  0.52  0.155468973992
0.72  0.54  0.136785548431
0.72  0.56  0.12034739652
0.72  0.58  0.105884693342
0.72  0.6  0.0931600400859
0.72  0.62  0.0819645672562
0.72  0.64  0.0721145061692
0.72  0.66  0.063448172474
0.72  0.68  0.0558233121758
0.72  0.7  0.0491147666003
0.72  0.72  0.0432124179699
0.72  0.74  0.0380193818695
0.72  0.76  0.033450416932
0.72  0.78  0.02943052564
0.72  0.8  0.0258937232743
0.72  0.82  0.0227819548046
0.72  0.84  0.020044141942
0.72  0.86  0.017635344712
0.72  0.88  0.0155160237845
0.72  0.9  0.0136513914535
0.72  0.92  0.0120108406125
0.72  0.94  0.0105674423528
0.72  0.96  0.00929750393678
0.72  0.98  0.00818017989299
0.74  -1  0.00594589000375
0.74  -0.98  0.00675803422916
0.74  -0.96  0.00768110856637
0.74  -0.94  0.00873026486812
0.74  -0.92  0.00992272456624
0.74  -0.9  0.0112780613538
0.74  -0.88  0.0128185224784
0.74  -0.86  0.0145693939212
0.74  -0.84  0.0165594154543
0.74  -0.82  0.0188212523918
0.74  -0.8  0.0213920317765
0.74  -0.78  0.0243139518029
0.74  -0.76  0.0276349744827
0.74  -0.74  0.0314096129188
0.74  -0.72  0.0356998261146
0.74  -0.7  0.0405760360022
0.74  -0.68  0.0461182833879
0.74  -0.66  0.0524175417859
0.74  -0.64  0.0595772107075
0.74  -0.62  0.0677148129188
0.74  -0.6  0.0769639235232
0.74  -0.58  0.0874763625382
0.74  -0.56  0.0994246869523
0.74  -0.54  0.113005023171
0.74  -0.52  0.128440286345
0.74  -0.5  0.145983839421
0.74  -0.48  0.165923651983
0.74  -0.46  0.188587027143
0.74  -0.44  0.214345974077
0.74  -0.42  0.243623314387
0.74  -0.4  0.276899622531
0.74  -0.38  0.314721114237
0.74  -0.36  0.357708612387
0.74  -0.34  0.406567737556
0.74  -0.32  0.462100490446
0.74  -0.3  0.525218416381
0.74  -0.28  0.596957567909
0.74  -0.26  0.678495511141
0.74  -0.24  0.771170654978
0.74  -0.22  0.876504220492
0.74  -0.2  0.758924028516
0.74  -0.18  0.762965932805
0.74  -0.16  0.754016507534
0.74  -0.14  0.732672178516
0.74  -0.12  0.700422997128
0.74  -0.1  0.659728111287
0.74  -0.08  0.614134260535
0.74  -0.06  0.568395372512
0.74  -0.04  0.528429862909
0.74  -0.02  0.500727991486
0.74  6.17561557e-16  0.490758597185
0.74  0.02  0.500727991486
0.74  0.04  0.528429862909
0.74  0.06  0.568395372512
0.74  0.08  0.614134260535
0.74  0.1  0.659728111287
0.74  0.12  0.700422997128
0.74  0.14  0.732672178516
0.74  0.16  0.754016507534
0.74  0.18  0.762965932805
0.74  0.2  0.996225211087
0.74  0.22  0.876504220492
0.74  0.24  0.771170654978
0.74  0.26  0.678495511141
0.74  0.28  0.596957567909
0.74  0.3  0.525218416381
0.74  0.32  0.462100490446
0.74  0.34  0.406567737556
0.74  0.36  0.357708612387
0.74  0.38  0.314721114237
0.74  0.4  0.276899622531
0.74  0.42  0.243623314387
0.74  0.44  0.214345974077
0.74  0.46  0.188587027143
0.74  0.48  0.165923651983
0.74  0.5  0.145983839421
0.74  0.52  0.128440286345
0.74  0.54  0.113005023171
0.74  0.56  0.0994246869523
0.74  0.58  0.0874763625382
0.74  0.6  0.0769639235232
0.74  0.62  0.0677148129188
0.74  0.64  0.0595772107075
0.74  0.66  0.0524175417859
0.74  0.68  0.0461182833879
0.74  0.7  0.0405760360022
0.74  0.72  0.0356998261146
0.74  0.74  0.0314096129188
0.74  0.76  0.0276349744827
0.74  0.78  0.0243139518029
0.74  0.8  0.0213920317765
0.74  0.82  0.0188212523918
0.74  0.84  0.0165594154543
0.74  0.86  0.0145693939212
0.74  0.88  0.0128185224784
0.74  0.9  0.0112780613538
0.74  0.92  0.00992272456624
0.74  0.94  0.00873026486812
0.74  0.96  0.00768110856637
0.74  0.98  0.00675803422916
0.76  -1  0.00491218147936
0.76  -0.98  0.0055831323076
0.76  -0.96  0.00634572775764
0.76  -0.94  0.00721248549301
0.76  -0.92  0.00819763295458
0.76  -0.9  0.00931734089769
0.76  -0.88  0.0105899888279
0.76  -0.86  0.0120364666921
0.76  -0.84  0.0136805177782
0.76  -0.82  0.0155491284499
0.76  -0.8  0.0176729711165
0.76  -0.78  0.0200869077062
0.76  -0.76  0.0228305619093
0.76  -0.74  0.0259489695834
0.76  -0.72  0.0294933179971
0.76  -0.7  0.0335217860455
0.76  -0.68  0.0381004992314
0.76  -0.66  0.0433046150857
0.76  -0.64  0.0492195568443
0.76  -0.62  0.055942415633
0.76  -0.6  0.0635835441744
0.76  -0.58  0.0722683681788
0.76  -0.56  0.0821394451512
0.76  -0.54  0.0933588044087
0.76  -0.52  0.10611060672
0.76  -0.5  0.120604167221
0.76  -0.48  0.137077391231
0.76  -0.46  0.155800679359
0.76  -0.44  0.177081366015
0.76  -0.42  0.201268764158
0.76  -0.4  0.228759899121
0.76  -0.38  0.260006025598
0.76  -0.36  0.295520034792
0.76  -0.34  0.335884873293
0.76  -0.32  0.381763111888
0.76  -0.3  0.433907821359
0.76  -0.28  0.493174933811
0.76  -0.26  0.560537292407
0.76  -0.24  0.637100620163
0.76  -0.22  0.724121669887
0.76  -0.2  0.626983101733
0.76  -0.18  0.630322310393
0.76  -0.16  0.622928766106
0.76  -0.14  0.605295204499
0.76  -0.12  0.57865262762
0.76  -0.1  0.545032654091
0.76  -0.08  0.50736541351
0.76  -0.06  0.469578350767
0.76  -0.04  0.43656094951
0.76  -0.02  0.413675120869
0.76  6.17561557e-16  0.405438931835
0.76  0.02  0.413675120869
0.76  0.04  0.43656094951
0.76  0.06  0.469578350767
0.76  0.08  0.50736541351
0.76  0.1  0.545032654091
0.76  0.12  0.57865262762
0.76  0.14  0.605295204499
0.76  0.16  0.622928766106
0.76  0.18  0.630322310393
0.76  0.2  0.823028853222
0.76  0.22  0.724121669887
0.76  0.24  0.637100620163
0.76  0.26  0.560537292407
0.76  0.28  0.493174933811
0.76  0.3  0.433907821359
0.76  0.32  0.381763111888
0.76  0.34  0.335884873293
0.76  0.36  0.295520034792
0.76  0.38  0.260006025598
0.76  0.4  0.228759899121
0.76  0.42  0.201268764158
0.76  0.44  0.177081366015
0.76  0.46  0.155800679359
0.76  0.48  0.137077391231
0.76  0.5  0.120604167221
0.76  0.52  0.10611060672
0.76  0.54  0.0933588044087
0.76  0.56  0.0821394451512
0.76  0.58  0.0722683681788
0.76  0.6  0.0635835441744
0.76  0.62  0.055942415633
0.76  0.64  0.0492195568443
0.76  0.66  0.0433046150857
0.76  0.68  0.0381004992314
0.76  0.7  0.0335217860455
0.76  0.72  0.0294933179971
0.76  0.74  0.0259489695834
0.76  0.76  0.0228305619093
0.76  0.78  0.0200869077062
0.76  0.8  0.0176729711165
0.76  0.82  0.0155491284499
0.76  0.84  0.0136805177782
0.76  0.86  0.0120364666921
0.76  0.88  0.0105899888279
0.76  0.9  0.00931734089769
0.76  0.92  0.00819763295458
0.76  0.94  0.00721248549301
0.76  0.96  0.00634572775764
0.76  0.98  0.0055831323076
0.78  -1  0.00405818588486
0.78  -0.98  0.00461249015722
0.78  -0.96  0.00524250639424
0.78  -0.94  0.00595857603093
0.78  -0.92  0.00677245303036
0.78  -0.9  0.00769749681976
0.78  -0.88  0.00874889157956
0.78  -0.86  0.00994389548488
0.78  -0.84  0.0113021239908
0.78  -0.82  0.0128458718113
0.78  -0.8  0.0146004788769
0.78  -0.78  0.0165947462785
0.78  -0.76  0.0188614090243
0.78  -0.74  0.0214376733703
0.78  -0.72  0.0243658275445
0.78  -0.7  0.0276939358891
0.78  -0.68  0.0314766278153
0.78  -0.66  0.0357759945207
0.78  -0.64  0.0406626081882
0.78  -0.62  0.0462166803977
0.78  -0.6  0.0525293787622
0.78  -0.58  0.0597043234045
0.78  -0.56  0.0678592878345
0.78  -0.54  0.0771281321488
0.78  -0.52  0.0876630002849
0.78  -0.5  0.0996368173953
0.78  -0.48  0.113246128337
0.78  -0.46  0.128714323867
0.78  -0.44  0.146295307503
0.78  -0.42  0.166277663234
0.78  -0.4  0.1889893925
0.78  -0.38  0.214803298187
0.78  -0.36  0.244143104021
0.78  -0.34  0.277490409804
0.78  -0.32  0.315392596657
0.78  -0.3  0.358471812039
0.78  -0.28  0.40743518202
0.78  -0.26  0.463086418437
0.78  -0.24  0.526339011465
0.78  -0.22  0.598231224153
0.78  -0.2  0.517980450069
0.78  -0.18  0.520739128572
0.78  -0.16  0.514630971292
0.78  -0.14  0.500063050478
0.78  -0.12  0.478052355254
0.78  -0.1  0.450277302033
0.78  -0.08  0.419158609719
0.78  -0.06  0.387940926639
0.78  -0.04  0.360663686924
0.78  -0.02  0.341756619433
0.78  6.17561557e-16  0.334952313398
0.78  0.02  0.341756619433
0.78  0.04  0.360663686924
0.78  0.06  0.387940926639
0.78  0.08  0.419158609719
0.78  0.1  0.450277302033
0.78  0.12  0.478052355254
0.78  0.14  0.500063050478
0.78  0.16  0.514630971292
0.78  0.18  0.520739128572
0.78  0.2  0.679943135044
0.78  0.22  0.598231224153
0.78  0.24  0.526339011465
0.78  0.26  0.463086418437
0.78  0.28  0.40743518202
0.78  0.3  0.358471812039
0.78  0.32  0.315392596657
0.78  0.34  0.277490409804
0.78  0.36  0.244143104021
0.78  0.38  0.214803298187
0.78  0.4  0.1889893925
0.78  0.42  0.166277663234
0.78  0.44  0.146295307503
0.78  0.46  0.128714323867
0.78  0.48  0.113246128337
0.78  0.5  0.0996368173953
0.78  0.52  0.0876630002849
0.78  0.54  0.0771281321488
0.78  0.56  0.0678592878345
0.78  0.58  0.0597043234045
0.78  0.6  0.0525293787622
0.78  0.62  0.0462166803977
0.78  0.64  0.0406626081882
0.78  0.66  0.0357759945207
0.78  0.68  0.0314766278153
0.78  0.7  0.0276939358891
0.78  0.72  0.0243658275445
0.78  0.74  0.0214376733703
0.78  0.76  0.0188614090243
0.78  0.78  0.0165947462785
0.78  0.8  0.0146004788769
0.78  0.82  0.0128458718113
0.78  0.84  0.0113021239908
0.78  0.86  0.00994389548488
0.78  0.88  0.00874889157956
0.78  0.9  0.00769749681976
0.78  0.92  0.00677245303036
0.78  0.94  0.00595857603093
0.78  0.96  0.00524250639424
0.78  0.98  0.00461249015722
0.8  -1  0.00335265965748
0.8  -0.98  0.0038105966827
0.8  -0.96  0.00433108294956
0.8  -0.94  0.00492266200754
0.8  -0.92  0.0055950443625
0.8  -0.9  0.00635926687033
0.8  -0.88  0.00722787390196
0.8  -0.86  0.00821512325366
0.8  -0.84  0.00933722018234
0.8  -0.82  0.0106125834076
0.8  -0.8  0.012062147447
0.8  -0.78  0.0137097062462
0.8  -0.76  0.0155823037468
0.8  -0.74  0.0177106777999
0.8  -0.72  0.0201297647145
0.8  -0.7  0.0228792727211
0.8  -0.68  0.0260043337649
0.8  -0.66  0.0295562443266
0.8  -0.64  0.0335933074306
0.8  -0.62  0.0381817896637
0.8  -0.6  0.0433970089112
0.8  -0.58  0.0493245706665
0.8  -0.56  0.0560617732068
0.8  -0.54  0.0637192047011
0.8  -0.52  0.0724225584653
0.8  -0.5  0.082314696162
0.8  -0.48  0.093557992811
0.8  -0.46  0.106337002102
0.8  -0.44  0.120861485762
0.8  -0.42  0.1373698567
0.8  -0.4  0.156133092447
0.8  -0.38  0.177459183132
0.8  -0.36  0.201698187005
0.8  -0.34  0.229247976481
0.8  -0.32  0.260560769043
0.8  -0.3  0.296150550188
0.8  -0.28  0.336601510269
0.8  -0.26  0.382577633719
0.8  -0.24  0.434833598057
0.8  -0.22  0.494227161586
0.8  -0.2  0.427928194416
0.8  -0.18  0.430207269448
0.8  -0.16  0.425161031282
0.8  -0.14  0.413125781594
0.8  -0.12  0.394941703288
0.8  -0.1  0.371995415695
0.8  -0.08  0.346286789408
0.8  -0.06  0.32049638216
0.8  -0.04  0.297961361893
0.8  -0.02  0.282341337524
0.8  6.17561557e-16  0.276719977885
0.8  0.02  0.282341337524
0.8  0.04  0.297961361893
0.8  0.06  0.32049638216
0.8  0.08  0.346286789408
0.8  0.1  0.371995415695
0.8  0.12  0.394941703288
0.8  0.14  0.413125781594
0.8  0.16  0.425161031282
0.8  0.18  0.430207269448
0.8  0.2  0.56173324311
0.8  0.22  0.494227161586
0.8  0.24  0.434833598057
0.8  0.26  0.382577633719
0.8  0.28  0.336601510269
0.8  0.3  0.296150550188
0.8  0.32  0.260560769043
