0.08  -0.14  48.8562881996
0.08  -0.12  50.621950024
0.08  -0.1  52.5608198768
0.08  -0.08  54.4628165497
0.08  -0.06  56.1424910566
0.08  -0.04  57.4505225444
0.08  -0.02  58.2787821256
0.08  6.17561557e-16  58.5621144435
0.08  0.02  58.2787821256
0.08  0.04  57.4505225444
0.08  0.06  56.1424910566
0.08  0.08  54.4628165497
0.08  0.1  52.5608198768
0.08  0.12  50.621950024
0.08  0.14  48.8562881996
0.08  0.16  47.4769993102
0.08  0.18  46.6675133207
0.08  0.2  63.9633322597
0.08  0.22  51.5436278174
0.08  0.24  41.5354465554
0.08  0.26  33.4705451209
0.08  0.28  26.9715985645
0.08  0.3  21.7345467932
0.08  0.32  17.5143687971
0.08  0.34  14.1136190821
0.08  0.36  11.3731899734
0.08  0.38  9.16486759488
0.08  0.4  7.38533324668
0.08  0.42  5.95132953094
0.08  0.44  4.79576506608
0.08  0.46  3.8645755456
0.08  0.48  3.11419428221
0.08  0.5  2.50951389433
0.08  0.52  2.02224377002
0.08  0.54  1.6295864608
0.08  0.56  1.31317107887
0.08  0.58  1.05819379571
0.08  0.6  0.852725229247
0.08  0.62  0.687152315147
0.08  0.64  0.553728549382
0.08  0.66  0.446211559856
0.08  0.68  0.359571050421
0.08  0.7  0.289753453144
0.08  0.72  0.233492277841
0.08  0.74  0.188155285882
0.08  0.76  0.151621338113
0.08  0.78  0.122181155121
0.08  0.8  0.0984573467854
0.08  0.82  0.0793399696249
0.08  0.84  0.0639345969154
0.08  0.86  0.0515204719898
0.08  0.88  0.0415167868747
0.08  0.9  0.0334555085741
0.08  0.92  0.0269594816509
0.08  0.94  0.0217247826101
0.08  0.96  0.017506500517
0.08  0.98  0.014107278579
0.1  -1  0.0120621554526
0.1  -0.98  0.0149685943666
0.1  -0.96  0.0185753548106
0.1  -0.94  0.0230511828892
0.1  -0.92  0.0286054849562
0.1  -0.9  0.0354981249125
0.1  -0.88  0.0440515822134
0.1  -0.86  0.0546660394116
0.1  -0.84  0.0678381051212
0.1  -0.82  0.0841840483776
0.1  -0.8  0.104468631436
0.1  -0.78  0.129640889985
0.1  -0.76  0.16087853478
0.1  -0.74  0.199643052097
0.1  -0.72  0.247748080904
0.1  -0.7  0.307444265889
0.1  -0.68  0.381524556248
0.1  -0.66  0.473454876769
0.1  -0.64  0.587536284796
0.1  -0.62  0.729106199746
0.1  -0.6  0.904788119924
0.1  -0.58  1.1228015099
0.1  -0.56  1.39334635688
0.1  -0.54  1.72908038786
0.1  -0.52  2.1457112748
0.1  -0.5  2.66273153473
0.1  -0.48  3.3043305077
0.1  -0.46  4.10052608071
0.1  -0.44  5.08856910633
0.1  -0.42  6.31468622325
0.1  -0.4  7.83624261848
0.1  -0.38  9.72442591836
0.1  -0.36  12.067576777
0.1  -0.34  14.9753219872
0.1  -0.32  18.5837034863
0.1  -0.3  23.0615432216
0.1  -0.28  28.6183416645
0.1  -0.26  35.5140795113
0.1  -0.24  44.0713811555
0.1  -0.22  54.6906090115
0.1  -0.2  49.3849688258
0.1  -0.18  49.5167847635
0.1  -0.16  50.3756936844
0.1  -0.14  51.8391946555
0.1  -0.12  53.7126584487
0.1  -0.1  55.769905436
0.1  -0.08  57.7880279622
0.1  -0.06  59.5702545073
0.1  -0.04  60.9581474768
0.1  -0.02  61.8369762056
0.1  6.17561557e-16  62.1376072957
0.1  0.02  61.8369762056
0.1  0.04  60.9581474768
0.1  0.06  59.5702545073
0.1  0.08  57.7880279622
0.1  0.1  55.769905436
0.1  0.12  53.7126584487
0.1  0.14  51.8391946555
0.1  0.16  50.3756936844
0.1  0.18  49.5167847635
0.1  0.2  67.8685948936
0.1  0.22  54.6906090115
0.1  0.24  44.0713811555
0.1  0.26  35.5140795113
0.1  0.28  28.6183416645
0.1  0.3  23.0615432216
0.1  0.32  18.5837034863
0.1  0.34  14.9753219872
0.1  0.36  12.067576777
0.1  0.38  9.72442591836
0.1  0.4  7.83624261848
0.1  0.42  6.31468622325
0.1  0.44  5.08856910634
0.1  0.46  4.10052608071
0.1  0.48  3.3043305077
0.1  0.5  2.66273153473
0.1  0.52  2.14571127481
0.1  0.54  1.72908038786
0.1  0.56  1.39334635688
0.1  0.58  1.1228015099
0.1  0.6  0.904788119924
0.1  0.62  0.729106199746
0.1  0.64  0.587536284796
0.1  0.66  0.473454876769
0.1  0.68  0.381524556248
0.1  0.7  0.30744426589
0.1  0.72  0.247748080905
0.1  0.74  0.199643052097
0.1  0.76  0.16087853478
0.1  0.78  0.129640889985
0.1  0.8  0.104468631436
0.1  0.82  0.0841840483777
0.1  0.84  0.0678381051213
0.1  0.86  0.0546660394116
0.1  0.88  0.0440515822134
0.1  0.9  0.0354981249125
0.1  0.92  0.0286054849562
0.1  0.94  0.0230511828892
0.1  0.96  0.0185753548106
0.1  0.98  0.0149685943666
0.12  -1  0.0125233745031
0.12  -0.98  0.0155409465393
0.12  -0.96  0.0192856182077
0.12  -0.94  0.0239325879355
0.12  -0.92  0.0296992691196
0.12  -0.9  0.0368554620428
0.12  -0.88  0.0457359767647
0.12  -0.86  0.0567562975658
0.12  -0.84  0.0704320218184
0.12  -0.82  0.0874029827557
0.12  -0.8  0.108463184747
0.12  -0.78  0.134597951632
0.12  -0.76  0.167030026141
0.12  -0.74  0.207276777204
0.12  -0.72  0.257221191667
0.12  -0.7  0.31919997182
0.12  -0.68  0.396112860491
0.12  -0.66  0.491558308579
0.12  -0.64  0.61000183239
0.12  -0.62  0.756984937546
0.12  -0.6  0.939384384183
0.12  -0.58  1.16573392346
0.12  -0.56  1.44662355814
0.12  -0.54  1.79519500708
0.12  -0.52  2.22775655442
0.12  -0.5  2.76454604997
0.12  -0.48  3.43067775842
0.12  -0.46  4.25731735677
0.12  -0.44  5.28314005353
0.12  -0.42  6.55614004927
0.12  -0.4  8.13587599613
0.12  -0.38  10.0962575123
0.12  -0.36  12.529003122
0.12  -0.34  15.5479314031
0.12  -0.32  19.2942861106
0.12  -0.3  23.9433444146
0.12  -0.28  29.7126174281
0.12  -0.26  36.8720266954
0.12  -0.24  45.7565327564
0.12  -0.22  56.7818066302
0.12  -0.2  51.2732953791
0.12  -0.18  51.4101515454
0.12  -0.16  52.3019024537
0.12  -0.14  53.8213631188
0.12  -0.12  55.7664623005
0.12  -0.1  57.9023719701
0.12  -0.08  59.9976611817
0.12  -0.06  61.8480344886
0.12  -0.04  63.288996139
0.12  -0.02  64.2014285262
0.12  6.17561557e-16  64.5135548077
0.12  0.02  64.2014285262
0.12  0.04  63.288996139
0.12  0.06  61.8480344886
0.12  0.08  59.9976611817
0.12  0.1  57.9023719701
0.12  0.12  55.7664623005
0.12  0.14  53.8213631188
0.12  0.16  52.3019024537
0.12  0.18  51.4101515454
0.12  0.2  70.4636774242
0.12  0.22  56.7818066302
0.12  0.24  45.7565327564
0.12  0.26  36.8720266954
0.12  0.28  29.7126174281
0.12  0.3  23.9433444146
0.12  0.32  19.2942861106
0.12  0.34  15.5479314031
0.12  0.36  12.529003122
0.12  0.38  10.0962575123
0.12  0.4  8.13587599613
0.12  0.42  6.55614004928
0.12  0.44  5.28314005353
0.12  0.46  4.25731735677
0.12  0.48  3.43067775842
0.12  0.5  2.76454604997
0.12  0.52  2.22775655442
0.12  0.54  1.79519500708
0.12  0.56  1.44662355815
0.12  0.58  1.16573392346
0.12  0.6  0.939384384183
0.12  0.62  0.756984937546
0.12  0.64  0.610001832391
0.12  0.66  0.491558308579
0.12  0.68  0.396112860491
0.12  0.7  0.319199971821
0.12  0.72  0.257221191667
0.12  0.74  0.207276777204
0.12  0.76  0.167030026141
0.12  0.78  0.134597951632
0.12  0.8  0.108463184747
0.12  0.82  0.0874029827557
0.12  0.84  0.0704320218184
0.12  0.86  0.0567562975658
0.12  0.88  0.0457359767647
0.12  0.9  0.0368554620428
0.12  0.92  0.0296992691196
0.12  0.94  0.0239325879355
0.12  0.96  0.0192856182077
0.12  0.98  0.0155409465393
0.14  -1  0.0127428340752
0.14  -0.98  0.0158132860335
0.14  -0.96  0.0196235793154
0.14  -0.94  0.0243519825249
0.14  -0.92  0.0302197190104
0.14  -0.9  0.0375013170339
0.14  -0.88  0.0465374538656
0.14  -0.86  0.0577508947308
0.14  -0.84  0.0716662723286
0.14  -0.82  0.0889346323275
0.14  -0.8  0.110363893227
0.14  -0.78  0.136956645678
0.14  -0.76  0.16995705975
0.14  -0.74  0.210909094741
0.14  -0.72  0.261728734953
0.14  -0.7  0.324793631038
0.14  -0.68  0.403054340908
0.14  -0.66  0.500172374703
0.14  -0.64  0.620691502421
0.14  -0.62  0.77025033901
0.14  -0.6  0.955846152929
0.14  -0.58  1.18616224076
0.14  -0.56  1.47197418445
0.14  -0.54  1.82665399826
0.14  -0.52  2.26679575268
0.14  -0.5  2.81299194553
0.14  -0.48  3.49079694377
0.14  -0.46  4.33192257162
0.14  -0.44  5.37572178182
0.14  -0.42  6.67102982514
0.14  -0.4  8.27844905935
0.14  -0.38  10.2731842946
0.14  -0.36  12.7485613299
0.14  -0.34  15.8203933
0.14  -0.32  19.6323991146
0.14  -0.3  24.3629275004
0.14  -0.28  30.2333012347
0.14  -0.26  37.5181719655
0.14  -0.24  46.5583700804
0.14  -0.22  57.776850816
0.14  -0.2  52.1718084325
0.14  -0.18  52.3110628658
0.14  -0.16  53.218440814
0.14  -0.14  54.7645285026
0.14  -0.12  56.7437135958
0.14  -0.1  58.9170529391
0.14  -0.08  61.0490599917
0.14  -0.06  62.9318592341
0.14  -0.04  64.3980722915
0.14  -0.02  65.3264941408
0.14  6.17561557e-16  65.6440901222
0.14  0.02  65.3264941408
0.14  0.04  64.3980722915
0.14  0.06  62.9318592341
0.14  0.08  61.0490599917
0.14  0.1  58.9170529391
0.14  0.12  56.7437135958
0.14  0.14  54.7645285026
0.14  0.16  53.218440814
0.14  0.18  52.3110628658
0.14  0.2  71.6984826671
0.14  0.22  57.776850816
0.14  0.24  46.5583700804
0.14  0.26  37.5181719655
0.14  0.28  30.2333012347
0.14  0.3  24.3629275004
0.14  0.32  19.6323991146
0.14  0.34  15.8203933
0.14  0.36  12.7485613299
0.14  0.38  10.2731842946
0.14  0.4  8.27844905935
0.14  0.42  6.67102982515
0.14  0.44  5.37572178182
0.14  0.46  4.33192257162
0.14  0.48  3.49079694377
0.14  0.5  2.81299194553
0.14  0.52  2.26679575268
0.14  0.54  1.82665399826
0.14  0.56  1.47197418445
0.14  0.58  1.18616224076
0.14  0.6  0.955846152929
0.14  0.62  0.77025033901
0.14  0.64  0.620691502422
0.14  0.66  0.500172374703
0.14  0.68  0.403054340908
0.14  0.7  0.324793631038
0.14  0.72  0.261728734953
0.14  0.74  0.210909094741
0.14  0.76  0.16995705975
0.14  0.78  0.136956645678
0.14  0.8  0.110363893227
0.14  0.82  0.0889346323275
0.14  0.84  0.0716662723286
0.14  0.86  0.0577508947308
0.14  0.88  0.0465374538656
0.14  0.9  0.037501317034
0.14  0.92  0.0302197190104
0.14  0.94  0.0243519825249
0.14  0.96  0.0196235793154
0.14  0.98  0.0158132860335
0.16  -1  0.0127162975766
0.16  -0.98  0.015780355428
0.16  -0.96  0.0195827139097
0.16  -0.94  0.0243012703877
0.16  -0.92  0.0301567875208
0.16  -0.9  0.0374232218755
0.16  -0.88  0.0464405412737
0.16  -0.86  0.0576306305473
0.16  -0.84  0.0715170298663
0.16  -0.82  0.0887494291199
0.16  -0.8  0.110134064346
0.16  -0.78  0.136671438336
0.16  -0.76  0.16960313022
0.16  -0.74  0.210469884055
0.16  -0.72  0.261183694174
0.16  -0.7  0.324117259858
0.16  -0.68  0.402214994583
0.16  -0.66  0.499130783528
0.16  -0.64  0.619398934451
0.16  -0.62  0.768646320084
0.16  -0.6  0.953855637323
0.16  -0.58  1.1836921001
0.16  -0.56  1.46890885058
0.16  -0.54  1.8228500563
0.16  -0.52  2.26207523117
0.16  -0.5  2.80713398988
0.16  -0.48  3.48352748333
0.16  -0.46  4.32290149699
0.16  -0.44  5.36452703247
0.16  -0.42  6.65713764288
0.16  -0.4  8.26120948372
0.16  -0.38  10.2517907538
0.16  -0.36  12.7220129046
0.16  -0.34  15.7874478938
0.16  -0.32  19.591515342
0.16  -0.3  24.3121925707
0.16  -0.28  30.1703414605
0.16  -0.26  37.4400417073
0.16  -0.24  46.4614139312
0.16  -0.22  57.6565325798
0.16  -0.2  52.0631624977
0.16  -0.18  52.2021269386
0.16  -0.16  53.1076153044
0.16  -0.14  54.6504833205
0.16  -0.12  56.6255468311
0.16  -0.1  58.7943602725
0.16  -0.08  60.9219274963
0.16  -0.06  62.8008058763
0.16  -0.04  64.2639655972
0.16  -0.02  65.190454041
0.16  6.17561557e-16  65.5073886401
0.16  0.02  65.190454041
0.16  0.04  64.2639655972
0.16  0.06  62.8008058763
0.16  0.08  60.9219274963
0.16  0.1  58.7943602725
0.16  0.12  56.6255468311
0.16  0.14  54.6504833205
0.16  0.16  53.1076153044
0.16  0.18  52.2021269386
0.16  0.2  71.5491731279
0.16  0.22  57.6565325798
0.16  0.24  46.4614139312
0.16  0.26  37.4400417073
0.16  0.28  30.1703414605
0.16  0.3  24.3121925707
0.16  0.32  19.591515342
0.16  0.34  15.7874478938
0.16  0.36  12.7220129046
0.16  0.38  10.2517907538
0.16  0.4  8.26120948372
0.16  0.42  6.65713764288
0.16  0.44  5.36452703247
0.16  0.46  4.32290149699
0.16  0.48  3.48352748333
0.16  0.5  2.80713398988
0.16  0.52  2.26207523117
0.16  0.54  1.8228500563
0.16  0.56  1.46890885058
0.16  0.58  1.1836921001
0.16  0.6  0.953855637324
0.16  0.62  0.768646320084
0.16  0.64  0.619398934451
0.16  0.66  0.499130783528
0.16  0.68  0.402214994583
0.16  0.7  0.324117259858
0.16  0.72  0.261183694174
0.16  0.74  0.210469884055
0.16  0.76  0.16960313022
0.16  0.78  0.136671438336
0.16  0.8  0.110134064346
0.16  0.82  0.0887494291199
0.16  0.84  0.0715170298663
0.16  0.86  0.0576306305473
0.16  0.88  0.0464405412737
0.16  0.9  0.0374232218755
0.16  0.92  0.0301567875208
0.16  0.94  0.0243012703877
0.16  0.96  0.0195827139097
0.16  0.98  0.015780355428
0.18  -1  0.0124442772854
0.18  -0.98  0.0154427904368
0.18  -0.96  0.0191638108832
0.18  -0.94  0.0237814305044
0.18  -0.92  0.0295116895216
0.18  -0.9  0.0366226841678
0.18  -0.88  0.0454471098535
0.18  -0.86  0.0563978266742
0.18  -0.84  0.0699871755063
0.18  -0.82  0.0868509484177
0.18  -0.8  0.107778134872
0.18  -0.78  0.133747835437
0.18  -0.76  0.16597507004
0.18  -0.74  0.205967623959
0.18  -0.72  0.255596591158
0.18  -0.7  0.317183915393
0.18  -0.68  0.393611024812
0.18  -0.66  0.488453642618
0.18  -0.64  0.606149081064
0.18  -0.62  0.752203845805
0.18  -0.6  0.933451263592
0.18  -0.58  1.1583711867
0.18  -0.56  1.43748673177
0.18  -0.54  1.783856615
0.18  -0.52  2.21368611796
0.18  -0.5  2.74708526888
0.18  -0.48  3.40900971157
0.18  -0.46  4.23042828165
0.18  -0.44  5.24977191631
0.18  -0.42  6.51473168633
0.18  -0.4  8.08449007338
0.18  -0.38  10.032489885
0.18  -0.36  12.4498703541
0.18  -0.34  15.4497311844
0.18  -0.32  19.17242404
0.18  -0.3  23.792119046
0.18  -0.28  29.5249535227
0.18  -0.26  36.6391441987
0.18  -0.24  45.4675360142
0.18  -0.22  56.4231746242
0.18  -0.2  50.9494549473
0.18  -0.18  51.0854467346
0.18  -0.16  51.9715653738
0.18  -0.14  53.4814291758
0.18  -0.12  55.4142431756
0.18  -0.1  57.5366625106
0.18  -0.08  59.6187179451
0.18  -0.06  61.4574043556
0.18  -0.04  62.88926494
0.18  -0.02  63.7959344346
0.18  6.17561557e-16  64.1060893369
0.18  0.02  63.7959344346
0.18  0.04  62.88926494
0.18  0.06  61.4574043556
0.18  0.08  59.6187179451
0.18  0.1  57.5366625106
0.18  0.12  55.4142431756
0.18  0.14  53.4814291758
0.18  0.16  51.9715653738
0.18  0.18  51.0854467346
0.18  0.2  70.0186311763
0.18  0.22  56.4231746242
0.18  0.24  45.4675360142
0.18  0.26  36.6391441987
0.18  0.28  29.5249535227
0.18  0.3  23.792119046
0.18  0.32  19.17242404
0.18  0.34  15.4497311844
0.18  0.36  12.4498703541
0.18  0.38  10.032489885
0.18  0.4  8.08449007338
0.18  0.42  6.51473168633
0.18  0.44  5.24977191631
0.18  0.46  4.23042828166
0.18  0.48  3.40900971157
0.18  0.5  2.74708526888
0.18  0.52  2.21368611796
0.18  0.54  1.783856615
0.18  0.56  1.43748673177
0.18  0.58  1.1583711867
0.18  0.6  0.933451263593
0.18  0.62  0.752203845806
0.18  0.64  0.606149081064
0.18  0.66  0.488453642618
0.18  0.68  0.393611024812
0.18  0.7  0.317183915393
0.18  0.72  0.255596591158
0.18  0.74  0.205967623959
0.18  0.76  0.16597507004
0.18  0.78  0.133747835437
0.18  0.8  0.107778134872
0.18  0.82  0.0868509484177
0.18  0.84  0.0699871755063
0.18  0.86  0.0563978266742
0.18  0.88  0.0454471098535
0.18  0.9  0.0366226841678
0.18  0.92  0.0295116895217
0.18  0.94  0.0237814305044
0.18  0.96  0.0191638108832
0.18  0.98  0.0154427904368
0.2  -1  0.0119320244606
0.2  -0.98  0.0148071076372
0.2  -0.96  0.0183749570163
0.2  -0.94  0.022802498207
0.2  -0.92  0.0282968784101
0.2  -0.9  0.0351151580186
0.2  -0.88  0.0435763374603
0.2  -0.86  0.0540762819704
0.2  -0.84  0.0671062425659
0.2  -0.82  0.083275839744
0.2  -0.8  0.103341585222
0.2  -0.78  0.12824227614
0.2  -0.76  0.159142917676
0.2  -0.74  0.19748922905
0.2  -0.72  0.245075283024
0.2  -0.7  0.304127443498
0.2  -0.68  0.377408528299
0.2  -0.66  0.46834707054
0.2  -0.64  0.581197726165
0.2  -0.62  0.721240332539
0.2  -0.6  0.89502693122
0.2  -0.58  1.11068831216
0.2  -0.56  1.37831442131
0.2  -0.54  1.71042642945
0.2  -0.52  2.12256254838
0.2  -0.5  2.63400500262
0.2  -0.48  3.26868216869
0.2  -0.46  4.05628808954
0.2  -0.44  5.03367174176
0.2  -0.42  6.24656105397
0.2  -0.4  7.75170233634
0.2  -0.38  9.61951521679
0.2  -0.36  11.9373872978
0.2  -0.34  14.8137626778
0.2  -0.32  18.3832156234
0.2  -0.3  22.8127467683
0.2  -0.28  28.3095964155
0.2  -0.26  35.1309404933
0.2  -0.24  43.595922804
0.2  -0.22  54.1005865044
0.2  -0.2  48.8521855263
0.2  -0.18  48.9825793849
0.2  -0.16  49.8322220789
0.2  -0.14  51.2799342605
0.2  -0.12  53.1331864338
0.2  -0.1  55.1682390801
0.2  -0.08  57.1645893544
0.2  -0.06  58.9275885807
0.2  -0.04  60.3005084478
0.2  -0.02  61.1698560475
0.2  6.17561557e-16  61.4672438182
0.2  0.02  61.1698560475
0.2  0.04  60.3005084478
0.2  0.06  58.9275885807
0.2  0.08  57.1645893544
0.2  0.1  55.1682390801
0.2  0.12  53.1331864338
0.2  0.14  51.2799342605
0.2  0.16  49.8322220789
0.2  0.18  48.9825793849
0.2  0.2  67.1364034034
0.2  0.22  54.1005865044
0.2  0.24  43.595922804
0.2  0.26  35.1309404933
0.2  0.28  28.3095964155
0.2  0.3  22.8127467683
0.2  0.32  18.3832156234
0.2  0.34  14.8137626778
0.2  0.36  11.9373872978
0.2  0.38  9.61951521679
0.2  0.4  7.75170233634
0.2  0.42  6.24656105397
0.2  0.44  5.03367174176
0.2  0.46  4.05628808954
0.2  0.48  3.26868216869
0.2  0.5  2.63400500262
0.2  0.52  2.12256254838
0.2  0.54  1.71042642945
0.2  0.56  1.37831442131
0.2  0.58  1.11068831216
0.2  0.6  0.89502693122
0.2  0.62  0.72124033254
0.2  0.64  0.581197726166
0.2  0.66  0.46834707054
0.2  0.68  0.377408528299
0.2  0.7  0.304127443498
0.2  0.72  0.245075283024
0.2  0.74  0.19748922905
0.2  0.76  0.159142917676
0.2  0.78  0.12824227614
0.2  0.8  0.103341585222
0.2  0.82  0.083275839744
0.2  0.84  0.067106242566
0.2  0.86  0.0540762819704
0.2  0.88  0.0435763374603
0.2  0.9  0.0351151580186
0.2  0.92  0.0282968784101
0.2  0.94  0.022802498207
0.2  0.96  0.0183749570163
0.2  0.98  0.0148071076373
0.22  -1  0.0111894279686
0.22  -0.98  0.0138855786691
0.22  -0.96  0.0172313808639
0.22  -0.94  0.0213833714499
0.22  -0.92  0.0265358057009
0.22  -0.9  0.0329297457067
0.22  -0.88  0.0408643387176
0.22  -0.86  0.0507108130655
0.22  -0.84  0.0629298464742
0.22  -0.82  0.0780931193539
0.22  -0.8  0.0969100614751
0.22  -0.78  0.12026104339
0.22  -0.76  0.149238565503
0.22  -0.74  0.185198371854
0.22  -0.72  0.229822880042
0.22  -0.7  0.285199894915
0.22  -0.68  0.353920288721
0.22  -0.66  0.439199217818
0.22  -0.64  0.545026547162
0.22  -0.62  0.676353520361
0.22  -0.6  0.839324408851
0.22  -0.58  1.04156397814
0.22  -0.56  1.29253422051
0.22  -0.54  1.60397704439
0.22  -0.52  1.99046363191
0.22  -0.5  2.47007616712
0.22  -0.48  3.06525383009
0.22  -0.46  3.80384263772
0.22  -0.44  4.72039824907
0.22  -0.42  5.8578026885
0.22  -0.4  7.2692706265
0.22  -0.38  9.02083908443
0.22  -0.36  11.1944570464
0.22  -0.34  13.8918195294
0.22  -0.32  17.2391254918
0.22  -0.3  21.392982186
0.22  -0.28  26.5477321938
0.22  -0.26  32.9445459498
0.22  -0.24  40.8827051561
0.22  -0.22  50.7336049926
0.22  -0.2  45.8118413064
0.22  -0.18  45.9341200272
0.22  -0.16  46.7308847133
0.22  -0.14  48.0884976841
0.22  -0.12  49.8264116289
0.22  -0.1  51.7348115885
0.22  -0.08  53.6069178407
0.22  -0.06  55.2601957833
0.22  -0.04  56.5476711829
0.22  -0.02  57.3629144283
0.22  6.17561557e-16  57.6417940979
0.22  0.02  57.3629144283
0.22  0.04  56.5476711829
0.22  0.06  55.2601957833
0.22  0.08  53.6069178407
0.22  0.1  51.7348115885
0.22  0.12  49.8264116289
0.22  0.14  48.0884976841
0.22  0.16  46.7308847133
0.22  0.18  45.9341200272
0.22  0.2  62.9581302343
0.22  0.22  50.7336049926
0.22  0.24  40.8827051561
0.22  0.26  32.9445459498
0.22  0.28  26.5477321938
0.22  0.3  21.392982186
0.22  0.32  17.2391254918
0.22  0.34  13.8918195294
0.22  0.36  11.1944570464
0.22  0.38  9.02083908443
0.22  0.4  7.2692706265
0.22  0.42  5.8578026885
0.22  0.44  4.72039824907
0.22  0.46  3.80384263772
0.22  0.48  3.06525383009
0.22  0.5  2.47007616712
0.22  0.52  1.99046363191
0.22  0.54  1.60397704439
0.22  0.56  1.29253422051
0.22  0.58  1.04156397814
0.22  0.6  0.839324408851
0.22  0.62  0.676353520361
0.22  0.64  0.545026547162
0.22  0.66  0.439199217818
0.22  0.68  0.353920288721
0.22  0.7  0.285199894915
0.22  0.72  0.229822880043
0.22  0.74  0.185198371854
0.22  0.76  0.149238565503
0.22  0.78  0.12026104339
0.22  0.8  0.0969100614751
0.22  0.82  0.078093119354
0.22  0.84  0.0629298464742
0.22  0.86  0.0507108130655
0.22  0.88  0.0408643387176
0.22  0.9  0.0329297457067
0.22  0.92  0.0265358057009
0.22  0.94  0.0213833714499
0.22  0.96  0.017231380864
0.22  0.98  0.0138855786691
0.24  -1  0.0102308233815
0.24  -0.98  0.0126959933352
0.24  -0.96  0.0157551587743
0.24  -0.94  0.0195514459917
0.24  -0.92  0.0242624683027
0.24  -0.9  0.0301086358721
0.24  -0.88  0.0373634678374
0.24  -0.86  0.0463663891902
0.24  -0.84  0.0575386111347
0.24  -0.82  0.071402837899
0.24  -0.8  0.0886077220059
0.24  -0.78  0.109958212168
0.24  -0.76  0.136453213664
0.24  -0.74  0.169332323181
0.24  -0.72  0.210133824656
0.24  -0.7  0.26076665952
0.24  -0.68  0.32359973854
0.24  -0.66  0.40157277382
0.24  -0.64  0.498333816341
0.24  -0.62  0.618409933887
0.24  -0.6  0.767419014705
0.24  -0.58  0.952332606348
0.24  -0.56  1.18180208691
0.24  -0.54  1.46656342891
0.24  -0.52  1.81993949312
0.24  -0.5  2.2584633527
0.24  -0.48  2.80265181056
0.24  -0.46  3.47796529965
0.24  -0.44  4.3159990763
0.24  -0.42  5.35596143772
0.24  -0.4  6.64650812366
0.24  -0.38  8.24801872671
0.24  -0.36  10.2354216154
0.24  -0.34  12.7016995375
0.24  -0.32  15.7622399156
0.24  -0.3  19.5602333706
0.24  -0.28  24.2733730462
0.24  -0.26  30.1221681701
0.24  -0.24  37.3802608128
0.24  -0.22  46.3872285201
0.24  -0.2  41.8871150969
0.24  -0.18  41.998918131
0.24  -0.16  42.7274235382
0.24  -0.14  43.9687290423
0.24  -0.12  45.5577549221
0.24  -0.1  47.3026611838
0.24  -0.08  49.0143830405
0.24  -0.06  50.526023732
0.24  -0.04  51.70320039
0.24  -0.02  52.4486012881
0.24  6.17561557e-16  52.7035891795
0.24  0.02  52.4486012881
0.24  0.04  51.70320039
0.24  0.06  50.526023732
0.24  0.08  49.0143830405
0.24  0.1  47.3026611838
0.24  0.12  45.5577549221
0.24  0.14  43.9687290423
0.24  0.16  42.7274235382
0.24  0.18  41.998918131
0.24  0.2  57.5644718092
0.24  0.22  46.3872285201
0.24  0.24  37.3802608128
0.24  0.26  30.1221681702
0.24  0.28  24.2733730462
0.24  0.3  19.5602333706
0.24  0.32  15.7622399156
0.24  0.34  12.7016995375
0.24  0.36  10.2354216154
0.24  0.38  8.24801872671
0.24  0.4  6.64650812366
0.24  0.42  5.35596143772
0.24  0.44  4.3159990763
0.24  0.46  3.47796529965
0.24  0.48  2.80265181056
0.24  0.5  2.2584633527
0.24  0.52  1.81993949312
0.24  0.54  1.46656342891
0.24  0.56  1.18180208691
0.24  0.58  0.952332606349
0.24  0.6  0.767419014705
0.24  0.62  0.618409933888
0.24  0.64  0.498333816341
0.24  0.66  0.40157277382
0.24  0.68  0.32359973854
0.24  0.7  0.26076665952
0.24  0.72  0.210133824656
0.24  0.74  0.169332323181
0.24  0.76  0.136453213664
0.24  0.78  0.109958212168
0.24  0.8  0.0886077220059
0.24  0.82  0.071402837899
0.24  0.84  0.0575386111347
0.24  0.86  0.0463663891902
0.24  0.88  0.0373634678374
0.24  0.9  0.0301086358722
0.24  0.92  0.0242624683027
0.24  0.94  0.0195514459917
0.24  0.96  0.0157551587743
0.24  0.98  0.0126959933352
0.26  -1  0.00907471623446
0.26  -0.98  0.0112613161752
0.26  -0.96  0.0139747887119
0.26  -0.94  0.0173420865292
0.26  -0.92  0.0215207522194
0.26  -0.9  0.0267062890793
0.26  -0.88  0.0331413079393
0.26  -0.86  0.0411268779674
0.26  -0.84  0.0510366125091
0.26  -0.82  0.0633341489834
0.26  -0.8  0.0785948406496
0.26  -0.78  0.097532675119
0.26  -0.76  0.121033679021
0.26  -0.74  0.150197371695
0.26  -0.72  0.186388207371
0.26  -0.7  0.231299412599
0.26  -0.68  0.287032205648
0.26  -0.66  0.356194104228
0.26  -0.64  0.442020920965
0.26  -0.62  0.548528154316
0.26  -0.6  0.680698857919
0.26  -0.58  0.84471677803
0.26  -0.56  1.04825566663
0.26  -0.54  1.30083830606
0.26  -0.52  1.61428204242
0.26  -0.5  2.00325167265
0.26  -0.48  2.48594555261
0.26  -0.46  3.08494702632
0.26  -0.44  3.82828101171
0.26  -0.42  4.75072517602
0.26  -0.4  5.89543704577
0.26  -0.38  7.31597317734
0.26  -0.36  9.07879485711
0.26  -0.34  11.2663775631
0.26  -0.32  13.9810696675
0.26  -0.3  17.3498809137
0.26  -0.28  21.5304247012
0.26  -0.26  26.7182921958
0.26  -0.24  33.1562032689
0.26  -0.22  41.1453624039
0.26  -0.2  37.1537724003
0.26  -0.18  37.2529414281
0.26  -0.16  37.8991240079
0.26  -0.14  39.0001590653
0.26  -0.12  40.4096212768
0.26  -0.1  41.9573490197
0.26  -0.08  43.4756422736
0.26  -0.06  44.8164640054
0.26  -0.04  45.8606169274
0.26  -0.02  46.5217857678
0.26  6.17561557e-16  46.7479594268
0.26  0.02  46.5217857678
0.26  0.04  45.8606169274
0.26  0.06  44.8164640054
0.26  0.08  43.4756422736
0.26  0.1  41.9573490197
0.26  0.12  40.4096212768
0.26  0.14  39.0001590653
0.26  0.16  37.8991240079
0.26  0.18  37.2529414281
0.26  0.2  51.0595508665
0.26  0.22  41.1453624039
0.26  0.24  33.1562032689
0.26  0.26  26.7182921958
0.26  0.28  21.5304247012
0.26  0.3  17.3498809137
0.26  0.32  13.9810696675
0.26  0.34  11.2663775631
0.26  0.36  9.07879485712
0.26  0.38  7.31597317735
0.26  0.4  5.89543704578
0.26  0.42  4.75072517602
0.26  0.44  3.82828101171
0.26  0.46  3.08494702632
0.26  0.48  2.48594555261
0.26  0.5  2.00325167265
0.26  0.52  1.61428204242
0.26  0.54  1.30083830606
0.26  0.56  1.04825566663
0.26  0.58  0.84471677803
0.26  0.6  0.680698857919
0.26  0.62  0.548528154316
0.26  0.64  0.442020920965
0.26  0.66  0.356194104229
0.26  0.68  0.287032205648
0.26  0.7  0.231299412599
0.26  0.72  0.186388207371
0.26  0.74  0.150197371695
0.26  0.76  0.121033679021
0.26  0.78  0.097532675119
0.26  0.8  0.0785948406496
0.26  0.82  0.0633341489834
0.26  0.84  0.0510366125091
0.26  0.86  0.0411268779674
0.26  0.88  0.0331413079393
0.26  0.9  0.0267062890793
0.26  0.92  0.0215207522194
0.26  0.94  0.0173420865292
0.26  0.96  0.0139747887119
0.26  0.98  0.0112613161752
0.28  -1  0.007743424782
0.28  -0.98  0.0096092431428
0.28  -0.96  0.0119246401143
0.28  -0.94  0.0147979439943
0.28  -0.92  0.0183635853461
0.28  -0.9  0.0227883864739
0.28  -0.88  0.0282793663818
0.28  -0.86  0.0350934263762
0.28  -0.84  0.0435493694659
0.28  -0.82  0.0540428158979
0.28  -0.8  0.0670647126698
0.28  -0.78  0.0832243030039
0.28  -0.76  0.103277630437
0.28  -0.74  0.128162911118
0.28  -0.72  0.159044429241
0.28  -0.7  0.197367009315
0.28  -0.68  0.24492361381
0.28  -0.66  0.303939228801
0.28  -0.64  0.377174962294
0.28  -0.62  0.468057225594
0.28  -0.6  0.580838041577
0.28  -0.58  0.720793980084
0.28  -0.56  0.894473027825
0.28  -0.54  1.11000094287
0.28  -0.52  1.37746142683
0.28  -0.5  1.70936790152
0.28  -0.48  2.12124896266
0.28  -0.46  2.6323749016
0.28  -0.44  3.26665928638
0.28  -0.42  4.05377778324
0.28  -0.4  5.03055656414
0.28  -0.38  6.24269525815
0.28  -0.36  7.74690505697
0.28  -0.34  9.61356200807
0.28  -0.32  11.9299996325
0.28  -0.3  14.8045949163
0.28  -0.28  18.3718388422
0.28  -0.26  22.7986286927
0.28  -0.24  28.2920765163
0.28  -0.22  35.1091990836
0.28  -0.2  31.7031887847
0.28  -0.18  31.787809382
0.28  -0.16  32.3391947998
0.28  -0.14  33.2787043039
0.28  -0.12  34.4813936592
0.28  -0.1  35.8020645265
0.28  -0.08  37.0976190436
0.28  -0.06  38.2417377089
0.28  -0.04  39.1327098786
0.28  -0.02  39.696883022
0.28  6.17561557e-16  39.889876243
0.28  0.02  39.696883022
0.28  0.04  39.1327098786
0.28  0.06  38.2417377089
0.28  0.08  37.0976190436
0.28  0.1  35.8020645265
0.28  0.12  34.4813936592
0.28  0.14  33.2787043039
0.28  0.16  32.3391947998
0.28  0.18  31.787809382
0.28  0.2  43.5689426889
0.28  0.22  35.1091990836
0.28  0.24  28.2920765163
0.28  0.26  22.7986286927
0.28  0.28  18.3718388422
0.28  0.3  14.8045949163
0.28  0.32  11.9299996325
0.28  0.34  9.61356200807
0.28  0.36  7.74690505697
0.28  0.38  6.24269525815
0.28  0.4  5.03055656414
0.28  0.42  4.05377778324
0.28  0.44  3.26665928638
0.28  0.46  2.6323749016
0.28  0.48  2.12124896266
0.28  0.5  1.70936790152
0.28  0.52  1.37746142683
0.28  0.54  1.11000094287
0.28  0.56  0.894473027825
0.28  0.58  0.720793980084
0.28  0.6  0.580838041577
0.28  0.62  0.468057225594
0.28  0.64  0.377174962294
0.28  0.66  0.303939228801
0.28  0.68  0.24492361381
0.28  0.7  0.197367009315
0.28  0.72  0.159044429241
0.28  0.74  0.128162911118
0.28  0.76  0.103277630437
0.28  0.78  0.083224303004
0.28  0.8  0.0670647126698
0.28  0.82  0.0540428158979
0.28  0.84  0.0435493694659
0.28  0.86  0.0350934263762
0.28  0.88  0.0282793663818
0.28  0.9  0.0227883864739
0.28  0.92  0.0183635853461
0.28  0.94  0.0147979439944
0.28  0.96  0.0119246401143
0.28  0.98  0.0096092431428
0.3  -1  0.0062626491521
0.3  -0.98  0.00777166694516
0.3  -0.96  0.00964429040164
0.3  -0.94  0.0119681321919
0.3  -0.92  0.0148519157136
0.3  -0.9  0.018430561831
0.3  -0.88  0.0228715012903
0.3  -0.86  0.0283825081442
0.3  -0.84  0.0352214206812
0.3  -0.82  0.0437082046625
0.3  -0.8  0.054239923259
0.3  -0.78  0.0673093140717
0.3  -0.76  0.0835278423822
0.3  -0.74  0.103654309203
0.3  -0.72  0.128630352586
0.3  -0.7  0.159624503154
0.3  -0.68  0.198086855047
0.3  -0.66  0.245816910105
0.3  -0.64  0.30504776947
0.3  -0.62  0.378550611587
0.3  -0.6  0.469764344718
0.3  -0.58  0.582956499908
0.3  -0.56  0.723422891936
0.3  -0.54  0.897735389622
0.3  -0.52  1.11404938766
0.3  -0.5  1.38248536539
0.3  -0.48  1.71560238414
0.3  -0.46  2.12898567619
0.3  -0.44  2.64197581638
0.3  -0.42  3.27857359137
0.3  -0.4  4.06856290181
0.3  -0.38  5.04890423371
0.3  -0.36  6.26546389386
0.3  -0.34  7.77515991354
0.3  -0.32  9.64862501886
0.3  -0.3  11.9735112576
0.3  -0.28  14.8585908931
0.3  -0.26  18.4388454297
0.3  -0.24  22.881780865
0.3  -0.22  28.3952646357
0.3  -0.2  25.6405859101
0.3  -0.18  25.709024505
0.3  -0.16  26.1549684531
0.3  -0.14  26.9148154931
0.3  -0.12  27.8875144839
0.3  -0.1  28.9556333745
0.3  -0.08  30.0034389161
0.3  -0.06  30.9287676939
0.3  -0.04  31.649359197
0.3  -0.02  32.1056454731
0.3  6.17561557e-16  32.2617325878
0.3  0.02  32.1056454731
0.3  0.04  31.649359197
0.3  0.06  30.9287676939
0.3  0.08  30.0034389161
0.3  0.1  28.9556333745
0.3  0.12  27.8875144839
0.3  0.14  26.9148154931
0.3  0.16  26.1549684531
0.3  0.18  25.709024505
0.3  0.2  35.2372509155
0.3  0.22  28.3952646357
0.3  0.24  22.881780865
0.3  0.26  18.4388454297
0.3  0.28  14.8585908932
0.3  0.3  11.9735112576
0.3  0.32  9.64862501887
0.3  0.34  7.77515991354
0.3  0.36  6.26546389386
0.3  0.38  5.04890423371
0.3  0.4  4.06856290181
0.3  0.42  3.27857359137
0.3  0.44  2.64197581638
0.3  0.46  2.12898567619
0.3  0.48  1.71560238414
0.3  0.5  1.38248536539
0.3  0.52  1.11404938766
0.3  0.54  0.897735389623
0.3  0.56  0.723422891936
0.3  0.58  0.582956499908
0.3  0.6  0.469764344718
0.3  0.62  0.378550611587
0.3  0.64  0.30504776947
0.3  0.66  0.245816910105
0.3  0.68  0.198086855047
0.3  0.7  0.159624503154
0.3  0.72  0.128630352586
0.3  0.74  0.103654309203
0.3  0.76  0.0835278423822
0.3  0.78  0.0673093140717
0.3  0.8  0.054239923259
0.3  0.82  0.0437082046625
0.3  0.84  0.0352214206812
0.3  0.86  0.0283825081442
0.3  0.88  0.0228715012903
0.3  0.9  0.018430561831
0.3  0.92  0.0148519157136
0.3  0.94  0.0119681321919
0.3  0.96  0.00964429040164
0.3  0.98  0.00777166694516
0.32  -1  0.00489253468808
0.32  -0.98  0.00607141629523
0.32  -0.96  0.00753435553963
0.32  -0.94  0.00934979758218
0.32  -0.92  0.0116026798003
0.32  -0.9  0.0143984056729
0.32  -0.88  0.017867776194
0.32  -0.86  0.0221731095352
0.32  -0.84  0.0275158352737
0.32  -0.82  0.0341459184877
0.32  -0.8  0.0423735546376
0.32  -0.78  0.0525836823887
0.32  -0.76  0.065253993374
0.32  -0.74  0.080977281503
0.32  -0.72  0.100489177452
0.32  -0.7  0.124702565924
0.32  -0.68  0.154750295926
0.32  -0.66  0.192038182308
0.32  -0.64  0.238310778299
0.32  -0.62  0.295732996277
0.32  -0.6  0.366991395484
0.32  -0.58  0.455419875546
0.32  -0.56  0.565155656494
0.32  -0.54  0.701332842982
0.32  -0.52  0.870322628807
0.32  -0.5  1.08003137996
0.32  -0.48  1.3402705423
0.32  -0.46  1.66321568049
0.32  -0.44  2.0639761246
0.32  -0.42  2.56130187619
0.32  -0.4  3.17846084688
0.32  -0.38  3.94432747233
0.32  -0.36  4.89473363318
0.32  -0.34  6.07414508755
0.32  -0.32  7.53774184862
0.32  -0.3  9.35399983989
0.32  -0.28  11.6078946138
0.32  -0.26  14.4048770228
0.32  -0.24  17.8758068491
0.32  -0.22  22.1830752184
0.32  -0.2  20.0310528246
0.32  -0.18  20.0845187288
0.32  -0.16  20.4329010479
0.32  -0.14  21.0265121396
0.32  -0.12  21.7864083813
0.32  -0.1  22.6208489825
0.32  -0.08  23.4394202986
0.32  -0.06  24.1623097712
0.32  -0.04  24.7252534776
0.32  -0.02  25.0817154762
0.32  6.17561557e-16  25.2036545477
0.32  0.02  25.0817154762
0.32  0.04  24.7252534776
0.32  0.06  24.1623097712
0.32  0.08  23.4394202986
0.32  0.1  22.6208489825
0.32  0.12  21.7864083813
0.32  0.14  21.0265121396
0.32  0.16  20.4329010479
0.32  0.18  20.0845187288
0.32  0.2  27.5282022399
0.32  0.22  22.1830752184
0.32  0.24  17.8758068491
0.32  0.26  14.4048770228
0.32  0.28  11.6078946138
0.32  0.3  9.35399983989
0.32  0.32  7.53774184862
0.32  0.34  6.07414508756
0.32  0.36  4.89473363318
0.32  0.38  3.94432747233
0.32  0.4  3.17846084689
0.32  0.42  2.56130187619
0.32  0.44  2.06397612461
0.32  0.46  1.66321568049
0.32  0.48  1.3402705423
0.32  0.5  1.08003137996
0.32  0.52  0.870322628807
0.32  0.54  0.701332842982
0.32  0.56  0.565155656494
0.32  0.58  0.455419875546
0.32  0.6  0.366991395484
0.32  0.62  0.295732996277
0.32  0.64  0.238310778299
0.32  0.66  0.192038182308
0.32  0.68  0.154750295926
0.32  0.7  0.124702565924
0.32  0.72  0.100489177452
0.32  0.74  0.080977281503
0.32  0.76  0.065253993374
0.32  0.78  0.0525836823887
0.32  0.8  0.0423735546377
0.32  0.82  0.0341459184877
0.32  0.84  0.0275158352737
0.32  0.86  0.0221731095352
0.32  0.88  0.017867776194
0.32  0.9  0.0143984056729
0.32  0.92  0.0116026798003
0.32  0.94  0.00934979758218
0.32  0.96  0.00753435553963
0.32  0.98  0.00607141629523
0.34  -1  0.00382216775883
0.34  -0.98  0.00474313890315
0.34  -0.96  0.00588602282112
0.34  -0.94  0.00730429054643
0.34  -0.92  0.00906429723569
0.34  -0.9  0.0112483866646
0.34  -0.88  0.0139587437688
0.34  -0.86  0.0173221754738
0.34  -0.84  0.0214960434919
0.34  -0.82  0.0266756266557
0.34  -0.8  0.0331032572457
0.34  -0.78  0.0410796587619
0.34  -0.76  0.0509780155912
0.34  -0.74  0.0632614328341
0.34  -0.72  0.0785046031671
0.34  -0.7  0.0974206944471
0.34  -0.68  0.120894716025
0.34  -0.66  0.150024924845
0.34  -0.64  0.186174208558
0.34  -0.62  0.231033849662
0.34  -0.6  0.286702653944
0.34  -0.58  0.355785145333
0.34  -0.56  0.441513421302
0.34  -0.54  0.547898369977
0.34  -0.52  0.679917323778
0.34  -0.5  0.843746929184
0.34  -0.48  1.04705212768
0.34  -0.46  1.29934476815
0.34  -0.44  1.6124286288
0.34  -0.42  2.00095166942
0.34  -0.4  2.48309135166
0.34  -0.38  3.08140509085
0.34  -0.36  3.82388562852
0.34  -0.34  4.74527070246
0.34  -0.32  5.88866828852
0.34  -0.3  7.30757345293
0.34  -0.28  9.06837117554
0.34  -0.26  11.2534422414
0.34  -0.24  13.965017513
0.34  -0.22  17.3299609092
0.34  -0.2  15.6487483816
0.34  -0.18  15.6905172536
0.34  -0.16  15.9626820419
0.34  -0.14  16.4264255451
0.34  -0.12  17.0200750745
0.34  -0.1  17.6719604807
0.34  -0.08  18.3114484133
0.34  -0.06  18.8761873496
0.34  -0.04  19.3159727413
0.34  -0.02  19.5944495729
0.34  6.17561557e-16  19.689711358
0.34  0.02  19.5944495729
0.34  0.04  19.3159727413
0.34  0.06  18.8761873496
0.34  0.08  18.3114484133
0.34  0.1  17.6719604807
0.34  0.12  17.0200750745
0.34  0.14  16.4264255451
0.34  0.16  15.9626820419
0.34  0.18  15.6905172536
0.34  0.2  21.5057048683
0.34  0.22  17.3299609092
0.34  0.24  13.965017513
0.34  0.26  11.2534422414
0.34  0.28  9.06837117554
0.34  0.3  7.30757345293
0.34  0.32  5.88866828853
0.34  0.34  4.74527070246
0.34  0.36  3.82388562853
0.34  0.38  3.08140509085
0.34  0.4  2.48309135166
0.34  0.42  2.00095166942
0.34  0.44  1.6124286288
0.34  0.46  1.29934476815
0.34  0.48  1.04705212768
0.34  0.5  0.843746929184
0.34  0.52  0.679917323778
0.34  0.54  0.547898369977
0.34  0.56  0.441513421302
0.34  0.58  0.355785145333
0.34  0.6  0.286702653944
0.34  0.62  0.231033849662
0.34  0.64  0.186174208558
0.34  0.66  0.150024924845
0.34  0.68  0.120894716025
0.34  0.7  0.0974206944471
0.34  0.72  0.0785046031671
0.34  0.74  0.0632614328342
0.34  0.76  0.0509780155912
0.34  0.78  0.0410796587619
0.34  0.8  0.0331032572457
0.34  0.82  0.0266756266557
0.34  0.84  0.0214960434919
0.34  0.86  0.0173221754738
0.34  0.88  0.0139587437688
0.34  0.9  0.0112483866646
0.34  0.92  0.0090642972357
0.34  0.94  0.00730429054643
0.34  0.96  0.00588602282112
0.34  0.98  0.00474313890315
0.36  -1  0.00298597093491
0.36  -0.98  0.00370545611776
0.36  -0.96  0.00459830498687
0.36  -0.94  0.00570629042156
0.36  -0.92  0.00708125069305
0.36  -0.9  0.0087875147729
0.36  -0.88  0.0109049120319
0.36  -0.86  0.013532507142
0.36  -0.84  0.0167932349212
0.36  -0.82  0.0208396519699
0.36  -0.8  0.0258610741923
0.36  -0.78  0.0320924341418
0.36  -0.76  0.0398252725886
0.36  -0.74  0.0494213785638
0.36  -0.72  0.0613297160419
0.36  -0.7  0.0761074291953
0.36  -0.68  0.0944459089744
0.36  -0.66  0.117203140565
0.36  -0.64  0.145443845132
0.36  -0.62  0.180489293929
0.36  -0.6  0.22397912537
0.36  -0.58  0.277948057246
0.36  -0.56  0.344921083156
0.36  -0.54  0.428031607
0.36  -0.52  0.531168042599
0.36  -0.5  0.65915573725
0.36  -0.48  0.817982730707
0.36  -0.46  1.01507991196
0.36  -0.44  1.25966868123
0.36  -0.42  1.56319238297
0.36  -0.4  1.9398516948
0.36  -0.38  2.40726902128
0.36  -0.36  2.98731297673
0.36  -0.34  3.70712153152
0.36  -0.32  4.60037169071
0.36  -0.3  5.7088551084
0.36  -0.28  7.0844333545
0.36  -0.26  8.79146431312
0.36  -0.24  10.9098132344
0.36  -0.22  13.5385893145
0.36  -0.2  12.2251849692
0.36  -0.18  12.2578158336
0.36  -0.16  12.4704376228
0.36  -0.14  12.8327253897
0.36  -0.12  13.2964989214
0.36  -0.1  13.8057677443
0.36  -0.08  14.3053513577
0.36  -0.06  14.746539227
0.36  -0.04  15.0901103312
0.36  -0.02  15.307663243
0.36  6.17561557e-16  15.3820840793
0.36  0.02  15.307663243
0.36  0.04  15.0901103312
0.36  0.06  14.746539227
0.36  0.08  14.3053513577
0.36  0.1  13.8057677443
0.36  0.12  13.2964989214
0.36  0.14  12.8327253897
0.36  0.16  12.4704376228
0.36  0.18  12.2578158336
0.36  0.2  16.8007826248
0.36  0.22  13.5385893145
0.36  0.24  10.9098132344
0.36  0.26  8.79146431313
0.36  0.28  7.0844333545
0.36  0.3  5.70885510841
0.36  0.32  4.60037169071
0.36  0.34  3.70712153152
0.36  0.36  2.98731297673
0.36  0.38  2.40726902128
0.36  0.4  1.9398516948
0.36  0.42  1.56319238297
0.36  0.44  1.25966868123
0.36  0.46  1.01507991196
0.36  0.48  0.817982730707
0.36  0.5  0.65915573725
0.36  0.52  0.531168042599
0.36  0.54  0.428031607
0.36  0.56  0.344921083156
0.36  0.58  0.277948057246
0.36  0.6  0.22397912537
0.36  0.62  0.180489293929
0.36  0.64  0.145443845132
0.36  0.66  0.117203140565
0.36  0.68  0.0944459089744
0.36  0.7  0.0761074291953
0.36  0.72  0.0613297160419
0.36  0.74  0.0494213785638
0.36  0.76  0.0398252725886
0.36  0.78  0.0320924341418
0.36  0.8  0.0258610741923
0.36  0.82  0.0208396519699
0.36  0.84  0.0167932349212
0.36  0.86  0.013532507142
0.36  0.88  0.0109049120319
0.36  0.9  0.0087875147729
0.36  0.92  0.00708125069305
0.36  0.94  0.00570629042156
0.36  0.96  0.00459830498687
0.36  0.98  0.00370545611776
0.38  -1  0.00233271352455
0.38  -0.98  0.0028947929464
0.38  -0.96  0.00359230832004
0.38  -0.94  0.00445789364048
0.38  -0.92  0.00553204623304
0.38  -0.9  0.00686502146363
0.38  -0.88  0.00851918398922
0.38  -0.86  0.0105719255543
0.38  -0.84  0.0131192858456
0.38  -0.82  0.0162804458104
0.38  -0.8  0.0202033036633
0.38  -0.78  0.025071394461
0.38  -0.76  0.0311124769837
0.38  -0.74  0.0386091896709
0.38  -0.72  0.0479122741602
0.38  -0.7  0.0594569851056
0.38  -0.68  0.0737834540275
0.38  -0.66  0.0915619599371
0.38  -0.64  0.11362428905
0.38  -0.62  0.141002650784
0.38  -0.6  0.17497797077
0.38  -0.58  0.217139820311
0.38  -0.56  0.269460786163
0.38  -0.54  0.334388760089
0.38  -0.52  0.414961466066
0.38  -0.5  0.514948583421
0.38  -0.48  0.639028115264
0.38  -0.46  0.793005253816
0.38  -0.44  0.984083982471
0.38  -0.42  1.22120412178
0.38  -0.4  1.51545958843
0.38  -0.38  1.88061743587
0.38  -0.36  2.33376196045
0.38  -0.34  2.89609400836
0.38  -0.32  3.59392287963
0.38  -0.3  4.45989723657
0.38  -0.28  5.534532606
0.38  -0.26  6.86810694105
0.38  -0.24  8.52301292843
0.38  -0.22  10.5766770963
0.38  -0.2  9.55061349876
0.38  -0.18  9.57610552808
0.38  -0.16  9.74221087004
0.38  -0.14  10.0252389343
0.38  -0.12  10.3875501601
0.38  -0.1  10.7854034202
0.38  -0.08  11.1756903577
0.38  -0.06  11.5203571117
0.38  -0.04  11.7887632612
0.38  -0.02  11.9587209168
0.38  6.17561557e-16  12.0168602943
0.38  0.02  11.9587209168
0.38  0.04  11.7887632612
0.38  0.06  11.5203571117
0.38  0.08  11.1756903577
0.38  0.1  10.7854034202
0.38  0.12  10.3875501601
0.38  0.14  10.0252389343
0.38  0.16  9.74221087004
0.38  0.18  9.57610552808
0.38  0.2  13.1251822962
0.38  0.22  10.5766770963
0.38  0.24  8.52301292843
0.38  0.26  6.86810694106
0.38  0.28  5.534532606
0.38  0.3  4.45989723657
0.38  0.32  3.59392287963
0.38  0.34  2.89609400836
0.38  0.36  2.33376196045
0.38  0.38  1.88061743587
0.38  0.4  1.51545958843
0.38  0.42  1.22120412178
0.38  0.44  0.984083982471
0.38  0.46  0.793005253816
0.38  0.48  0.639028115264
0.38  0.5  0.514948583421
0.38  0.52  0.414961466066
0.38  0.54  0.334388760089
0.38  0.56  0.269460786163
0.38  0.58  0.217139820311
0.38  0.6  0.17497797077
0.38  0.62  0.141002650784
0.38  0.64  0.11362428905
0.38  0.66  0.0915619599371
0.38  0.68  0.0737834540275
0.38  0.7  0.0594569851057
0.38  0.72  0.0479122741602
0.38  0.74  0.0386091896709
0.38  0.76  0.0311124769837
0.38  0.78  0.025071394461
0.38  0.8  0.0202033036633
0.38  0.82  0.0162804458104
0.38  0.84  0.0131192858456
0.38  0.86  0.0105719255543
0.38  0.88  0.00851918398922
0.38  0.9  0.00686502146363
0.38  0.92  0.00553204623304
0.38  0.94  0.00445789364048
0.38  0.96  0.00359230832004
0.38  0.98  0.0028947929464
0.4  -1  0.00182237285836
0.4  -0.98  0.00226148304992
0.4  -0.96  0.00280639911948
0.4  -0.94  0.00348261554209
0.4  -0.92  0.00432176981878
0.4  -0.9  0.00536312267053
0.4  -0.88  0.00665539489265
0.4  -0.86  0.00825904680878
0.4  -0.84  0.0102491069711
0.4  -0.82  0.0127186824505
0.4  -0.8  0.0157833149496
0.4  -0.78  0.0195863865434
0.4  -0.76  0.0243058279616
0.4  -0.74  0.0301624432657
0.4  -0.72  0.0374302404015
0.4  -0.7  0.04644925095
0.4  -0.68  0.0576414388652
0.4  -0.66  0.0715304425045
0.4  -0.64  0.0887660736029
0.4  -0.62  0.110154719403
0.4  -0.6  0.136697070337
0.4  -0.58  0.169634938384
0.4  -0.56  0.210509356562
0.4  -0.54  0.261232677786
0.4  -0.52  0.324178046324
0.4  -0.5  0.402290427864
0.4  -0.48  0.499224392849
0.4  -0.46  0.619515099424
0.4  -0.44  0.768790475609
0.4  -0.42  0.954034527871
0.4  -0.4  1.18391409525
0.4  -0.38  1.46918433661
0.4  -0.36  1.82319192212
0.4  -0.34  2.26249947134
0.4  -0.32  2.80766045292
0.4  -0.3  3.48418080036
0.4  -0.28  4.32371223415
0.4  -0.26  5.36553312095
0.4  -0.24  6.65838615361
0.4  -0.22  8.26275882958
0.4  -0.2  7.46117285197
0.4  -0.18  7.48108784876
0.4  -0.16  7.61085340446
0.4  -0.14  7.83196185049
0.4  -0.12  8.11500824144
0.4  -0.1  8.42582093883
0.4  -0.08  8.73072263994
0.4  -0.06  8.99998473791
0.4  -0.04  9.20967018658
0.4  -0.02  9.34244526388
0.4  6.17561557e-16  9.38786516756
0.4  0.02  9.34244526388
0.4  0.04  9.20967018658
0.4  0.06  8.99998473791
0.4  0.08  8.73072263994
0.4  0.1  8.42582093883
0.4  0.12  8.11500824144
0.4  0.14  7.83196185049
0.4  0.16  7.61085340446
0.4  0.18  7.48108784876
0.4  0.2  10.2537134226
0.4  0.22  8.26275882958
0.4  0.24  6.65838615361
0.4  0.26  5.36553312096
0.4  0.28  4.32371223415
0.4  0.3  3.48418080037
0.4  0.32  2.80766045292
0.4  0.34  2.26249947134
0.4  0.36  1.82319192212
0.4  0.38  1.46918433661
0.4  0.4  1.18391409525
0.4  0.42  0.954034527871
0.4  0.44  0.76879047561
0.4  0.46  0.619515099424
0.4  0.48  0.499224392849
0.4  0.5  0.402290427864
0.4  0.52  0.324178046324
0.4  0.54  0.261232677786
0.4  0.56  0.210509356562
0.4  0.58  0.169634938384
0.4  0.6  0.136697070337
0.4  0.62  0.110154719403
0.4  0.64  0.0887660736029
0.4  0.66  0.0715304425045
0.4  0.68  0.0576414388653
0.4  0.7  0.04644925095
0.4  0.72  0.0374302404015
0.4  0.74  0.0301624432658
0.4  0.76  0.0243058279616
0.4  0.78  0.0195863865434
0.4  0.8  0.0157833149496
0.4  0.82  0.0127186824505
0.4  0.84  0.0102491069711
0.4  0.86  0.00825904680878
0.4  0.88  0.00665539489265
0.4  0.9  0.00536312267053
0.4  0.92  0.00432176981878
0.4  0.94  0.00348261554209
0.4  0.96  0.00280639911948
0.4  0.98  0.00226148304992
0.42  -1  0.00142368224813
0.42  -0.98  0.00176672586944
0.42  -0.96  0.00219242763041
0.42  -0.94  0.00272070443851
0.42  -0.92  0.0033762722833
0.42  -0.9  0.00418980260026
0.42  -0.88  0.00519935726628
0.42  -0.86  0.00645216936491
0.42  -0.84  0.00800685303615
0.42  -0.82  0.009936145801
0.42  -0.8  0.0123303116634
0.42  -0.78  0.0153013642071
0.42  -0.76  0.01898830727
0.42  -0.74  0.0235636383854
0.42  -0.72  0.029241419262
0.42  -0.7  0.0362872908874
0.42  -0.68  0.0450309018228
0.42  -0.66  0.0558813311599
0.42  -0.64  0.0693462277191
0.42  -0.62  0.086055560937
0.42  -0.6  0.106791094653
0.42  -0.58  0.132522962758
0.42  -0.56  0.164455057936
0.42  -0.54  0.204081357056
0.42  -0.52  0.253255818462
0.42  -0.5  0.314279121376
0.42  -0.48  0.390006305611
0.42  -0.46  0.48398034763
0.42  -0.44  0.600597922449
0.42  -0.42  0.745315106733
0.42  -0.4  0.924902647113
0.42  -0.38  1.14776273674
0.42  -0.36  1.42432212078
0.42  -0.34  1.76751992271
0.42  -0.32  2.19341301494
0.42  -0.3  2.72192725655
0.42  -0.28  3.37778974569
0.42  -0.26  4.19168570308
0.42  -0.24  5.2016941125
0.42  -0.22  6.45506928635
0.42  -0.2  5.82885071563
0.42  -0.18  5.8444087982
0.42  -0.16  5.94578482409
0.42  -0.14  6.11852014995
0.42  -0.12  6.33964291325
0.42  -0.1  6.58245739423
0.42  -0.08  6.82065406035
0.42  -0.06  7.03100819684
0.42  -0.04  7.19481959778
0.42  -0.02  7.29854673555
0.42  6.17561557e-16  7.33402987518
0.42  0.02  7.29854673555
0.42  0.04  7.19481959778
0.42  0.06  7.03100819684
0.42  0.08  6.82065406035
0.42  0.1  6.58245739423
0.42  0.12  6.33964291325
0.42  0.14  6.11852014995
0.42  0.16  5.94578482409
0.42  0.18  5.8444087982
0.42  0.2  8.0104517087
0.42  0.22  6.45506928635
0.42  0.24  5.2016941125
0.42  0.26  4.19168570308
0.42  0.28  3.37778974569
0.42  0.3  2.72192725655
0.42  0.32  2.19341301494
0.42  0.34  1.76751992271
0.42  0.36  1.42432212078
0.42  0.38  1.14776273674
0.42  0.4  0.924902647113
0.42  0.42  0.745315106733
0.42  0.44  0.600597922449
0.42  0.46  0.48398034763
0.42  0.48  0.390006305611
0.42  0.5  0.314279121376
0.42  0.52  0.253255818462
0.42  0.54  0.204081357056
0.42  0.56  0.164455057936
0.42  0.58  0.132522962758
0.42  0.6  0.106791094653
0.42  0.62  0.086055560937
0.42  0.64  0.0693462277191
0.42  0.66  0.0558813311599
0.42  0.68  0.0450309018228
0.42  0.7  0.0362872908874
0.42  0.72  0.029241419262
0.42  0.74  0.0235636383854
0.42  0.76  0.01898830727
0.42  0.78  0.0153013642071
0.42  0.8  0.0123303116634
0.42  0.82  0.009936145801
0.42  0.84  0.00800685303615
0.42  0.86  0.00645216936491
0.42  0.88  0.00519935726628
0.42  0.9  0.00418980260026
0.42  0.92  0.0033762722833
0.42  0.94  0.00272070443851
0.42  0.96  0.00219242763041
0.42  0.98  0.00176672586944
0.44  -1  0.00111221539234
0.44  -0.98  0.00138020945938
0.44  -0.96  0.00171277808678
0.44  -0.94  0.00212548084973
0.44  -0.92  0.00263762648382
0.44  -0.9  0.00327317626456
0.44  -0.88  0.00406186506112
0.44  -0.86  0.00504059251357
0.44  -0.84  0.00625514942164
0.44  -0.82  0.00776236011574
0.44  -0.8  0.00963274104341
0.44  -0.78  0.0119537999559
0.44  -0.76  0.014834130051
0.44  -0.74  0.0184084906208
0.44  -0.72  0.0228441119075
0.44  -0.7  0.0283485191476
0.44  -0.68  0.0351792418595
0.44  -0.66  0.043655862635
0.44  -0.64  0.0541749691485
0.44  -0.62  0.0672287089314
0.44  -0.6  0.0834278150154
0.44  -0.58  0.103530179723
0.44  -0.56  0.128476313464
0.44  -0.54  0.159433347508
0.44  -0.52  0.197849639456
0.44  -0.5  0.245522536186
0.44  -0.48  0.304682464629
0.44  -0.46  0.37809728465
0.44  -0.44  0.469201786305
0.44  -0.42  0.582258390128
0.44  -0.4  0.722556568984
0.44  -0.38  0.896660321662
