-0.38  0.62  0.00250256626919
-0.38  0.64  0.00198288701429
-0.38  0.66  0.00157112359415
-0.38  0.68  0.00124486636419
-0.38  0.7  0.000986359233912
-0.38  0.72  0.000781533316592
-0.38  0.74  0.000619241249986
-0.38  0.76  0.000490650516803
-0.38  0.78  0.000388762747385
-0.38  0.8  0.000308032843294
-0.38  0.82  0.00024406719313
-0.38  0.84  0.000193384556418
-0.38  0.86  0.000153226601991
-0.38  0.88  0.000121407789705
-0.38  0.9  0.0000961964254866
-0.38  0.92  0.0000762204163251
-0.38  0.94  0.0000603925960386
-0.38  0.96  0.0000478515577863
-0.38  0.98  0.0000379147732135
-0.36  -1  0.0000383081906435
-0.36  -0.98  0.0000483480828949
-0.36  -0.96  0.0000610192515058
-0.36  -0.94  0.0000770113069928
-0.36  -0.92  0.0000971945944662
-0.36  -0.9  0.000122667560938
-0.36  -0.88  0.000154816536754
-0.36  -0.86  0.000195391184672
-0.36  -0.84  0.000246599722794
-0.36  -0.82  0.00031122910373
-0.36  -0.8  0.000392796690569
-0.36  -0.78  0.000495741684413
-0.36  -0.76  0.000625666721655
-0.36  -0.74  0.00078964278957
-0.36  -0.72  0.000996594054852
-0.36  -0.7  0.00125778354882
-0.36  -0.68  0.00158742614205
-0.36  -0.66  0.00200346216869
-0.36  -0.64  0.00252853380391
-0.36  -0.62  0.00319121733239
-0.36  -0.6  0.0040275783724
-0.36  -0.58  0.00508313469635
-0.36  -0.56  0.00641533347142
-0.36  -0.54  0.00809667774082
-0.36  -0.52  0.0102186722999
-0.36  -0.5  0.0128968037156
-0.36  -0.48  0.0162768255208
-0.36  -0.46  0.0205426906446
-0.36  -0.44  0.025926562792
-0.36  -0.42  0.0327214516267
-0.36  -0.4  0.0412971594093
-0.36  -0.38  0.0521204069652
-0.36  -0.36  0.0657802343086
-0.36  -0.34  0.0830200583158
-0.36  -0.32  0.104778132143
-0.36  -0.3  0.132238608332
-0.36  -0.28  0.166895984648
-0.36  -0.26  0.210636440015
-0.36  -0.24  0.26584048715
-0.36  -0.22  0.335512528617
-0.36  -0.2  0.306850819082
-0.36  -0.18  0.308455805842
-0.36  -0.16  0.316788249141
-0.36  -0.14  0.330526967296
-0.36  -0.12  0.347714128381
-0.36  -0.1  0.366224494272
-0.36  -0.08  0.384092688735
-0.36  -0.06  0.399673701733
-0.36  -0.04  0.411695387973
-0.36  -0.02  0.419261898119
-0.36  6.17561557e-16  0.421842602901
-0.36  0.02  0.419261898119
-0.36  0.04  0.411695387973
-0.36  0.06  0.399673701733
-0.36  0.08  0.384092688735
-0.36  0.1  0.366224494272
-0.36  0.12  0.347714128381
-0.36  0.14  0.330526967296
-0.36  0.16  0.316788249141
-0.36  0.18  0.308455805842
-0.36  0.2  0.423444367206
-0.36  0.22  0.335512528617
-0.36  0.24  0.26584048715
-0.36  0.26  0.210636440015
-0.36  0.28  0.166895984648
-0.36  0.3  0.132238608332
-0.36  0.32  0.104778132143
-0.36  0.34  0.0830200583158
-0.36  0.36  0.0657802343086
-0.36  0.38  0.0521204069652
-0.36  0.4  0.0412971594093
-0.36  0.42  0.0327214516267
-0.36  0.44  0.025926562792
-0.36  0.46  0.0205426906446
-0.36  0.48  0.0162768255208
-0.36  0.5  0.0128968037156
-0.36  0.52  0.0102186722999
-0.36  0.54  0.00809667774082
-0.36  0.56  0.00641533347142
-0.36  0.58  0.00508313469635
-0.36  0.6  0.0040275783724
-0.36  0.62  0.00319121733239
-0.36  0.64  0.00252853380391
-0.36  0.66  0.00200346216869
-0.36  0.68  0.00158742614205
-0.36  0.7  0.00125778354882
-0.36  0.72  0.000996594054852
-0.36  0.74  0.00078964278957
-0.36  0.76  0.000625666721655
-0.36  0.78  0.000495741684413
-0.36  0.8  0.000392796690569
-0.36  0.82  0.00031122910373
-0.36  0.84  0.000246599722794
-0.36  0.86  0.000195391184672
-0.36  0.88  0.000154816536754
-0.36  0.9  0.000122667560938
-0.36  0.92  0.0000971945944662
-0.36  0.94  0.0000770113069928
-0.36  0.96  0.0000610192515058
-0.36  0.98  0.0000483480828949
-0.34  -1  0.0000488497601279
-0.34  -0.98  0.0000616524093773
-0.34  -0.96  0.0000778104042287
-0.34  -0.94  0.0000982031208089
-0.34  -0.92  0.000123940404014
-0.34  -0.9  0.000156422969256
-0.34  -0.88  0.000197418634428
-0.34  -0.86  0.000249158530904
-0.34  -0.84  0.000314458529723
-0.34  -0.82  0.000396872491409
-0.34  -0.8  0.000500885679824
-0.34  -0.78  0.000632158866347
-0.34  -0.76  0.00079783640938
-0.34  -0.74  0.001006935076
-0.34  -0.72  0.00127083476684
-0.34  -0.7  0.0016038978511
-0.34  -0.68  0.00202425081836
-0.34  -0.66  0.00255477078719
-0.34  -0.64  0.00322433056016
-0.34  -0.62  0.00406936998549
-0.34  -0.6  0.00513587914447
-0.34  -0.58  0.00648190129692
-0.34  -0.56  0.0081806918039
-0.34  -0.54  0.0103247049476
-0.34  -0.52  0.0130306256257
-0.34  -0.5  0.0164457197623
-0.34  -0.48  0.0207558490489
-0.34  -0.46  0.0261955862052
-0.34  -0.44  0.0330609812694
-0.34  -0.42  0.0417256737045
-0.34  -0.4  0.0526612272002
-0.34  -0.38  0.0664627938634
-0.34  -0.36  0.0838815045335
-0.34  -0.34  0.105865348021
-0.34  -0.32  0.133610764065
-0.34  -0.3  0.16862775788
-0.34  -0.28  0.212822080067
-0.34  -0.26  0.268598944405
-0.34  -0.24  0.338993928229
-0.34  -0.22  0.427838179448
-0.34  -0.2  0.391289399354
-0.34  -0.18  0.393336043085
-0.34  -0.16  0.403961391074
-0.34  -0.14  0.421480701568
-0.34  -0.12  0.443397390457
-0.34  -0.1  0.467001400944
-0.34  -0.08  0.489786528583
-0.34  -0.06  0.509655092844
-0.34  -0.04  0.524984882094
-0.34  -0.02  0.534633529014
-0.34  6.17561557e-16  0.537924386855
-0.34  0.02  0.534633529014
-0.34  0.04  0.524984882094
-0.34  0.06  0.509655092844
-0.34  0.08  0.489786528583
-0.34  0.1  0.467001400944
-0.34  0.12  0.443397390457
-0.34  0.14  0.421480701568
-0.34  0.16  0.403961391074
-0.34  0.18  0.393336043085
-0.34  0.2  0.539966921383
-0.34  0.22  0.427838179448
-0.34  0.24  0.338993928229
-0.34  0.26  0.268598944405
-0.34  0.28  0.212822080067
-0.34  0.3  0.16862775788
-0.34  0.32  0.133610764065
-0.34  0.34  0.105865348021
-0.34  0.36  0.0838815045335
-0.34  0.38  0.0664627938634
-0.34  0.4  0.0526612272002
-0.34  0.42  0.0417256737045
-0.34  0.44  0.0330609812694
-0.34  0.46  0.0261955862052
-0.34  0.48  0.0207558490489
-0.34  0.5  0.0164457197623
-0.34  0.52  0.0130306256257
-0.34  0.54  0.0103247049476
-0.34  0.56  0.0081806918039
-0.34  0.58  0.00648190129692
-0.34  0.6  0.00513587914447
-0.34  0.62  0.00406936998549
-0.34  0.64  0.00322433056016
-0.34  0.66  0.00255477078719
-0.34  0.68  0.00202425081836
-0.34  0.7  0.0016038978511
-0.34  0.72  0.00127083476684
-0.34  0.74  0.00100693507601
-0.34  0.76  0.00079783640938
-0.34  0.78  0.000632158866347
-0.34  0.8  0.000500885679824
-0.34  0.82  0.000396872491409
-0.34  0.84  0.000314458529723
-0.34  0.86  0.000249158530904
-0.34  0.88  0.000197418634428
-0.34  0.9  0.000156422969256
-0.34  0.92  0.000123940404014
-0.34  0.94  0.0000982031208089
-0.34  0.96  0.0000778104042287
-0.34  0.98  0.0000616524093773
-0.32  -1  0.0000622921371244
-0.32  -0.98  0.0000786177931873
-0.32  -0.96  0.0000992221119865
-0.32  -0.94  0.000125226454571
-0.32  -0.92  0.000158046070684
-0.32  -0.9  0.000199467121738
-0.32  -0.88  0.000251743890134
-0.32  -0.86  0.000317721465411
-0.32  -0.84  0.000400990584236
-0.32  -0.82  0.000506083051196
-0.32  -0.8  0.000638718375885
-0.32  -0.78  0.000806115049159
-0.32  -0.76  0.00101738339934
-0.32  -0.74  0.00128402140902
-0.32  -0.72  0.00162054047658
-0.32  -0.7  0.00204525517859
-0.32  -0.68  0.00258128001491
-0.32  -0.66  0.00325778738279
-0.32  -0.64  0.0041115952435
-0.32  -0.62  0.00518917088809
-0.32  -0.6  0.00654915985429
-0.32  -0.58  0.00826557762735
-0.32  -0.56  0.0104318378286
-0.32  -0.54  0.0131658361205
-0.32  -0.52  0.0166163665117
-0.32  -0.5  0.0209712192621
-0.32  -0.48  0.0264674011029
-0.32  -0.46  0.0334040339948
-0.32  -0.44  0.0421586344193
-0.32  -0.42  0.053207659182
-0.32  -0.4  0.0671524359036
-0.32  -0.38  0.0847518894294
-0.32  -0.36  0.106963845246
-0.32  -0.34  0.134997157783
-0.32  -0.32  0.170377500619
-0.32  -0.3  0.215030399112
-0.32  -0.28  0.271386024413
-0.32  -0.26  0.342511452104
-0.32  -0.24  0.432277583478
-0.32  -0.22  0.545569813883
-0.32  -0.2  0.498963615298
-0.32  -0.18  0.501573450262
-0.32  -0.16  0.515122659761
-0.32  -0.14  0.537462898254
-0.32  -0.12  0.565410576729
-0.32  -0.1  0.595509890503
-0.32  -0.08  0.624564982926
-0.32  -0.06  0.649900938028
-0.32  -0.04  0.669449147305
-0.32  -0.02  0.681752889134
-0.32  6.17561557e-16  0.685949318498
-0.32  0.02  0.681752889134
-0.32  0.04  0.669449147305
-0.32  0.06  0.649900938028
-0.32  0.08  0.624564982926
-0.32  0.1  0.595509890503
-0.32  0.12  0.565410576729
-0.32  0.14  0.537462898254
-0.32  0.16  0.515122659761
-0.32  0.18  0.501573450262
-0.32  0.2  0.688553913496
-0.32  0.22  0.545569813883
-0.32  0.24  0.432277583478
-0.32  0.26  0.342511452105
-0.32  0.28  0.271386024413
-0.32  0.3  0.215030399112
-0.32  0.32  0.170377500619
-0.32  0.34  0.134997157783
-0.32  0.36  0.106963845246
-0.32  0.38  0.0847518894294
-0.32  0.4  0.0671524359036
-0.32  0.42  0.053207659182
-0.32  0.44  0.0421586344193
-0.32  0.46  0.0334040339948
-0.32  0.48  0.0264674011029
-0.32  0.5  0.0209712192621
-0.32  0.52  0.0166163665117
-0.32  0.54  0.0131658361205
-0.32  0.56  0.0104318378286
-0.32  0.58  0.00826557762735
-0.32  0.6  0.00654915985429
-0.32  0.62  0.00518917088809
-0.32  0.64  0.0041115952435
-0.32  0.66  0.00325778738279
-0.32  0.68  0.00258128001491
-0.32  0.7  0.00204525517859
-0.32  0.72  0.00162054047658
-0.32  0.74  0.00128402140902
-0.32  0.76  0.00101738339934
-0.32  0.78  0.000806115049159
-0.32  0.8  0.000638718375885
-0.32  0.82  0.000506083051196
-0.32  0.84  0.000400990584236
-0.32  0.86  0.000317721465411
-0.32  0.88  0.000251743890134
-0.32  0.9  0.000199467121738
-0.32  0.92  0.000158046070684
-0.32  0.94  0.000125226454571
-0.32  0.96  0.0000992221119865
-0.32  0.98  0.0000786177931873
-0.3  -1  0.0000794335599063
-0.3  -0.98  0.000100251676586
-0.3  -0.96  0.000126525849655
-0.3  -0.94  0.000159686014002
-0.3  -0.92  0.000201536864895
-0.3  -0.9  0.000254356075989
-0.3  -0.88  0.000321018258501
-0.3  -0.86  0.000405151407886
-0.3  -0.84  0.000511334352378
-0.3  -0.82  0.000645345949272
-0.3  -0.8  0.000814479591105
-0.3  -0.78  0.00102794013827
-0.3  -0.76  0.00129734488059
-0.3  -0.74  0.00163735579197
-0.3  -0.72  0.00206647748767
-0.3  -0.7  0.002608064312
-0.3  -0.68  0.00329159136554
-0.3  -0.66  0.00415425864609
-0.3  -0.64  0.00524301560617
-0.3  -0.62  0.00661711631084
-0.3  -0.6  0.00835134425686
-0.3  -0.58  0.0105400823592
-0.3  -0.56  0.0133024496083
-0.3  -0.54  0.0167887839536
-0.3  -0.52  0.0211888242347
-0.3  -0.5  0.0267420364505
-0.3  -0.48  0.0337506463596
-0.3  -0.46  0.0425960876914
-0.3  -0.44  0.05375976114
-0.3  -0.42  0.0678492339196
-0.3  -0.4  0.0856313057545
-0.3  -0.38  0.108073740875
-0.3  -0.36  0.136397937225
-0.3  -0.34  0.172145399323
-0.3  -0.32  0.217261632476
-0.3  -0.3  0.274202024172
-0.3  -0.28  0.346065475083
-0.3  -0.26  0.436763052374
-0.3  -0.24  0.551230844027
-0.3  -0.22  0.695698598486
-0.3  -0.2  0.636267401577
-0.3  -0.18  0.639595405584
-0.3  -0.16  0.656873058817
-0.3  -0.14  0.685360838409
-0.3  -0.12  0.720999101837
-0.3  -0.1  0.759381083163
-0.3  -0.08  0.796431496443
-0.3  -0.06  0.828739347808
-0.3  -0.04  0.853666793297
-0.3  -0.02  0.869356253617
-0.3  6.17561557e-16  0.874707447824
-0.3  0.02  0.869356253617
-0.3  0.04  0.853666793297
-0.3  0.06  0.828739347808
-0.3  0.08  0.796431496443
-0.3  0.1  0.759381083163
-0.3  0.12  0.720999101837
-0.3  0.14  0.685360838409
-0.3  0.16  0.656873058817
-0.3  0.18  0.639595405584
-0.3  0.2  0.878028769942
-0.3  0.22  0.695698598486
-0.3  0.24  0.551230844027
-0.3  0.26  0.436763052374
-0.3  0.28  0.346065475083
-0.3  0.3  0.274202024172
-0.3  0.32  0.217261632476
-0.3  0.34  0.172145399323
-0.3  0.36  0.136397937225
-0.3  0.38  0.108073740875
-0.3  0.4  0.0856313057545
-0.3  0.42  0.0678492339196
-0.3  0.44  0.05375976114
-0.3  0.46  0.0425960876914
-0.3  0.48  0.0337506463596
-0.3  0.5  0.0267420364505
-0.3  0.52  0.0211888242347
-0.3  0.54  0.0167887839536
-0.3  0.56  0.0133024496083
-0.3  0.58  0.0105400823592
-0.3  0.6  0.00835134425686
-0.3  0.62  0.00661711631084
-0.3  0.64  0.00524301560617
-0.3  0.66  0.00415425864609
-0.3  0.68  0.00329159136554
-0.3  0.7  0.002608064312
-0.3  0.72  0.00206647748767
-0.3  0.74  0.00163735579197
-0.3  0.76  0.00129734488059
-0.3  0.78  0.00102794013827
-0.3  0.8  0.000814479591105
-0.3  0.82  0.000645345949272
-0.3  0.84  0.000511334352378
-0.3  0.86  0.000405151407886
-0.3  0.88  0.000321018258501
-0.3  0.9  0.000254356075989
-0.3  0.92  0.000201536864895
-0.3  0.94  0.000159686014002
-0.3  0.96  0.000126525849655
-0.3  0.98  0.000100251676586
-0.28  -1  0.000101291924321
-0.28  -0.98  0.000127838727734
-0.28  -0.96  0.000161342973965
-0.28  -0.94  0.000203628084457
-0.28  -0.92  0.000256995366831
-0.28  -0.9  0.000324349260313
-0.28  -0.88  0.000409355405751
-0.28  -0.86  0.000516640142963
-0.28  -0.84  0.000652042292763
-0.28  -0.82  0.00082293092657
-0.28  -0.8  0.00103860641774
-0.28  -0.78  0.00131080660132
-0.28  -0.76  0.00165434558916
-0.28  -0.74  0.00208792000713
-0.28  -0.72  0.00263512653265
-0.28  -0.7  0.00332574611066
-0.28  -0.68  0.00419736473962
-0.28  -0.66  0.00529741903655
-0.28  -0.64  0.00668577790822
-0.28  -0.62  0.00843800083202
-0.28  -0.6  0.0106494500743
-0.28  -0.58  0.0134404806472
-0.28  -0.56  0.0169629904614
-0.28  -0.54  0.0214086871553
-0.28  -0.52  0.027019521514
-0.28  -0.5  0.0341008553
-0.28  -0.48  0.0430380801373
-0.28  -0.46  0.0543175919081
-0.28  -0.44  0.0685532621643
-0.28  -0.42  0.0865198472221
-0.28  -0.4  0.109195153185
-0.28  -0.38  0.137813251663
-0.28  -0.36  0.173931642384
-0.28  -0.34  0.219516017926
-0.28  -0.32  0.277047243766
-0.28  -0.3  0.349656375892
-0.28  -0.28  0.44129506412
-0.28  -0.26  0.556950615071
-0.28  -0.24  0.702917419316
-0.28  -0.22  0.887139514722
-0.28  -0.2  0.811354162703
-0.28  -0.18  0.815597960041
-0.28  -0.16  0.837630042523
-0.28  -0.14  0.873957030989
-0.28  -0.12  0.919402158795
-0.28  -0.1  0.968346015174
-0.28  -0.08  1.01559188534
-0.28  -0.06  1.05679014511
-0.28  -0.04  1.08857707402
-0.28  -0.02  1.10858392791
-0.28  6.17561557e-16  1.11540765279
-0.28  0.02  1.10858392791
-0.28  0.04  1.08857707402
-0.28  0.06  1.05679014511
-0.28  0.08  1.01559188534
-0.28  0.1  0.968346015174
-0.28  0.12  0.919402158795
-0.28  0.14  0.873957030989
-0.28  0.16  0.837630042523
-0.28  0.18  0.815597960041
-0.28  0.2  1.11964292953
-0.28  0.22  0.887139514722
-0.28  0.24  0.702917419317
-0.28  0.26  0.556950615071
-0.28  0.28  0.44129506412
-0.28  0.3  0.349656375892
-0.28  0.32  0.277047243766
-0.28  0.34  0.219516017926
-0.28  0.36  0.173931642384
-0.28  0.38  0.137813251663
-0.28  0.4  0.109195153185
-0.28  0.42  0.0865198472221
-0.28  0.44  0.0685532621643
-0.28  0.46  0.0543175919082
-0.28  0.48  0.0430380801373
-0.28  0.5  0.0341008553
-0.28  0.52  0.027019521514
-0.28  0.54  0.0214086871553
-0.28  0.56  0.0169629904614
-0.28  0.58  0.0134404806472
-0.28  0.6  0.0106494500743
-0.28  0.62  0.00843800083202
-0.28  0.64  0.00668577790822
-0.28  0.66  0.00529741903655
-0.28  0.68  0.00419736473962
-0.28  0.7  0.00332574611066
-0.28  0.72  0.00263512653265
-0.28  0.74  0.00208792000713
-0.28  0.76  0.00165434558916
-0.28  0.78  0.00131080660132
-0.28  0.8  0.00103860641774
-0.28  0.82  0.00082293092657
-0.28  0.84  0.000652042292763
-0.28  0.86  0.000516640142963
-0.28  0.88  0.000409355405751
-0.28  0.9  0.000324349260313
-0.28  0.92  0.000256995366831
-0.28  0.94  0.000203628084457
-0.28  0.96  0.000161342973965
-0.28  0.98  0.000127838727734
-0.26  -1  0.000129165228711
-0.26  -0.98  0.000163017127145
-0.26  -0.96  0.000205741003271
-0.26  -0.94  0.000259662043911
-0.26  -0.92  0.000327714825806
-0.26  -0.9  0.000413603025822
-0.26  -0.88  0.000522000988355
-0.26  -0.86  0.000658808119941
-0.26  -0.84  0.000831469956155
-0.26  -0.82  0.0010493833744
-0.26  -0.8  0.00132440800575
-0.26  -0.78  0.00167151167865
-0.26  -0.76  0.00210958502194
-0.26  -0.74  0.00266246956072
-0.26  -0.72  0.0033602552578
-0.26  -0.7  0.00424091811759
-0.26  -0.68  0.00535238697665
-0.26  -0.66  0.00675515196321
-0.26  -0.64  0.00852555658721
-0.26  -0.62  0.0107599526284
-0.26  -0.6  0.0135799439463
-0.26  -0.58  0.0171390045991
-0.26  -0.56  0.0216308314533
-0.26  -0.54  0.0272998858631
-0.26  -0.52  0.0344546981353
-0.26  -0.5  0.043484658857
-0.26  -0.48  0.0548812109305
-0.26  -0.46  0.0692645956613
-0.26  -0.44  0.0874176085181
-0.26  -0.42  0.110328201675
-0.26  -0.4  0.139243251916
-0.26  -0.38  0.175736420151
-0.26  -0.36  0.221793795697
-0.26  -0.34  0.27992198639
-0.26  -0.32  0.35328453719
-0.26  -0.3  0.445874101664
-0.26  -0.28  0.562729736534
-0.26  -0.26  0.710211145249
-0.26  -0.24  0.896344795892
-0.26  -0.22  1.13126075041
-0.26  -0.2  1.03462094035
-0.26  -0.18  1.04003253716
-0.26  -0.16  1.068127363
-0.26  -0.14  1.11445073779
-0.26  -0.12  1.17240136284
-0.26  -0.1  1.23481348943
-0.26  -0.08  1.29506038143
-0.26  -0.06  1.34759549399
-0.26  -0.04  1.38812948493
-0.26  -0.02  1.41364178393
-0.26  6.17561557e-16  1.42234324744
-0.26  0.02  1.41364178393
-0.26  0.04  1.38812948493
-0.26  0.06  1.34759549399
-0.26  0.08  1.29506038143
-0.26  0.1  1.23481348943
-0.26  0.12  1.17240136284
-0.26  0.14  1.11445073779
-0.26  0.16  1.068127363
-0.26  0.18  1.04003253716
-0.26  0.2  1.42774397897
-0.26  0.22  1.13126075041
-0.26  0.24  0.896344795892
-0.26  0.26  0.710211145249
-0.26  0.28  0.562729736534
-0.26  0.3  0.445874101664
-0.26  0.32  0.35328453719
-0.26  0.34  0.27992198639
-0.26  0.36  0.221793795697
-0.26  0.38  0.175736420151
-0.26  0.4  0.139243251916
-0.26  0.42  0.110328201675
-0.26  0.44  0.0874176085181
-0.26  0.46  0.0692645956613
-0.26  0.48  0.0548812109305
-0.26  0.5  0.043484658857
-0.26  0.52  0.0344546981353
-0.26  0.54  0.0272998858631
-0.26  0.56  0.0216308314533
-0.26  0.58  0.0171390045991
-0.26  0.6  0.0135799439463
-0.26  0.62  0.0107599526284
-0.26  0.64  0.00852555658721
-0.26  0.66  0.00675515196321
-0.26  0.68  0.00535238697666
-0.26  0.7  0.00424091811759
-0.26  0.72  0.0033602552578
-0.26  0.74  0.00266246956072
-0.26  0.76  0.00210958502194
-0.26  0.78  0.00167151167865
-0.26  0.8  0.00132440800575
-0.26  0.82  0.0010493833744
-0.26  0.84  0.000831469956155
-0.26  0.86  0.000658808119941
-0.26  0.88  0.000522000988355
-0.26  0.9  0.000413603025822
-0.26  0.92  0.000327714825806
-0.26  0.94  0.000259662043911
-0.26  0.96  0.000205741003271
-0.26  0.98  0.000163017127145
-0.24  -1  0.000164708651946
-0.24  -0.98  0.000207875846497
-0.24  -0.96  0.0002623563914
-0.24  -0.94  0.000331115313626
-0.24  -0.92  0.000417894720739
-0.24  -0.9  0.000527417459822
-0.24  -0.88  0.000665644151795
-0.24  -0.86  0.000840097589806
-0.24  -0.84  0.00106027215667
-0.24  -0.82  0.00133815054328
-0.24  -0.8  0.00168885588971
-0.24  -0.78  0.0021314748408
-0.24  -0.76  0.00269009630996
-0.24  -0.74  0.00339512248436
-0.24  -0.72  0.0042849234212
-0.24  -0.7  0.00540792528403
-0.24  -0.68  0.00682524586855
-0.24  -0.66  0.00861402085265
-0.24  -0.64  0.0108716017971
-0.24  -0.62  0.013720854367
-0.24  -0.6  0.0173168451233
-0.24  -0.58  0.0218552808011
-0.24  -0.56  0.0275831593743
-0.24  -0.54  0.0348122125721
-0.24  -0.52  0.0439358714394
-0.24  -0.5  0.0554506782681
-0.24  -0.48  0.0699833102125
-0.24  -0.46  0.0883246853107
-0.24  -0.44  0.111473007086
-0.24  -0.42  0.140688090369
-0.24  -0.4  0.177559924947
-0.24  -0.38  0.224095208516
-0.24  -0.36  0.282826558385
-0.24  -0.34  0.356950345604
-0.24  -0.32  0.45050065296
-0.24  -0.3  0.568568824255
-0.24  -0.28  0.717580553525
-0.24  -0.26  0.905645594396
-0.24  -0.24  1.14299912201
-0.24  -0.22  1.44255876801
-0.24  -0.2  1.31932581285
-0.24  -0.18  1.32622656178
-0.24  -0.16  1.36205246429
-0.24  -0.14  1.42112301053
-0.24  -0.12  1.49502036996
-0.24  -0.1  1.57460693778
-0.24  -0.08  1.6514324462
-0.24  -0.06  1.7184240635
-0.24  -0.04  1.77011211509
-0.24  -0.02  1.8026448363
-0.24  6.17561557e-16  1.81374075074
-0.24  0.02  1.8026448363
-0.24  0.04  1.77011211509
-0.24  0.06  1.7184240635
-0.24  0.08  1.6514324462
-0.24  0.1  1.57460693778
-0.24  0.12  1.49502036996
-0.24  0.14  1.42112301053
-0.24  0.16  1.36205246429
-0.24  0.18  1.32622656178
-0.24  0.2  1.82062764451
-0.24  0.22  1.44255876801
-0.24  0.24  1.14299912201
-0.24  0.26  0.905645594396
-0.24  0.28  0.717580553525
-0.24  0.3  0.568568824255
-0.24  0.32  0.45050065296
-0.24  0.34  0.356950345604
-0.24  0.36  0.282826558385
-0.24  0.38  0.224095208516
-0.24  0.4  0.177559924947
-0.24  0.42  0.140688090369
-0.24  0.44  0.111473007086
-0.24  0.46  0.0883246853107
-0.24  0.48  0.0699833102125
-0.24  0.5  0.0554506782681
-0.24  0.52  0.0439358714394
-0.24  0.54  0.0348122125721
-0.24  0.56  0.0275831593743
-0.24  0.58  0.0218552808011
-0.24  0.6  0.0173168451233
-0.24  0.62  0.013720854367
-0.24  0.64  0.0108716017971
-0.24  0.66  0.00861402085265
-0.24  0.68  0.00682524586855
-0.24  0.7  0.00540792528403
-0.24  0.72  0.0042849234212
-0.24  0.74  0.00339512248436
-0.24  0.76  0.00269009630996
-0.24  0.78  0.0021314748408
-0.24  0.8  0.00168885588971
-0.24  0.82  0.00133815054328
-0.24  0.84  0.00106027215667
-0.24  0.86  0.000840097589806
-0.24  0.88  0.000665644151795
-0.24  0.9  0.000527417459822
-0.24  0.92  0.000417894720739
-0.24  0.94  0.000331115313626
-0.24  0.96  0.0002623563914
-0.24  0.98  0.000207875846497
-0.22  -1  0.00021003284163
-0.22  -0.98  0.000265078696414
-0.22  -0.96  0.000334551086141
-0.22  -0.94  0.000422230947837
-0.22  -0.92  0.000532890134561
-0.22  -0.9  0.000672551116793
-0.22  -0.88  0.000848814746912
-0.22  -0.86  0.00107127392489
-0.22  -0.84  0.00135203567837
-0.22  -0.82  0.00170638007059
-0.22  -0.8  0.00215359179635
-0.22  -0.78  0.00271800972436
-0.22  -0.76  0.0034303515059
-0.22  -0.74  0.00432938533979
-0.22  -0.72  0.00546403987701
-0.22  -0.7  0.00689606709366
-0.22  -0.68  0.00870340305538
-0.22  -0.66  0.010984409478
-0.22  -0.64  0.0138632269254
-0.22  -0.62  0.0174965309852
-0.22  -0.6  0.0220820591167
-0.22  -0.58  0.0278693722342
-0.22  -0.56  0.0351734367082
-0.22  -0.54  0.044391765967
-0.22  -0.52  0.0560260546053
-0.22  -0.5  0.0707094824064
-0.22  -0.48  0.0892411742609
-0.22  -0.46  0.112629691414
-0.22  -0.44  0.142147920991
-0.22  -0.42  0.179402351089
-0.22  -0.4  0.226420501628
-0.22  -0.38  0.285761269272
-0.22  -0.36  0.360654191776
-0.22  -0.34  0.45517521103
-0.22  -0.32  0.574468500467
-0.22  -0.3  0.725026429453
-0.22  -0.28  0.915042901356
-0.22  -0.26  1.1548592952
-0.22  -0.24  1.45752728068
-0.22  -0.22  1.83951913688
-0.22  -0.2  1.68237518937
-0.22  -0.18  1.69117487227
-0.22  -0.16  1.73685927329
-0.22  -0.14  1.81218473153
-0.22  -0.12  1.90641701505
-0.22  -0.1  2.0079040517
-0.22  -0.08  2.10587024626
-0.22  -0.06  2.19129647967
-0.22  -0.04  2.2572079435
-0.22  -0.02  2.29869295234
-0.22  6.17561557e-16  2.3128422178
-0.22  0.02  2.29869295234
-0.22  0.04  2.2572079435
-0.22  0.06  2.19129647967
-0.22  0.08  2.10587024626
-0.22  0.1  2.0079040517
-0.22  0.12  1.90641701505
-0.22  0.14  1.81218473153
-0.22  0.16  1.73685927329
-0.22  0.18  1.69117487227
-0.22  0.2  2.3216242329
-0.22  0.22  1.83951913688
-0.22  0.24  1.45752728068
-0.22  0.26  1.1548592952
-0.22  0.28  0.915042901356
-0.22  0.3  0.725026429453
-0.22  0.32  0.574468500467
-0.22  0.34  0.45517521103
-0.22  0.36  0.360654191776
-0.22  0.38  0.285761269272
-0.22  0.4  0.226420501628
-0.22  0.42  0.179402351089
-0.22  0.44  0.142147920991
-0.22  0.46  0.112629691414
-0.22  0.48  0.0892411742609
-0.22  0.5  0.0707094824064
-0.22  0.52  0.0560260546053
-0.22  0.54  0.044391765967
-0.22  0.56  0.0351734367082
-0.22  0.58  0.0278693722342
-0.22  0.6  0.0220820591167
-0.22  0.62  0.0174965309852
-0.22  0.64  0.0138632269254
-0.22  0.66  0.010984409478
-0.22  0.68  0.00870340305538
-0.22  0.7  0.00689606709366
-0.22  0.72  0.00546403987701
-0.22  0.74  0.00432938533979
-0.22  0.76  0.00343035150591
-0.22  0.78  0.00271800972436
-0.22  0.8  0.00215359179635
-0.22  0.82  0.00170638007059
-0.22  0.84  0.00135203567837
-0.22  0.86  0.00107127392489
-0.22  0.88  0.000848814746912
-0.22  0.9  0.000672551116793
-0.22  0.92  0.000532890134561
-0.22  0.94  0.000422230947837
-0.22  0.96  0.000334551086141
-0.22  0.98  0.000265078696414
-0.2  -1  0.000267829249052
-0.2  -0.98  0.000338022509477
-0.2  -0.96  0.000426612169199
-0.2  -0.94  0.000538419595756
-0.2  -0.92  0.000679529750963
-0.2  -0.9  0.000857622356399
-0.2  -0.88  0.00108238985144
-0.2  -0.86  0.00136606489064
-0.2  -0.84  0.00172408608872
-0.2  -0.82  0.00217593824545
-0.2  -0.8  0.00274621277847
-0.2  -0.78  0.00346594607654
-0.2  -0.76  0.00437430861137
-0.2  -0.74  0.00552073673534
-0.2  -0.72  0.00696762318547
-0.2  -0.7  0.00879371272024
-0.2  -0.68  0.0110983876923
-0.2  -0.66  0.014007076793
-0.2  -0.64  0.0176780813327
-0.2  -0.62  0.0223111905662
-0.2  -0.6  0.0281585549424
-0.2  -0.58  0.035538409037
-0.2  -0.56  0.0448523910216
-0.2  -0.54  0.0566074012559
-0.2  -0.52  0.0714431896262
-0.2  -0.5  0.0901671730327
-0.2  -0.48  0.113798377917
-0.2  -0.46  0.143622899344
-0.2  -0.44  0.181263894912
-0.2  -0.42  0.228769922825
-0.2  -0.4  0.288726431783
-0.2  -0.38  0.364396470397
-0.2  -0.36  0.459898274009
-0.2  -0.34  0.580429393858
-0.2  -0.32  0.732549566488
-0.2  -0.3  0.92453771818
-0.2  -0.28  1.16684253386
-0.2  -0.26  1.47265111206
-0.2  -0.24  1.85860665422
-0.2  -0.22  2.34571424747
-0.2  -0.2  2.14532775016
-0.2  -0.18  2.15654891178
-0.2  -0.16  2.21480465276
-0.2  -0.14  2.3108580164
-0.2  -0.12  2.43102094682
-0.2  -0.1  2.56043497847
-0.2  -0.08  2.68535930991
-0.2  -0.06  2.79429295936
-0.2  -0.04  2.87834180489
-0.2  -0.02  2.93124257354
-0.2  6.17561557e-16  2.9492854049
-0.2  0.02  2.93124257354
-0.2  0.04  2.87834180489
-0.2  0.06  2.79429295936
-0.2  0.08  2.68535930991
-0.2  0.1  2.56043497847
-0.2  0.12  2.43102094682
-0.2  0.14  2.3108580164
-0.2  0.16  2.21480465276
-0.2  0.18  2.15654891178
-0.2  0.2  2.96048403694
-0.2  0.22  2.34571424747
-0.2  0.24  1.85860665422
-0.2  0.26  1.47265111206
-0.2  0.28  1.16684253386
-0.2  0.3  0.92453771818
-0.2  0.32  0.732549566488
-0.2  0.34  0.580429393858
-0.2  0.36  0.459898274009
-0.2  0.38  0.364396470397
-0.2  0.4  0.288726431783
-0.2  0.42  0.228769922825
-0.2  0.44  0.181263894912
-0.2  0.46  0.143622899344
-0.2  0.48  0.113798377917
-0.2  0.5  0.0901671730327
-0.2  0.52  0.0714431896262
-0.2  0.54  0.0566074012559
-0.2  0.56  0.0448523910216
-0.2  0.58  0.035538409037
-0.2  0.6  0.0281585549424
-0.2  0.62  0.0223111905662
-0.2  0.64  0.0176780813327
-0.2  0.66  0.014007076793
-0.2  0.68  0.0110983876923
-0.2  0.7  0.00879371272024
-0.2  0.72  0.00696762318547
-0.2  0.74  0.00552073673534
-0.2  0.76  0.00437430861137
-0.2  0.78  0.00346594607654
-0.2  0.8  0.00274621277847
-0.2  0.82  0.00217593824545
-0.2  0.84  0.00172408608872
-0.2  0.86  0.00136606489064
-0.2  0.88  0.00108238985144
-0.2  0.9  0.000857622356399
-0.2  0.92  0.000679529750963
-0.2  0.94  0.000538419595756
-0.2  0.96  0.000426612169199
-0.2  0.98  0.000338022509477
-0.18  -1  0.00034152995356
-0.18  -0.98  0.000431038851703
-0.18  -0.96  0.000544006432644
-0.18  -0.94  0.000686580797971
-0.18  -0.92  0.000866521356835
-0.18  -0.9  0.00109362112088
-0.18  -0.88  0.00138023967511
-0.18  -0.86  0.00174197583091
-0.18  -0.84  0.00219851656941
-0.18  -0.82  0.00277470847769
-0.18  -0.8  0.00350190998935
-0.18  -0.78  0.00441969802309
-0.18  -0.76  0.00557802190083
-0.18  -0.74  0.00703992176922
-0.18  -0.72  0.00888495947092
-0.18  -0.7  0.0112135485859
-0.18  -0.68  0.014152419299
-0.18  -0.66  0.0178615155125
-0.18  -0.64  0.0225426995668
-0.18  -0.62  0.0284507383153
-0.18  -0.6  0.0359071684509
-0.18  -0.58  0.0453177956886
-0.18  -0.56  0.05719478017
-0.18  -0.54  0.0721845100581
-0.18  -0.52  0.0911027803033
-0.18  -0.5  0.114979191136
-0.18  -0.48  0.145113182607
-0.18  -0.46  0.183144754789
-0.18  -0.44  0.231143722467
-0.18  -0.42  0.291722361895
-0.18  -0.4  0.368177580258
-0.18  -0.38  0.464670345201
-0.18  -0.36  0.586452139639
-0.18  -0.34  0.74015076632
-0.18  -0.32  0.934131056665
-0.18  -0.3  1.17895011494
-0.18  -0.28  1.4879318738
-0.18  -0.26  1.87789223056
-0.18  -0.24  2.37005422876
-0.18  -0.22  2.99120309241
-0.18  -0.2  2.73567464896
-0.18  -0.18  2.74998362687
-0.18  -0.16  2.8242700634
-0.18  -0.14  2.94675519503
-0.18  -0.12  3.09998431466
-0.18  -0.1  3.26501023463
-0.18  -0.08  3.42431098788
-0.18  -0.06  3.563220776
-0.18  -0.04  3.6703980108
-0.18  -0.02  3.73785590467
-0.18  6.17561557e-16  3.76086372543
-0.18  0.02  3.73785590467
-0.18  0.04  3.6703980108
-0.18  0.06  3.563220776
-0.18  0.08  3.42431098788
-0.18  0.1  3.26501023463
-0.18  0.12  3.09998431466
-0.18  0.14  2.94675519503
-0.18  0.16  2.8242700634
-0.18  0.18  2.74998362687
-0.18  0.2  3.77514397411
-0.18  0.22  2.99120309241
-0.18  0.24  2.37005422876
-0.18  0.26  1.87789223056
-0.18  0.28  1.4879318738
-0.18  0.3  1.17895011494
-0.18  0.32  0.934131056665
-0.18  0.34  0.74015076632
-0.18  0.36  0.586452139639
-0.18  0.38  0.464670345201
-0.18  0.4  0.368177580258
-0.18  0.42  0.291722361895
-0.18  0.44  0.231143722467
-0.18  0.46  0.183144754789
-0.18  0.48  0.145113182607
-0.18  0.5  0.114979191136
-0.18  0.52  0.0911027803033
-0.18  0.54  0.0721845100581
-0.18  0.56  0.05719478017
-0.18  0.58  0.0453177956886
-0.18  0.6  0.0359071684509
-0.18  0.62  0.0284507383153
-0.18  0.64  0.0225426995668
-0.18  0.66  0.0178615155125
-0.18  0.68  0.014152419299
-0.18  0.7  0.0112135485859
-0.18  0.72  0.00888495947092
-0.18  0.74  0.00703992176922
-0.18  0.76  0.00557802190083
-0.18  0.78  0.00441969802309
-0.18  0.8  0.00350190998935
-0.18  0.82  0.00277470847769
-0.18  0.84  0.00219851656941
-0.18  0.86  0.00174197583091
-0.18  0.88  0.00138023967511
-0.18  0.9  0.00109362112088
-0.18  0.92  0.000866521356835
-0.18  0.94  0.000686580797971
-0.18  0.96  0.000544006432645
-0.18  0.98  0.000431038851703
-0.16  -1  0.000435511467069
-0.16  -0.98  0.000549651240578
-0.16  -0.96  0.000693705009198
-0.16  -0.94  0.000875512696525
-0.16  -0.92  0.00110496893004
-0.16  -0.9  0.00139456154228
-0.16  -0.88  0.00176005120356
-0.16  -0.86  0.00222132917424
-0.16  -0.84  0.00280349985861
-0.16  -0.82  0.00353824707675
-0.16  -0.8  0.00446555841181
-0.16  -0.78  0.00563590147796
-0.16  -0.76  0.00711297054929
-0.16  -0.74  0.00897715303096
-0.16  -0.72  0.0113299044306
-0.16  -0.7  0.0142992699316
-0.16  -0.68  0.0180468530718
-0.16  -0.66  0.0227766107886
-0.16  -0.64  0.0287459534887
-0.16  -0.62  0.0362797542462
-0.16  -0.6  0.0457880295632
-0.16  -0.58  0.0577882539407
-0.16  -0.56  0.0729335226995
-0.16  -0.54  0.0920480957741
-0.16  -0.52  0.1161722569
-0.16  -0.5  0.14661892959
-0.16  -0.48  0.18504513115
-0.16  -0.46  0.233542153515
-0.16  -0.44  0.294749378864
-0.16  -0.42  0.371997924286
-0.16  -0.4  0.469491933134
-0.16  -0.38  0.592537379614
-0.16  -0.36  0.747830838957
-0.16  -0.34  0.943823939107
-0.16  -0.32  1.19118332867
-0.16  -0.3  1.50337119426
-0.16  -0.28  1.89737792103
-0.16  -0.26  2.39464677052
-0.16  -0.24  3.02224089993
-0.16  -0.22  3.81431623638
-0.16  -0.2  3.48847199893
-0.16  -0.18  3.50671849209
-0.16  -0.16  3.60144691817
-0.16  -0.14  3.75763725759
-0.16  -0.12  3.9530316527
-0.16  -0.1  4.16346906752
-0.16  -0.08  4.36660587596
-0.16  -0.06  4.54374057523
-0.16  -0.04  4.6804106221
-0.16  -0.02  4.76643144113
-0.16  6.17561557e-16  4.79577050691
-0.16  0.02  4.76643144113
-0.16  0.04  4.6804106221
-0.16  0.06  4.54374057523
-0.16  0.08  4.36660587596
-0.16  0.1  4.16346906752
-0.16  0.12  3.9530316527
-0.16  0.14  3.75763725759
-0.16  0.16  3.60144691817
-0.16  0.18  3.50671849209
-0.16  0.2  4.81398036519
-0.16  0.22  3.81431623638
-0.16  0.24  3.02224089993
-0.16  0.26  2.39464677052
-0.16  0.28  1.89737792103
-0.16  0.3  1.50337119426
-0.16  0.32  1.19118332867
-0.16  0.34  0.943823939107
-0.16  0.36  0.747830838957
-0.16  0.38  0.592537379614
-0.16  0.4  0.469491933134
-0.16  0.42  0.371997924286
-0.16  0.44  0.294749378864
-0.16  0.46  0.233542153515
-0.16  0.48  0.18504513115
-0.16  0.5  0.14661892959
-0.16  0.52  0.1161722569
-0.16  0.54  0.0920480957741
-0.16  0.56  0.0729335226995
-0.16  0.58  0.0577882539407
-0.16  0.6  0.0457880295632
-0.16  0.62  0.0362797542462
-0.16  0.64  0.0287459534887
-0.16  0.66  0.0227766107886
-0.16  0.68  0.0180468530718
-0.16  0.7  0.0142992699316
-0.16  0.72  0.0113299044306
-0.16  0.74  0.00897715303096
-0.16  0.76  0.00711297054929
-0.16  0.78  0.00563590147797
-0.16  0.8  0.00446555841181
-0.16  0.82  0.00353824707675
-0.16  0.84  0.00280349985861
-0.16  0.86  0.00222132917424
-0.16  0.88  0.00176005120356
-0.16  0.9  0.00139456154228
-0.16  0.92  0.00110496893004
-0.16  0.94  0.000875512696525
-0.16  0.96  0.000693705009198
-0.16  0.98  0.000549651240578
-0.14  -1  0.000555354621084
-0.14  -0.98  0.000700903143824
-0.14  -0.96  0.000884597333615
-0.14  -0.94  0.00111643448818
-0.14  -0.92  0.00140903201834
-0.14  -0.9  0.00177831413282
-0.14  -0.88  0.00224437849092
-0.14  -0.86  0.00283258998934
-0.14  -0.84  0.00357496121094
-0.14  -0.82  0.00451189466454
-0.14  -0.8  0.00569438163457
-0.14  -0.78  0.00718677730998
-0.14  -0.76  0.00907030322479
-0.14  -0.74  0.0114474676258
-0.14  -0.72  0.0144476443395
-0.14  -0.7  0.0182341137607
-0.14  -0.68  0.0230129491581
-0.14  -0.66  0.0290442319217
-0.14  -0.64  0.0366562061267
-0.14  -0.62  0.046263142755
-0.14  -0.6  0.0583878858103
-0.14  -0.58  0.0736903073675
-0.14  -0.56  0.0930032201809
-0.14  -0.54  0.117377702347
-0.14  -0.52  0.148140300749
-0.14  -0.5  0.186965226505
-0.14  -0.48  0.235965471553
-0.14  -0.46  0.297807805258
-0.14  -0.44  0.375857909588
-0.14  -0.42  0.474363551611
-0.14  -0.4  0.598685762244
-0.14  -0.38  0.755590602811
-0.14  -0.36  0.953617398411
-0.14  -0.34  1.20354347866
-0.14  -0.32  1.5189707187
-0.14  -0.3  1.91706580209
-0.14  -0.28  2.41949449341
-0.14  -0.26  3.05360076699
-0.14  -0.24  3.85389496424
-0.14  -0.22  4.8639319704
-0.14  -0.2  4.4484225827
-0.14  -0.18  4.47169010849
-0.14  -0.16  4.59248570894
-0.14  -0.14  4.79165618625
-0.14  -0.12  5.04081881103
-0.14  -0.1  5.30916396289
-0.14  -0.08  5.56819954246
-0.14  -0.06  5.79407780568
-0.14  -0.04  5.96835643629
-0.14  -0.02  6.07804828821
-0.14  6.17561557e-16  6.11546081806
-0.14  0.02  6.07804828821
-0.14  0.04  5.96835643629
-0.14  0.06  5.79407780568
-0.14  0.08  5.56819954246
-0.14  0.1  5.30916396289
-0.14  0.12  5.04081881103
-0.14  0.14  4.79165618625
-0.14  0.16  4.59248570894
-0.14  0.18  4.47169010849
-0.14  0.2  6.13868162786
-0.14  0.22  4.8639319704
-0.14  0.24  3.85389496424
-0.14  0.26  3.05360076699
-0.14  0.28  2.41949449341
-0.14  0.3  1.91706580209
-0.14  0.32  1.5189707187
-0.14  0.34  1.20354347866
-0.14  0.36  0.953617398411
-0.14  0.38  0.755590602811
-0.14  0.4  0.598685762244
-0.14  0.42  0.474363551611
-0.14  0.44  0.375857909588
-0.14  0.46  0.297807805258
-0.14  0.48  0.235965471553
-0.14  0.5  0.186965226505
-0.14  0.52  0.148140300749
-0.14  0.54  0.117377702347
-0.14  0.56  0.0930032201809
-0.14  0.58  0.0736903073675
-0.14  0.6  0.0583878858103
-0.14  0.62  0.046263142755
-0.14  0.64  0.0366562061267
-0.14  0.66  0.0290442319217
-0.14  0.68  0.0230129491581
-0.14  0.7  0.0182341137607
-0.14  0.72  0.0144476443395
-0.14  0.74  0.0114474676258
-0.14  0.76  0.00907030322479
-0.14  0.78  0.00718677730998
-0.14  0.8  0.00569438163457
-0.14  0.82  0.00451189466454
-0.14  0.84  0.00357496121094
-0.14  0.86  0.00283258998934
-0.14  0.88  0.00224437849092
-0.14  0.9  0.00177831413282
-0.14  0.92  0.00140903201834
-0.14  0.94  0.00111643448818
-0.14  0.96  0.000884597333615
-0.14  0.98  0.000700903143824
-0.12  -1  0.000708175968903
-0.12  -0.98  0.000893776236192
-0.12  -0.96  0.00112801901711
-0.12  -0.94  0.0014236526453
-0.12  -0.92  0.00179676656485
-0.12  -0.9  0.00226766697568
-0.12  -0.88  0.00286198196981
-0.12  -0.86  0.0036120563043
-0.12  -0.84  0.00455871171902
-0.12  -0.82  0.00575346860247
-0.12  -0.8  0.00726134991637
-0.12  -0.78  0.0091644199788
-0.12  -0.76  0.0115662506993
-0.12  -0.74  0.0145975583341
-0.12  -0.72  0.0184233175345
-0.12  -0.7  0.0232517398602
-0.12  -0.68  0.0293456053999
-0.12  -0.66  0.0370365642084
-0.12  -0.64  0.0467431858934
-0.12  -0.62  0.0589937396776
-0.12  -0.6  0.0744549447076
-0.12  -0.58  0.0939682553048
-0.12  -0.56  0.118595655933
-0.12  -0.54  0.149677458206
-0.12  -0.52  0.188905245466
-0.12  -0.5  0.238413934817
-0.12  -0.48  0.300897966993
-0.12  -0.46  0.379757947497
-0.12  -0.44  0.479285719767
-0.12  -0.42  0.604897942721
-0.12  -0.4  0.763430884788
-0.12  -0.38  0.963512478199
-0.12  -0.36  1.21603188205
-0.12  -0.34  1.53473210947
-0.12  -0.32  1.93695797174
-0.12  -0.3  2.44460004528
-0.12  -0.28  3.0852860354
-0.12  -0.26  3.89388437533
-0.12  -0.24  4.91440189158
-0.12  -0.22  6.20237881355
-0.12  -0.2  5.67253040308
-0.12  -0.18  5.702200639
-0.12  -0.16  5.85623652551
-0.12  -0.14  6.11021432706
-0.12  -0.12  6.4279410129
-0.12  -0.1  6.77012883434
-0.12  -0.08  7.10044529445
-0.12  -0.06  7.38848027577
-0.12  -0.04  7.6107165432
-0.12  -0.02  7.75059317439
-0.12  6.17561557e-16  7.79830080762
-0.12  0.02  7.75059317439
-0.12  0.04  7.6107165432
-0.12  0.06  7.38848027577
-0.12  0.08  7.10044529445
-0.12  0.1  6.77012883434
-0.12  0.12  6.4279410129
-0.12  0.14  6.11021432706
-0.12  0.16  5.85623652551
-0.12  0.18  5.702200639
-0.12  0.2  7.82791147233
-0.12  0.22  6.20237881355
-0.12  0.24  4.91440189158
-0.12  0.26  3.89388437533
-0.12  0.28  3.0852860354
-0.12  0.3  2.44460004528
-0.12  0.32  1.93695797174
-0.12  0.34  1.53473210947
-0.12  0.36  1.21603188205
-0.12  0.38  0.963512478199
-0.12  0.4  0.763430884788
-0.12  0.42  0.604897942721
-0.12  0.44  0.479285719767
-0.12  0.46  0.379757947497
-0.12  0.48  0.300897966993
-0.12  0.5  0.238413934817
-0.12  0.52  0.188905245466
-0.12  0.54  0.149677458206
-0.12  0.56  0.118595655933
-0.12  0.58  0.0939682553048
-0.12  0.6  0.0744549447076
-0.12  0.62  0.0589937396776
-0.12  0.64  0.0467431858934
-0.12  0.66  0.0370365642084
-0.12  0.68  0.0293456053999
-0.12  0.7  0.0232517398602
-0.12  0.72  0.0184233175345
-0.12  0.74  0.0145975583341
-0.12  0.76  0.0115662506993
-0.12  0.78  0.0091644199788
-0.12  0.8  0.00726134991637
-0.12  0.82  0.00575346860248
-0.12  0.84  0.00455871171902
-0.12  0.86  0.0036120563043
-0.12  0.88  0.00286198196981
-0.12  0.9  0.00226766697568
-0.12  0.92  0.00179676656485
-0.12  0.94  0.0014236526453
-0.12  0.96  0.00112801901711
-0.12  0.98  0.000893776236192
-0.1  -1  0.00090305038239
-0.1  -0.98  0.00113972375131
-0.1  -0.96  0.00143842498118
-0.1  -0.94  0.00181541046601
-0.1  -0.92  0.00229119711019
-0.1  -0.9  0.00289167893213
-0.1  -0.88  0.00364953630979
-0.1  -0.86  0.00460601456423
-0.1  -0.84  0.00581316867818
-0.1  -0.82  0.00733669631515
-0.1  -0.8  0.00925951332237
-0.1  -0.78  0.011686266309
-0.1  -0.76  0.0147490278906
-0.1  -0.74  0.0186144845552
-0.1  -0.72  0.0234930083411
-0.1  -0.7  0.0296501060386
-0.1  -0.68  0.0374208690234
-0.1  -0.66  0.0472282101334
-0.1  -0.64  0.0596058801042
-0.1  -0.62  0.0752275162019
-0.1  -0.6  0.0949433039829
-0.1  -0.58  0.119826247447
-0.1  -0.56  0.151230565767
-0.1  -0.54  0.190865394766
-0.1  -0.52  0.240887804224
-0.1  -0.5  0.304020193367
-0.1  -0.48  0.383698453612
-0.1  -0.46  0.484258962124
-0.1  -0.44  0.611174583035
-0.1  -0.42  0.771352520373
-0.1  -0.4  0.973510232921
-0.1  -0.38  1.22864986964
-0.1  -0.36  1.55065704614
-0.1  -0.34  1.95705654975
-0.1  -0.32  2.46996610145
-0.1  -0.3  3.11730008164
-0.1  -0.28  3.93428873104
-0.1  -0.26  4.96539550695
-0.1  -0.24  6.26673694432
-0.1  -0.22  7.90913671919
-0.1  -0.2  7.23348570773
-0.1  -0.18  7.27132053843
-0.1  -0.16  7.46774370488
-0.1  -0.14  7.79161059797
-0.1  -0.12  8.19676866283
-0.1  -0.1  8.63311902851
-0.1  -0.08  9.05433129596
-0.1  -0.06  9.42162715383
-0.1  -0.04  9.70501794241
-0.1  -0.02  9.88338553865
-0.1  6.17561557e-16  9.94422126073
-0.1  0.02  9.88338553865
-0.1  0.04  9.70501794241
-0.1  0.06  9.42162715383
-0.1  0.08  9.05433129596
-0.1  0.1  8.63311902851
-0.1  0.12  8.19676866283
-0.1  0.14  7.79161059797
-0.1  0.16  7.46774370488
-0.1  0.18  7.27132053843
-0.1  0.2  9.98198012755
-0.1  0.22  7.90913671919
-0.1  0.24  6.26673694432
-0.1  0.26  4.96539550695
-0.1  0.28  3.93428873104
-0.1  0.3  3.11730008164
-0.1  0.32  2.46996610145
-0.1  0.34  1.95705654975
-0.1  0.36  1.55065704614
-0.1  0.38  1.22864986964
-0.1  0.4  0.973510232921
-0.1  0.42  0.771352520373
-0.1  0.44  0.611174583035
-0.1  0.46  0.484258962124
-0.1  0.48  0.383698453612
-0.1  0.5  0.304020193367
-0.1  0.52  0.240887804224
-0.1  0.54  0.190865394766
-0.1  0.56  0.151230565767
-0.1  0.58  0.119826247447
-0.1  0.6  0.0949433039829
-0.1  0.62  0.0752275162019
-0.1  0.64  0.0596058801042
-0.1  0.66  0.0472282101334
-0.1  0.68  0.0374208690234
-0.1  0.7  0.0296501060386
-0.1  0.72  0.0234930083411
-0.1  0.74  0.0186144845552
-0.1  0.76  0.0147490278906
-0.1  0.78  0.011686266309
-0.1  0.8  0.00925951332237
-0.1  0.82  0.00733669631515
-0.1  0.84  0.00581316867818
-0.1  0.86  0.00460601456423
-0.1  0.88  0.00364953630979
-0.1  0.9  0.00289167893213
-0.1  0.92  0.00229119711019
-0.1  0.94  0.00181541046601
-0.1  0.96  0.00143842498118
-0.1  0.98  0.00113972375131
-0.08  -1  0.00115154993807
-0.08  -0.98  0.00145335060018
-0.08  -0.96  0.00183424782304
-0.08  -0.94  0.0023149714019
-0.08  -0.92  0.00292168404089
-0.08  -0.9  0.0036874052214
-0.08  -0.88  0.00465380824091
-0.08  -0.86  0.00587348822351
-0.08  -0.84  0.00741282453548
-0.08  -0.82  0.00935559338893
-0.08  -0.8  0.0118075272442
-0.08  -0.78  0.0149020691501
-0.08  -0.76  0.0188076351942
-0.08  -0.74  0.0237367803113
-0.08  -0.72  0.0299577662862
-0.08  -0.7  0.0378091615245
-0.08  -0.68  0.0477182671607
-0.08  -0.66  0.0602243723217
-0.08  -0.64  0.076008104178
-0.08  -0.62  0.0959284701195
-0.08  -0.6  0.121069608024
-0.08  -0.58  0.152799788934
-0.08  -0.56  0.192845883286
-0.08  -0.54  0.243387343396
-0.08  -0.52  0.307174817092
-0.08  -0.5  0.387679847848
-0.08  -0.48  0.489283808646
-0.08  -0.46  0.617516352043
-0.08  -0.44  0.779356353719
-0.08  -0.42  0.98361172797
-0.08  -0.4  1.24139878604
-0.08  -0.38  1.56674722572
-0.08  -0.36  1.9773636779
-0.08  -0.34  2.49559536502
-0.08  -0.32  3.14964631723
-0.08  -0.3  3.97511233699
-0.08  -0.28  5.01691825055
-0.08  -0.26  6.33176287838
-0.08  -0.24  7.99120478864
-0.08  -0.22  10.0855567716
-0.08  -0.2  9.22398149783
-0.08  -0.18  9.2722276398
-0.08  -0.16  9.52270213111
-0.08  -0.14  9.93569005289
-0.08  -0.12  10.4523386847
-0.08  -0.1  11.0087630508
-0.08  -0.08  11.5458836478
-0.08  -0.06  12.014251228
-0.08  -0.04  12.3756249136
-0.08  -0.02  12.6030753399
-0.08  6.17561557e-16  12.6806517114
-0.08  0.02  12.6030753399
-0.08  0.04  12.3756249136
-0.08  0.06  12.014251228
-0.08  0.08  11.5458836478
-0.08  0.1  11.0087630508
-0.08  0.12  10.4523386847
-0.08  0.14  9.93569005289
-0.08  0.16  9.52270213111
-0.08  0.18  9.2722276398
-0.08  0.2  12.7288009859
-0.08  0.22  10.0855567716
-0.08  0.24  7.99120478864
-0.08  0.26  6.33176287838
-0.08  0.28  5.01691825055
-0.08  0.3  3.97511233699
-0.08  0.32  3.14964631723
-0.08  0.34  2.49559536502
-0.08  0.36  1.9773636779
-0.08  0.38  1.56674722572
-0.08  0.4  1.24139878604
-0.08  0.42  0.98361172797
-0.08  0.44  0.779356353719
-0.08  0.46  0.617516352043
-0.08  0.48  0.489283808646
-0.08  0.5  0.387679847848
-0.08  0.52  0.307174817092
-0.08  0.54  0.243387343396
-0.08  0.56  0.192845883286
-0.08  0.58  0.152799788934
-0.08  0.6  0.121069608024
-0.08  0.62  0.0959284701195
-0.08  0.64  0.076008104178
-0.08  0.66  0.0602243723217
-0.08  0.68  0.0477182671607
-0.08  0.7  0.0378091615245
-0.08  0.72  0.0299577662862
-0.08  0.74  0.0237367803113
-0.08  0.76  0.0188076351942
-0.08  0.78  0.0149020691501
-0.08  0.8  0.0118075272442
-0.08  0.82  0.00935559338893
-0.08  0.84  0.00741282453548
-0.08  0.86  0.00587348822351
-0.08  0.88  0.00465380824091
-0.08  0.9  0.0036874052214
-0.08  0.92  0.00292168404089
-0.08  0.94  0.0023149714019
-0.08  0.96  0.00183424782304
-0.08  0.98  0.00145335060018
-0.06  -1  0.00146843109281
-0.06  -0.98  0.00185328064332
-0.06  -0.96  0.00233899238428
-0.06  -0.94  0.00295200049353
-0.06  -0.92  0.00372566707457
-0.06  -0.9  0.00470209784211
-0.06  -0.88  0.0059344336663
-0.06  -0.86  0.00748974268982
-0.06  -0.84  0.0094526704171
-0.06  -0.82  0.0119300464268
-0.06  -0.8  0.0150566984212
-0.06  -0.78  0.0190027900343
-0.06  -0.76  0.0239830817478
-0.06  -0.74  0.0302686189281
-0.06  -0.72  0.0382014830893
-0.06  -0.7  0.0482134091974
-0.06  -0.68  0.0608492822387
-0.06  -0.66  0.0767967918179
-0.06  -0.64  0.0969238586971
-0.06  -0.62  0.122325870161
-0.06  -0.6  0.15438529493
-0.06  -0.58  0.194846922072
-0.06  -0.56  0.245912818693
-0.06  -0.54  0.310362174337
-0.06  -0.52  0.391702554473
-0.06  -0.5  0.494360794798
-0.06  -0.48  0.623923925546
-0.06  -0.46  0.787443237742
-0.06  -0.44  0.993818039793
-0.06  -0.42  1.25427998982
-0.06  -0.4  1.58300436284
-0.06  -0.38  1.99788152016
-0.06  -0.36  2.52149056711
-0.06  -0.34  3.18232818908
-0.06  -0.32  4.01635954347
-0.06  -0.3  5.06897561282
-0.06  -0.28  6.39746354511
-0.06  -0.26  8.07412442613
-0.06  -0.24  10.1902081644
-0.06  -0.22  12.8608796388
-0.06  -0.2  11.7622178449
-0.06  -0.18  11.8237402615
-0.06  -0.16  12.1431398106
-0.06  -0.14  12.6697729033
-0.06  -0.12  13.328591848
-0.06  -0.1  14.0381319322
-0.06  -0.08  14.7230562755
-0.06  -0.06  15.3203082877
-0.06  -0.04  15.7811240445
-0.06  -0.02  16.0711638134
-0.06  6.17561557e-16  16.1700874921
-0.06  0.02  16.0711638134
-0.06  0.04  15.7811240445
-0.06  0.06  15.3203082877
-0.06  0.08  14.7230562755
-0.06  0.1  14.0381319322
-0.06  0.12  13.328591848
-0.06  0.14  12.6697729033
-0.06  0.16  12.1431398106
-0.06  0.18  11.8237402615
-0.06  0.2  16.2314863854
-0.06  0.22  12.8608796388
-0.06  0.24  10.1902081644
-0.06  0.26  8.07412442613
-0.06  0.28  6.39746354511
-0.06  0.3  5.06897561282
-0.06  0.32  4.01635954347
-0.06  0.34  3.18232818908
-0.06  0.36  2.52149056711
-0.06  0.38  1.99788152016
-0.06  0.4  1.58300436284
-0.06  0.42  1.25427998982
-0.06  0.44  0.993818039793
-0.06  0.46  0.787443237742
-0.06  0.48  0.623923925546
-0.06  0.5  0.494360794798
-0.06  0.52  0.391702554473
-0.06  0.54  0.310362174337
-0.06  0.56  0.245912818693
-0.06  0.58  0.194846922072
-0.06  0.6  0.15438529493
-0.06  0.62  0.122325870161
-0.06  0.64  0.0969238586971
-0.06  0.66  0.0767967918179
-0.06  0.68  0.0608492822387
-0.06  0.7  0.0482134091974
-0.06  0.72  0.0382014830893
-0.06  0.74  0.0302686189281
-0.06  0.76  0.0239830817478
-0.06  0.78  0.0190027900343
-0.06  0.8  0.0150566984212
-0.06  0.82  0.0119300464268
-0.06  0.84  0.0094526704171
-0.06  0.86  0.00748974268982
-0.06  0.88  0.0059344336663
-0.06  0.9  0.00470209784211
-0.06  0.92  0.00372566707457
-0.06  0.94  0.00295200049353
-0.06  0.96  0.00233899238428
-0.06  0.98  0.00185328064332
-0.04  -1  0.00187251095505
-0.04  -0.98  0.00236326261709
-0.04  -0.96  0.00298263152067
-0.04  -0.94  0.00376432594659
-0.04  -0.92  0.0047508885137
-0.04  -0.9  0.0059960115011
-0.04  -0.88  0.0075674589748
-0.04  -0.86  0.00955075475169
-0.04  -0.84  0.0120538369129
-0.04  -0.82  0.0152129321817
-0.04  -0.8  0.0191999698717
-0.04  -0.78  0.0242319388972
-0.04  -0.76  0.0305826970897
-0.04  -0.74  0.0385978755249
-0.04  -0.72  0.0487136890074
-0.04  -0.7  0.0614806764475
-0.04  -0.68  0.0775936631667
-0.04  -0.66  0.0979295757873
-0.04  -0.64  0.12359516773
-0.04  -0.62  0.155987252711
-0.04  -0.6  0.196868724363
-0.04  -0.58  0.248464499236
-0.04  -0.56  0.313582604757
-0.04  -0.54  0.39576700216
-0.04  -0.52  0.499490461597
-0.04  -0.5  0.630397986353
-0.04  -0.48  0.795614034205
-0.04  -0.46  1.00413025601
-0.04  -0.44  1.26729485364
-0.04  -0.42  1.59943018991
-0.04  -0.4  2.01861226299
-0.04  -0.38  2.54765446721
-0.04  -0.36  3.21534917988
-0.04  -0.34  4.05803474592
-0.04  -0.32  5.12157314116
-0.04  -0.3  6.46384594577
-0.04  -0.28  8.15790446784
-0.04  -0.26  10.295945458
-0.04  -0.24  12.9943287877
-0.04  -0.22  16.3999101716
-0.04  -0.2  14.9989208742
-0.04  -0.18  15.0773729034
-0.04  -0.16  15.4846641666
-0.04  -0.14  16.1562150758
