-0.02  0.76  0.122578511922
-0.02  0.78  0.100389090311
-0.02  0.8  0.0822164447544
-0.02  0.82  0.0673334499505
-0.02  0.84  0.0551446063592
-0.02  0.86  0.0451622130271
-0.02  0.88  0.0369868536592
-0.02  0.9  0.0302914151436
-0.02  0.92  0.0248079990761
-0.02  0.94  0.0203172025882
-0.02  0.96  0.0166393395834
-0.02  0.98  0.0136272511223
2.8449465e-16  -1  0.0138916569612
2.8449465e-16  -0.98  0.0169621881537
2.8449465e-16  -0.96  0.0207114117318
2.8449465e-16  -0.94  0.0252893419198
2.8449465e-16  -0.92  0.0308791512146
2.8449465e-16  -0.9  0.0377044994986
2.8449465e-16  -0.88  0.0460384831357
2.8449465e-16  -0.86  0.0562145621246
2.8449465e-16  -0.84  0.0686399025255
2.8449465e-16  -0.82  0.0838116680207
2.8449465e-16  -0.8  0.102336912466
2.8449465e-16  -0.78  0.124956869376
2.8449465e-16  -0.76  0.152576610217
2.8449465e-16  -0.74  0.1863012582
2.8449465e-16  -0.72  0.227480206551
2.8449465e-16  -0.7  0.277761110538
2.8449465e-16  -0.68  0.339155813585
2.8449465e-16  -0.66  0.414120845304
2.8449465e-16  -0.64  0.505655712349
2.8449465e-16  -0.62  0.617422914905
2.8449465e-16  -0.6  0.753894490936
2.8449465e-16  -0.58  0.920530951707
2.8449465e-16  -0.56  1.12399976819
2.8449465e-16  -0.54  1.37244215042
2.8449465e-16  -0.52  1.67579879423
2.8449465e-16  -0.5  2.04620762915
2.8449465e-16  -0.48  2.49848948215
2.8449465e-16  -0.46  3.05074108975
2.8449465e-16  -0.44  3.72505918603
2.8449465e-16  -0.42  4.54842463887
2.8449465e-16  -0.4  5.55378201052
2.8449465e-16  -0.38  6.78135773796
2.8449465e-16  -0.36  8.28026967626
2.8449465e-16  -0.34  10.1104924059
2.8449465e-16  -0.32  12.3452569405
2.8449465e-16  -0.3  15.0739808517
2.8449465e-16  -0.28  18.4058460517
2.8449465e-16  -0.26  22.474167389
2.8449465e-16  -0.24  27.441726852
2.8449465e-16  -0.22  33.5072868143
2.8449465e-16  -0.2  29.9116096333
2.8449465e-16  -0.18  29.9404309956
2.8449465e-16  -0.16  30.2123989531
2.8449465e-16  -0.14  30.6928701826
2.8449465e-16  -0.12  31.3228784064
2.8449465e-16  -0.1  32.0291468162
2.8449465e-16  -0.08  32.7345154771
2.8449465e-16  -0.06  33.3666866547
2.8449465e-16  -0.04  33.8645315547
2.8449465e-16  -0.02  34.1821455594
2.8449465e-16  6.17561557e-16  34.2912037218
2.8449465e-16  0.02  34.1821455594
2.8449465e-16  0.04  33.8645315547
2.8449465e-16  0.06  33.3666866547
2.8449465e-16  0.08  32.7345154771
2.8449465e-16  0.1  32.0291468162
2.8449465e-16  0.12  31.3228784064
2.8449465e-16  0.14  30.6928701826
2.8449465e-16  0.16  30.2123989531
2.8449465e-16  0.18  29.9404309956
2.8449465e-16  0.2  40.913542931
2.8449465e-16  0.22  33.5072868143
2.8449465e-16  0.24  27.441726852
2.8449465e-16  0.26  22.474167389
2.8449465e-16  0.28  18.4058460517
2.8449465e-16  0.3  15.0739808517
2.8449465e-16  0.32  12.3452569405
2.8449465e-16  0.34  10.1104924059
2.8449465e-16  0.36  8.28026967626
2.8449465e-16  0.38  6.78135773796
2.8449465e-16  0.4  5.55378201052
2.8449465e-16  0.42  4.54842463887
2.8449465e-16  0.44  3.72505918603
2.8449465e-16  0.46  3.05074108975
2.8449465e-16  0.48  2.49848948215
2.8449465e-16  0.5  2.04620762915
2.8449465e-16  0.52  1.67579879423
2.8449465e-16  0.54  1.37244215042
2.8449465e-16  0.56  1.12399976819
2.8449465e-16  0.58  0.920530951708
2.8449465e-16  0.6  0.753894490936
2.8449465e-16  0.62  0.617422914905
2.8449465e-16  0.64  0.505655712349
2.8449465e-16  0.66  0.414120845304
2.8449465e-16  0.68  0.339155813585
2.8449465e-16  0.7  0.277761110538
2.8449465e-16  0.72  0.227480206551
2.8449465e-16  0.74  0.186301258201
2.8449465e-16  0.76  0.152576610217
2.8449465e-16  0.78  0.124956869376
2.8449465e-16  0.8  0.102336912466
2.8449465e-16  0.82  0.0838116680207
2.8449465e-16  0.84  0.0686399025255
2.8449465e-16  0.86  0.0562145621246
2.8449465e-16  0.88  0.0460384831358
2.8449465e-16  0.9  0.0377044994986
2.8449465e-16  0.92  0.0308791512146
2.8449465e-16  0.94  0.0252893419198
2.8449465e-16  0.96  0.0207114117318
2.8449465e-16  0.98  0.0169621881537
0.02  -1  0.016793150602
0.02  -0.98  0.0205050111012
0.02  -0.96  0.0250373196923
0.02  -0.94  0.0305714234573
0.02  -0.92  0.0373287533847
0.02  -0.9  0.0455796842826
0.02  -0.88  0.0556543530369
0.02  -0.86  0.067955868074
0.02  -0.84  0.0829764385658
0.02  -0.82  0.101317068742
0.02  -0.8  0.123711605317
0.02  -0.78  0.151056100222
0.02  -0.76  0.184444663504
0.02  -0.74  0.225213240943
0.02  -0.72  0.274993068016
0.02  -0.7  0.335775939017
0.02  -0.68  0.409993902887
0.02  -0.66  0.500616574542
0.02  -0.64  0.611269955338
0.02  -0.62  0.746381516913
0.02  -0.6  0.911357353531
0.02  -0.58  1.11279849114
0.02  -0.56  1.35876500813
0.02  -0.54  1.65909853583
0.02  -0.52  2.0258160426
0.02  -0.5  2.47359065771
0.02  -0.48  3.02033877373
0.02  -0.46  3.68793691861
0.02  -0.44  4.50309708101
0.02  -0.42  5.49843551246
0.02  -0.4  6.71377777135
0.02  -0.38  8.19775222623
0.02  -0.36  10.0097357779
0.02  -0.34  12.2222296525
0.02  -0.32  14.9237603262
0.02  -0.3  18.2224216536
0.02  -0.28  22.250199927
0.02  -0.26  27.1682549226
0.02  -0.24  33.1733682376
0.02  -0.22  40.505816931
0.02  -0.2  36.1591253458
0.02  -0.18  36.1939665083
0.02  -0.16  36.5227393021
0.02  -0.14  37.1035645945
0.02  -0.12  37.8651600624
0.02  -0.1  38.7189438698
0.02  -0.08  39.5716400014
0.02  -0.06  40.3358501904
0.02  -0.04  40.9376779209
0.02  -0.02  41.3216306652
0.02  6.17561557e-16  41.4534673605
0.02  0.02  41.3216306652
0.02  0.04  40.9376779209
0.02  0.06  40.3358501904
0.02  0.08  39.5716400014
0.02  0.1  38.7189438698
0.02  0.12  37.8651600624
0.02  0.14  37.1035645945
0.02  0.16  36.5227393021
0.02  0.18  36.1939665083
0.02  0.2  49.4589875075
0.02  0.22  40.505816931
0.02  0.24  33.1733682376
0.02  0.26  27.1682549226
0.02  0.28  22.250199927
0.02  0.3  18.2224216536
0.02  0.32  14.9237603262
0.02  0.34  12.2222296525
0.02  0.36  10.0097357779
0.02  0.38  8.19775222623
0.02  0.4  6.71377777135
0.02  0.42  5.49843551247
0.02  0.44  4.50309708101
0.02  0.46  3.68793691861
0.02  0.48  3.02033877373
0.02  0.5  2.47359065771
0.02  0.52  2.0258160426
0.02  0.54  1.65909853583
0.02  0.56  1.35876500813
0.02  0.58  1.11279849114
0.02  0.6  0.911357353531
0.02  0.62  0.746381516913
0.02  0.64  0.611269955338
0.02  0.66  0.500616574542
0.02  0.68  0.409993902887
0.02  0.7  0.335775939017
0.02  0.72  0.274993068016
0.02  0.74  0.225213240943
0.02  0.76  0.184444663504
0.02  0.78  0.151056100222
0.02  0.8  0.123711605317
0.02  0.82  0.101317068742
0.02  0.84  0.0829764385659
0.02  0.86  0.067955868074
0.02  0.88  0.055654353037
0.02  0.9  0.0455796842826
0.02  0.92  0.0373287533847
0.02  0.94  0.0305714234573
0.02  0.96  0.0250373196923
0.02  0.98  0.0205050111013
0.04  -1  0.0193800969143
0.04  -0.98  0.0236637610053
0.04  -0.96  0.0288942613338
0.04  -0.94  0.0352808810838
0.04  -0.92  0.0430791621794
0.04  -0.9  0.0526011300474
0.04  -0.88  0.0642277784035
0.04  -0.86  0.0784243136018
0.04  -0.84  0.0957587685078
0.04  -0.82  0.116924730673
0.04  -0.8  0.142769094215
0.04  -0.78  0.174325945809
0.04  -0.76  0.212857940643
0.04  -0.74  0.259906823878
0.04  -0.72  0.317355119074
0.04  -0.7  0.387501451864
0.04  -0.68  0.473152522749
0.04  -0.66  0.577735409006
0.04  -0.64  0.70543468918
0.04  -0.62  0.861359876754
0.04  -0.6  1.05174986241
0.04  -0.58  1.28422254498
0.04  -0.56  1.56807963946
0.04  -0.54  1.91467885788
0.04  -0.52  2.337888355
0.04  -0.5  2.85464162199
0.04  -0.48  3.48561503057
0.04  -0.46  4.25605513763
0.04  -0.44  5.19678885237
0.04  -0.42  6.34545688503
0.04  -0.4  7.74801982986
0.04  -0.38  9.46059714401
0.04  -0.36  11.5517126036
0.04  -0.34  14.1050360822
0.04  -0.32  17.2227313566
0.04  -0.3  21.0295438915
0.04  -0.28  25.6777921647
0.04  -0.26  31.3534622461
0.04  -0.24  38.2836494865
0.04  -0.22  46.7456450741
0.04  -0.2  41.7293556252
0.04  -0.18  41.7695639889
0.04  -0.16  42.1489834771
0.04  -0.14  42.8192835729
0.04  -0.12  43.6982010749
0.04  -0.1  44.6835083185
0.04  -0.08  45.6675603323
0.04  -0.06  46.5494953472
0.04  -0.04  47.2440332585
0.04  -0.02  47.6871330419
0.04  6.17561557e-16  47.8392788776
0.04  0.02  47.6871330419
0.04  0.04  47.2440332585
0.04  0.06  46.5494953472
0.04  0.08  45.6675603323
0.04  0.1  44.6835083185
0.04  0.12  43.6982010749
0.04  0.14  42.8192835729
0.04  0.16  42.1489834771
0.04  0.18  41.7695639889
0.04  0.2  57.0780310317
0.04  0.22  46.7456450741
0.04  0.24  38.2836494865
0.04  0.26  31.3534622461
0.04  0.28  25.6777921647
0.04  0.3  21.0295438915
0.04  0.32  17.2227313566
0.04  0.34  14.1050360822
0.04  0.36  11.5517126036
0.04  0.38  9.46059714401
0.04  0.4  7.74801982987
0.04  0.42  6.34545688503
0.04  0.44  5.19678885237
0.04  0.46  4.25605513763
0.04  0.48  3.48561503057
0.04  0.5  2.85464162199
0.04  0.52  2.337888355
0.04  0.54  1.91467885788
0.04  0.56  1.56807963946
0.04  0.58  1.28422254498
0.04  0.6  1.05174986241
0.04  0.62  0.861359876754
0.04  0.64  0.70543468918
0.04  0.66  0.577735409007
0.04  0.68  0.473152522749
0.04  0.7  0.387501451864
0.04  0.72  0.317355119074
0.04  0.74  0.259906823878
0.04  0.76  0.212857940643
0.04  0.78  0.174325945809
0.04  0.8  0.142769094215
0.04  0.82  0.116924730673
0.04  0.84  0.0957587685078
0.04  0.86  0.0784243136018
0.04  0.88  0.0642277784035
0.04  0.9  0.0526011300474
0.04  0.92  0.0430791621794
0.04  0.94  0.0352808810838
0.04  0.96  0.0288942613338
0.04  0.98  0.0236637610053
0.06  -1  0.0216040406041
0.06  -0.98  0.0263792722949
0.06  -0.96  0.0322099934711
0.06  -0.94  0.0393295034
0.06  -0.92  0.0480226684639
0.06  -0.9  0.0586373202564
0.06  -0.88  0.071598173047
0.06  -0.86  0.087423817481
0.06  -0.84  0.106747470469
0.06  -0.82  0.130342311509
0.06  -0.8  0.15915241921
0.06  -0.78  0.19433054583
0.06  -0.76  0.237284241296
0.06  -0.74  0.289732172196
0.06  -0.72  0.353772889202
0.06  -0.7  0.431968794441
0.06  -0.68  0.527448668528
0.06  -0.66  0.644032859577
0.06  -0.64  0.786386143266
0.06  -0.62  0.960204370205
0.06  -0.6  1.17244236875
0.06  -0.58  1.43159222212
0.06  -0.56  1.74802305433
0.06  -0.54  2.13439592032
0.06  -0.52  2.60617040114
0.06  -0.5  3.18222317382
0.06  -0.48  3.88560330651
0.06  -0.46  4.74445449954
0.06  -0.44  5.79314117334
0.06  -0.42  7.07362346029
0.06  -0.4  8.6371361168
0.06  -0.38  10.5462385323
0.06  -0.36  12.8773178606
0.06  -0.34  15.723645428
0.06  -0.32  19.1991087137
0.06  -0.3  23.4427682238
0.06  -0.28  28.624421591
0.06  -0.26  34.9513975312
0.06  -0.24  42.6768514954
0.06  -0.22  52.1098949458
0.06  -0.2  46.517966205
0.06  -0.18  46.5627886394
0.06  -0.16  46.9857480325
0.06  -0.14  47.7329677471
0.06  -0.12  48.7127445503
0.06  -0.1  49.8111197438
0.06  -0.08  50.9080956649
0.06  -0.06  51.8912362527
0.06  -0.04  52.6654751692
0.06  -0.02  53.1594224263
0.06  6.17561557e-16  53.3290276056
0.06  0.02  53.1594224263
0.06  0.04  52.6654751692
0.06  0.06  51.8912362527
0.06  0.08  50.9080956649
0.06  0.1  49.8111197438
0.06  0.12  48.7127445503
0.06  0.14  47.7329677471
0.06  0.16  46.9857480325
0.06  0.18  46.5627886394
0.06  0.2  63.6279635474
0.06  0.22  52.1098949459
0.06  0.24  42.6768514954
0.06  0.26  34.9513975312
0.06  0.28  28.624421591
0.06  0.3  23.4427682238
0.06  0.32  19.1991087137
0.06  0.34  15.723645428
0.06  0.36  12.8773178606
0.06  0.38  10.5462385323
0.06  0.4  8.6371361168
0.06  0.42  7.07362346029
0.06  0.44  5.79314117334
0.06  0.46  4.74445449954
0.06  0.48  3.88560330651
0.06  0.5  3.18222317382
0.06  0.52  2.60617040114
0.06  0.54  2.13439592033
0.06  0.56  1.74802305433
0.06  0.58  1.43159222212
0.06  0.6  1.17244236875
0.06  0.62  0.960204370206
0.06  0.64  0.786386143267
0.06  0.66  0.644032859577
0.06  0.68  0.527448668528
0.06  0.7  0.431968794441
0.06  0.72  0.353772889202
0.06  0.74  0.289732172196
0.06  0.76  0.237284241296
0.06  0.78  0.19433054583
0.06  0.8  0.15915241921
0.06  0.82  0.13034231151
0.06  0.84  0.106747470469
0.06  0.86  0.087423817481
0.06  0.88  0.071598173047
0.06  0.9  0.0586373202565
0.06  0.92  0.0480226684639
0.06  0.94  0.0393295034
0.06  0.96  0.0322099934712
0.06  0.98  0.0263792722949
0.08  -1  0.0234233256675
0.08  -0.98  0.0286006815649
0.08  -0.96  0.0349224101476
0.08  -0.94  0.0426414569088
0.08  -0.92  0.0520666769454
0.08  -0.9  0.0635751928911
0.08  -0.88  0.077627484377
0.08  -0.86  0.094785812778
0.08  -0.84  0.115736718459
0.08  -0.82  0.141318490679
0.08  -0.8  0.17255470929
0.08  -0.78  0.210695200288
0.08  -0.76  0.257266043954
0.08  -0.74  0.314130636488
0.08  -0.72  0.383564248371
0.08  -0.7  0.468345062657
0.08  -0.68  0.57186533585
0.08  -0.66  0.698267129138
0.08  -0.64  0.852608040859
0.08  -0.62  1.04106357152
0.08  -0.6  1.27117421841
0.08  -0.58  1.55214718655
0.08  -0.56  1.89522478809
0.08  -0.54  2.31413427058
0.08  -0.52  2.82563707268
0.08  -0.5  3.4501994841
0.08  -0.48  4.21281154441
0.08  -0.46  5.1439869464
0.08  -0.44  6.28098395236
0.08  -0.42  7.66929617452
0.08  -0.4  9.364472869
0.08  -0.38  11.4343415769
0.08  -0.36  13.9617220454
0.08  -0.34  17.0477400172
0.08  -0.32  20.8158734825
0.08  -0.3  25.4168932893
0.08  -0.28  31.0348957982
0.08  -0.26  37.8946689606
0.08  -0.24  46.2706865515
0.08  -0.22  56.4980904351
0.08  -0.2  50.4352630962
0.08  -0.18  50.483860046
0.08  -0.16  50.9424370219
0.08  -0.14  51.7525804132
0.08  -0.12  52.8148646203
0.08  -0.1  54.0057344365
0.08  -0.08  55.1950871469
0.08  -0.06  56.2610184042
0.08  -0.04  57.1004562954
0.08  -0.02  57.6359990523
0.08  6.17561557e-16  57.8198867529
0.08  0.02  57.6359990523
0.08  0.04  57.1004562954
0.08  0.06  56.2610184042
0.08  0.08  55.1950871469
0.08  0.1  54.0057344365
0.08  0.12  52.8148646203
0.08  0.14  51.7525804132
0.08  0.16  50.9424370219
0.08  0.18  50.483860046
0.08  0.2  68.9861002874
0.08  0.22  56.4980904351
0.08  0.24  46.2706865515
0.08  0.26  37.8946689607
0.08  0.28  31.0348957982
0.08  0.3  25.4168932893
0.08  0.32  20.8158734826
0.08  0.34  17.0477400172
0.08  0.36  13.9617220454
0.08  0.38  11.434341577
0.08  0.4  9.364472869
0.08  0.42  7.66929617453
0.08  0.44  6.28098395237
0.08  0.46  5.14398694641
0.08  0.48  4.21281154441
0.08  0.5  3.45019948411
0.08  0.52  2.82563707268
0.08  0.54  2.31413427058
0.08  0.56  1.89522478809
0.08  0.58  1.55214718655
0.08  0.6  1.27117421841
0.08  0.62  1.04106357152
0.08  0.64  0.852608040859
0.08  0.66  0.698267129138
0.08  0.68  0.57186533585
0.08  0.7  0.468345062657
0.08  0.72  0.383564248371
0.08  0.74  0.314130636488
0.08  0.76  0.257266043954
0.08  0.78  0.210695200288
0.08  0.8  0.17255470929
0.08  0.82  0.141318490679
0.08  0.84  0.115736718459
0.08  0.86  0.094785812778
0.08  0.88  0.077627484377
0.08  0.9  0.0635751928911
0.08  0.92  0.0520666769454
0.08  0.94  0.0426414569089
0.08  0.96  0.0349224101476
0.08  0.98  0.028600681565
0.1  -1  0.0248038756366
0.1  -0.98  0.030286380283
0.1  -0.96  0.0369807059222
0.1  -0.94  0.04515470643
0.1  -0.92  0.0551354405475
0.1  -0.9  0.0673222581809
0.1  -0.88  0.0822027792211
0.1  -0.86  0.100372404228
0.1  -0.84  0.122558137644
0.1  -0.82  0.149647676752
0.1  -0.8  0.182724930289
0.1  -0.78  0.223113387883
0.1  -0.76  0.272429075628
0.1  -0.74  0.33264521664
0.1  -0.72  0.406171183814
0.1  -0.7  0.495948903843
0.1  -0.68  0.60557056981
0.1  -0.66  0.739422372302
0.1  -0.64  0.902860000003
0.1  -0.62  1.10242293193
0.1  -0.6  1.34609609556
0.1  -0.58  1.64362936038
0.1  -0.56  2.00692765043
0.1  -0.54  2.45052728501
0.1  -0.52  2.99217760705
0.1  -0.5  3.65355117117
0.1  -0.48  4.46111090762
0.1  -0.46  5.4471689591
0.1  -0.44  6.65117955671
0.1  -0.42  8.12131766571
0.1  -0.4  9.91640656592
0.1  -0.38  12.1082714934
0.1  -0.36  14.7846135174
0.1  -0.34  18.0525186421
0.1  -0.32  22.0427425404
0.1  -0.3  26.9149423598
0.1  -0.28  32.8640649368
0.1  -0.26  40.1281470246
0.1  -0.24  48.9978396379
0.1  -0.22  59.8280376044
0.1  -0.2  53.4078726178
0.1  -0.18  53.4593338286
0.1  -0.16  53.9449389234
0.1  -0.14  54.8028314452
0.1  -0.12  55.9277257381
0.1  -0.1  57.1887843614
0.1  -0.08  58.4482364621
0.1  -0.06  59.5769927591
0.1  -0.04  60.4659063725
0.1  -0.02  61.0330135429
0.1  6.17561557e-16  61.2277394209
0.1  0.02  61.0330135429
0.1  0.04  60.4659063725
0.1  0.06  59.5769927591
0.1  0.08  58.4482364621
0.1  0.1  57.1887843614
0.1  0.12  55.9277257381
0.1  0.14  54.8028314452
0.1  0.16  53.9449389234
0.1  0.18  53.4593338286
0.1  0.2  73.0520796437
0.1  0.22  59.8280376044
0.1  0.24  48.9978396379
0.1  0.26  40.1281470246
0.1  0.28  32.8640649369
0.1  0.3  26.9149423598
0.1  0.32  22.0427425404
0.1  0.34  18.0525186421
0.1  0.36  14.7846135174
0.1  0.38  12.1082714934
0.1  0.4  9.91640656593
0.1  0.42  8.12131766571
0.1  0.44  6.65117955671
0.1  0.46  5.4471689591
0.1  0.48  4.46111090762
0.1  0.5  3.65355117117
0.1  0.52  2.99217760705
0.1  0.54  2.45052728501
0.1  0.56  2.00692765043
0.1  0.58  1.64362936038
0.1  0.6  1.34609609556
0.1  0.62  1.10242293193
0.1  0.64  0.902860000003
0.1  0.66  0.739422372302
0.1  0.68  0.60557056981
0.1  0.7  0.495948903843
0.1  0.72  0.406171183814
0.1  0.74  0.33264521664
0.1  0.76  0.272429075629
0.1  0.78  0.223113387884
0.1  0.8  0.182724930289
0.1  0.82  0.149647676752
0.1  0.84  0.122558137644
0.1  0.86  0.100372404228
0.1  0.88  0.0822027792211
0.1  0.9  0.067322258181
0.1  0.92  0.0551354405475
0.1  0.94  0.04515470643
0.1  0.96  0.0369807059222
0.1  0.98  0.030286380283
0.12  -1  0.0257198318554
0.12  -0.98  0.0314047941459
0.12  -0.96  0.0383463274913
0.12  -0.94  0.0468221770612
0.12  -0.92  0.0571714792048
0.12  -0.9  0.0698083310007
0.12  -0.88  0.0852383591415
0.12  -0.86  0.104078951108
0.12  -0.84  0.127083958124
0.12  -0.82  0.155173858312
0.12  -0.8  0.189472586933
0.12  -0.78  0.231352507371
0.12  -0.76  0.282489322247
0.12  -0.74  0.344929121756
0.12  -0.72  0.421170251991
0.12  -0.7  0.514263278957
0.12  -0.68  0.627933048056
0.12  -0.66  0.766727722892
0.12  -0.64  0.936200766738
0.12  -0.62  1.14313314815
0.12  -0.6  1.39580466159
0.12  -0.58  1.70432521921
0.12  -0.56  2.08103936947
0.12  -0.54  2.54102022809
0.12  -0.52  3.10267258482
0.12  -0.5  3.78846931723
0.12  -0.48  4.62585057728
0.12  -0.46  5.64832172878
0.12  -0.44  6.8967939666
0.12  -0.42  8.42122125859
0.12  -0.4  10.2825991076
0.12  -0.38  12.5554051082
0.12  -0.36  15.3305789501
0.12  -0.34  18.7191611038
0.12  -0.32  22.856735781
0.12  -0.3  27.9088559399
0.12  -0.28  34.0776674035
0.12  -0.26  41.6099971336
0.12  -0.24  50.8072292907
0.12  -0.22  62.0373642398
0.12  -0.2  55.3801157372
0.12  -0.18  55.4334773049
0.12  -0.16  55.9370147992
0.12  -0.14  56.8265875311
0.12  -0.12  57.9930218613
0.12  -0.1  59.3006487914
0.12  -0.08  60.6066098732
0.12  -0.06  61.7770488235
0.12  -0.04  62.6987881923
0.12  -0.02  63.2868374665
0.12  6.17561557e-16  63.4887541715
0.12  0.02  63.2868374665
0.12  0.04  62.6987881923
0.12  0.06  61.7770488235
0.12  0.08  60.6066098732
0.12  0.1  59.3006487914
0.12  0.12  57.9930218613
0.12  0.14  56.8265875311
0.12  0.16  55.9370147992
0.12  0.18  55.4334773049
0.12  0.2  75.74974301
0.12  0.22  62.0373642398
0.12  0.24  50.8072292907
0.12  0.26  41.6099971336
0.12  0.28  34.0776674035
0.12  0.3  27.9088559399
0.12  0.32  22.856735781
0.12  0.34  18.7191611038
0.12  0.36  15.3305789501
0.12  0.38  12.5554051082
0.12  0.4  10.2825991076
0.12  0.42  8.4212212586
0.12  0.44  6.8967939666
0.12  0.46  5.64832172878
0.12  0.48  4.62585057728
0.12  0.5  3.78846931723
0.12  0.52  3.10267258482
0.12  0.54  2.54102022809
0.12  0.56  2.08103936947
0.12  0.58  1.70432521921
0.12  0.6  1.39580466159
0.12  0.62  1.14313314815
0.12  0.64  0.936200766738
0.12  0.66  0.766727722892
0.12  0.68  0.627933048056
0.12  0.7  0.514263278957
0.12  0.72  0.421170251991
0.12  0.74  0.344929121757
0.12  0.76  0.282489322247
0.12  0.78  0.231352507372
0.12  0.8  0.189472586933
0.12  0.82  0.155173858312
0.12  0.84  0.127083958124
0.12  0.86  0.104078951108
0.12  0.88  0.0852383591416
0.12  0.9  0.0698083310008
0.12  0.92  0.0571714792048
0.12  0.94  0.0468221770612
0.12  0.96  0.0383463274913
0.12  0.98  0.0314047941459
0.14  -1  0.0261540378303
0.14  -0.98  0.0319349744883
0.14  -0.96  0.0389936958181
0.14  -0.94  0.0476126359239
0.14  -0.92  0.0581366565047
0.14  -0.9  0.0709868454867
0.14  -0.88  0.0866773656265
0.14  -0.86  0.10583602723
0.14  -0.84  0.12922940815
0.14  -0.82  0.157793526154
0.14  -0.8  0.192671290944
0.14  -0.78  0.235258234344
0.14  -0.76  0.287258348431
0.14  -0.74  0.350752265797
0.14  -0.72  0.428280509978
0.14  -0.7  0.522945147083
0.14  -0.68  0.638533905902
0.14  -0.66  0.779671732801
0.14  -0.64  0.952005845438
0.14  -0.62  1.16243168967
0.14  -0.6  1.41936884067
0.14  -0.58  1.73309788762
0.14  -0.56  2.11617178142
0.14  -0.54  2.58391810439
0.14  -0.52  3.15505235861
0.14  -0.5  3.85242681207
0.14  -0.48  4.70394486541
0.14  -0.46  5.74367752491
0.14  -0.44  7.01322665422
0.14  -0.42  8.56338955141
0.14  -0.4  10.4561914543
0.14  -0.38  12.7673672993
0.14  -0.36  15.5893920332
0.14  -0.34  19.035180728
0.14  -0.32  23.2426065479
0.14  -0.3  28.3800173406
0.14  -0.28  34.6529715843
0.14  -0.26  42.3124632101
0.14  -0.24  51.6649643898
0.14  -0.22  63.0846881248
0.14  -0.2  56.3150509763
0.14  -0.18  56.3693134018
0.14  -0.16  56.8813516899
0.14  -0.14  57.7859423192
0.14  -0.12  58.972068565
0.14  -0.1  60.3017710447
0.14  -0.08  61.6297795531
0.14  -0.06  62.8199780255
0.14  -0.04  63.7572783335
0.14  -0.02  64.3552551419
0.14  6.17561557e-16  64.5605806343
0.14  0.02  64.3552551419
0.14  0.04  63.7572783335
0.14  0.06  62.8199780255
0.14  0.08  61.6297795531
0.14  0.1  60.3017710447
0.14  0.12  58.972068565
0.14  0.14  57.7859423192
0.14  0.16  56.8813516899
0.14  0.18  56.3693134018
0.14  0.2  77.0285612853
0.14  0.22  63.0846881248
0.14  0.24  51.6649643898
0.14  0.26  42.3124632101
0.14  0.28  34.6529715844
0.14  0.3  28.3800173406
0.14  0.32  23.2426065479
0.14  0.34  19.035180728
0.14  0.36  15.5893920332
0.14  0.38  12.7673672993
0.14  0.4  10.4561914544
0.14  0.42  8.56338955142
0.14  0.44  7.01322665422
0.14  0.46  5.74367752491
0.14  0.48  4.70394486542
0.14  0.5  3.85242681208
0.14  0.52  3.15505235861
0.14  0.54  2.58391810439
0.14  0.56  2.11617178142
0.14  0.58  1.73309788762
0.14  0.6  1.41936884067
0.14  0.62  1.16243168967
0.14  0.64  0.952005845439
0.14  0.66  0.779671732801
0.14  0.68  0.638533905902
0.14  0.7  0.522945147083
0.14  0.72  0.428280509978
0.14  0.74  0.350752265797
0.14  0.76  0.287258348432
0.14  0.78  0.235258234344
0.14  0.8  0.192671290944
0.14  0.82  0.157793526154
0.14  0.84  0.12922940815
0.14  0.86  0.105836027231
0.14  0.88  0.0866773656265
0.14  0.9  0.0709868454868
0.14  0.92  0.0581366565047
0.14  0.94  0.0476126359239
0.14  0.96  0.0389936958181
0.14  0.98  0.0319349744883
0.16  -1  0.026098360583
0.16  -0.98  0.0318669906655
0.16  -0.96  0.0389106852459
0.16  -0.94  0.0475112771769
0.16  -0.92  0.0580128940088
0.16  -0.9  0.0708357272473
0.16  -0.88  0.0864928450888
0.16  -0.86  0.105610721345
0.16  -0.84  0.12895430196
0.16  -0.82  0.157457612089
0.16  -0.8  0.192261128384
0.16  -0.78  0.234757411833
0.16  -0.76  0.286646827021
0.16  -0.74  0.350005577245
0.16  -0.72  0.427368777724
0.16  -0.7  0.521831890825
0.16  -0.68  0.637174581945
0.16  -0.66  0.77801195177
0.16  -0.64  0.949979196046
0.16  -0.62  1.15995708146
0.16  -0.6  1.41634725943
0.16  -0.58  1.72940843361
0.16  -0.56  2.11166683193
0.16  -0.54  2.57841740701
0.16  -0.52  3.14833581902
0.16  -0.5  3.84422568758
0.16  -0.48  4.69393101198
0.16  -0.46  5.73145026745
0.16  -0.44  6.99829675478
0.16  -0.42  8.54515963369
0.16  -0.4  10.4339321015
0.16  -0.38  12.7401878683
0.16  -0.36  15.5562050185
0.16  -0.34  18.9946582484
0.16  -0.32  23.1931272147
0.16  -0.3  28.3196013829
0.16  -0.28  34.5792016341
0.16  -0.26  42.2223875784
0.16  -0.24  51.5549789636
0.16  -0.22  62.9503921585
0.16  -0.2  56.1951663512
0.16  -0.18  56.2493132617
0.16  -0.16  56.7602615123
0.16  -0.14  57.6629264307
0.16  -0.12  58.8465276268
0.16  -0.1  60.1733994089
0.16  -0.08  61.4985808258
0.16  -0.06  62.6862455795
0.16  -0.04  63.6215505436
0.16  -0.02  64.2182543667
0.16  6.17561557e-16  64.4231427581
0.16  0.02  64.2182543667
0.16  0.04  63.6215505436
0.16  0.06  62.6862455795
0.16  0.08  61.4985808258
0.16  0.1  60.1733994089
0.16  0.12  58.8465276268
0.16  0.14  57.6629264307
0.16  0.16  56.7602615123
0.16  0.18  56.2493132617
0.16  0.2  76.8645813185
0.16  0.22  62.9503921586
0.16  0.24  51.5549789636
0.16  0.26  42.2223875785
0.16  0.28  34.5792016341
0.16  0.3  28.3196013829
0.16  0.32  23.1931272147
0.16  0.34  18.9946582484
0.16  0.36  15.5562050186
0.16  0.38  12.7401878683
0.16  0.4  10.4339321015
0.16  0.42  8.54515963369
0.16  0.44  6.99829675478
0.16  0.46  5.73145026746
0.16  0.48  4.69393101198
0.16  0.5  3.84422568758
0.16  0.52  3.14833581902
0.16  0.54  2.57841740701
0.16  0.56  2.11166683193
0.16  0.58  1.72940843361
0.16  0.6  1.41634725944
0.16  0.62  1.15995708146
0.16  0.64  0.949979196046
0.16  0.66  0.77801195177
0.16  0.68  0.637174581945
0.16  0.7  0.521831890826
0.16  0.72  0.427368777724
0.16  0.74  0.350005577245
0.16  0.76  0.286646827021
0.16  0.78  0.234757411833
0.16  0.8  0.192261128384
0.16  0.82  0.157457612089
0.16  0.84  0.12895430196
0.16  0.86  0.105610721345
0.16  0.88  0.0864928450889
0.16  0.9  0.0708357272473
0.16  0.92  0.0580128940088
0.16  0.94  0.0475112771769
0.16  0.96  0.0389106852459
0.16  0.98  0.0318669906656
0.18  -1  0.0255538429868
0.18  -0.98  0.0312021160617
0.18  -0.96  0.0380988506202
0.18  -0.94  0.0465199993395
0.18  -0.92  0.0568025098741
0.18  -0.9  0.0693578068316
0.18  -0.88  0.084688253726
0.18  -0.86  0.103407253585
0.18  -0.84  0.126263792481
0.18  -0.82  0.154172408018
0.18  -0.8  0.188249781881
0.18  -0.78  0.229859420591
0.18  -0.76  0.280666212235
0.18  -0.74  0.342703042093
0.18  -0.72  0.418452132604
0.18  -0.7  0.510944362244
0.18  -0.68  0.623880537264
0.18  -0.66  0.761779468645
0.18  -0.64  0.930158779105
0.18  -0.62  1.13575567465
0.18  -0.6  1.38679651419
0.18  -0.58  1.69332596322
0.18  -0.56  2.06760890179
0.18  -0.54  2.52462116783
0.18  -0.52  3.08264877149
0.18  -0.5  3.76401955648
0.18  -0.48  4.59599658338
0.18  -0.46  5.61186898141
0.18  -0.44  6.85228391562
0.18  -0.42  8.36687296439
0.18  -0.4  10.216237982
0.18  -0.38  12.4743759047
0.18  -0.36  15.231639522
0.18  -0.34  18.5983526791
0.18  -0.32  22.7092245635
0.18  -0.3  27.7287396994
0.18  -0.28  33.857739315
0.18  -0.26  41.3414574175
0.18  -0.24  50.479333115
0.18  -0.22  61.6369917974
0.18  -0.2  55.0227073839
0.18  -0.18  55.0757245704
0.18  -0.16  55.5760123693
0.18  -0.14  56.4598440383
0.18  -0.12  57.6187505156
0.18  -0.1  58.9179383735
0.18  -0.08  60.2154711342
0.18  -0.06  61.3783563868
0.18  -0.04  62.2941470978
0.18  -0.02  62.8784012604
0.18  6.17561557e-16  63.0790148494
0.18  0.02  62.8784012604
0.18  0.04  62.2941470978
0.18  0.06  61.3783563868
0.18  0.08  60.2154711342
0.18  0.1  58.9179383735
0.18  0.12  57.6187505156
0.18  0.14  56.4598440383
0.18  0.16  55.5760123693
0.18  0.18  55.0757245704
0.18  0.2  75.2608745678
0.18  0.22  61.6369917974
0.18  0.24  50.479333115
0.18  0.26  41.3414574175
0.18  0.28  33.8577393151
0.18  0.3  27.7287396994
0.18  0.32  22.7092245635
0.18  0.34  18.5983526791
0.18  0.36  15.231639522
0.18  0.38  12.4743759047
0.18  0.4  10.216237982
0.18  0.42  8.3668729644
0.18  0.44  6.85228391562
0.18  0.46  5.61186898141
0.18  0.48  4.59599658338
0.18  0.5  3.76401955648
0.18  0.52  3.08264877149
0.18  0.54  2.52462116783
0.18  0.56  2.06760890179
0.18  0.58  1.69332596322
0.18  0.6  1.38679651419
0.18  0.62  1.13575567465
0.18  0.64  0.930158779105
0.18  0.66  0.761779468645
0.18  0.68  0.623880537264
0.18  0.7  0.510944362244
0.18  0.72  0.418452132604
0.18  0.74  0.342703042093
0.18  0.76  0.280666212235
0.18  0.78  0.229859420591
0.18  0.8  0.188249781881
0.18  0.82  0.154172408018
0.18  0.84  0.126263792481
0.18  0.86  0.103407253585
0.18  0.88  0.084688253726
0.18  0.9  0.0693578068316
0.18  0.92  0.0568025098741
0.18  0.94  0.0465199993395
0.18  0.96  0.0380988506202
0.18  0.98  0.0312021160617
0.2  -1  0.0245306842331
0.2  -0.98  0.029952804238
0.2  -0.96  0.0365733981652
0.2  -0.94  0.0446573697314
0.2  -0.92  0.0545281754328
0.2  -0.9  0.0665807667114
0.2  -0.88  0.0812973927826
0.2  -0.86  0.0992668964282
0.2  -0.84  0.121208274819
0.2  -0.82  0.147999448087
0.2  -0.8  0.18071238673
0.2  -0.78  0.220656003382
0.2  -0.76  0.269428525126
0.2  -0.74  0.328981441877
0.2  -0.72  0.401697589551
0.2  -0.7  0.49048649228
0.2  -0.68  0.598900778513
0.2  -0.66  0.731278329065
0.2  -0.64  0.892915844737
0.2  -0.62  1.09028077832
0.2  -0.6  1.33127011082
0.2  -0.58  1.62552632607
0.2  -0.56  1.98482322653
0.2  -0.54  2.4235370276
0.2  -0.52  2.95922157986
0.2  -0.5  3.61331073509
0.2  -0.48  4.41197595921
0.2  -0.46  5.387173507
0.2  -0.44  6.57792305824
0.2  -0.42  8.03186897618
0.2  -0.4  9.80718665745
0.2  -0.38  11.9749102506
0.2  -0.36  14.6217748798
0.2  -0.34  17.8536870975
0.2  -0.32  21.7999624257
0.2  -0.3  26.6184995384
0.2  -0.28  32.5020981154
0.2  -0.26  39.6861731587
0.2  -0.24  48.4581744351
0.2  -0.22  59.1690879388
0.2  -0.2  52.819635042
0.2  -0.18  52.8705294559
0.2  -0.16  53.3507860665
0.2  -0.14  54.1992297076
0.2  -0.12  55.3117343459
0.2  -0.1  56.5589035924
0.2  -0.08  57.8044840106
0.2  -0.06  58.9208081167
0.2  -0.04  59.7999311812
0.2  -0.02  60.3607921985
0.2  6.17561557e-16  60.5533733538
0.2  0.02  60.3607921985
0.2  0.04  59.7999311812
0.2  0.06  58.9208081167
0.2  0.08  57.8044840106
0.2  0.1  56.5589035924
0.2  0.12  55.3117343459
0.2  0.14  54.1992297076
0.2  0.16  53.3507860665
0.2  0.18  52.8705294559
0.2  0.2  72.2474795701
0.2  0.22  59.1690879388
0.2  0.24  48.4581744351
0.2  0.26  39.6861731587
0.2  0.28  32.5020981154
0.2  0.3  26.6184995384
0.2  0.32  21.7999624258
0.2  0.34  17.8536870975
0.2  0.36  14.6217748798
0.2  0.38  11.9749102506
0.2  0.4  9.80718665745
0.2  0.42  8.03186897618
0.2  0.44  6.57792305824
0.2  0.46  5.387173507
0.2  0.48  4.41197595921
0.2  0.5  3.61331073509
0.2  0.52  2.95922157987
0.2  0.54  2.4235370276
0.2  0.56  1.98482322653
0.2  0.58  1.62552632607
0.2  0.6  1.33127011082
0.2  0.62  1.09028077832
0.2  0.64  0.892915844738
0.2  0.66  0.731278329065
0.2  0.68  0.598900778513
0.2  0.7  0.49048649228
0.2  0.72  0.401697589552
0.2  0.74  0.328981441877
0.2  0.76  0.269428525126
0.2  0.78  0.220656003382
0.2  0.8  0.18071238673
0.2  0.82  0.147999448087
0.2  0.84  0.121208274819
0.2  0.86  0.0992668964282
0.2  0.88  0.0812973927827
0.2  0.9  0.0665807667115
0.2  0.92  0.0545281754328
0.2  0.94  0.0446573697314
0.2  0.96  0.0365733981652
0.2  0.98  0.029952804238
0.22  -1  0.0230480487931
0.22  -0.98  0.0281424556693
0.22  -0.96  0.0343629006607
0.22  -0.94  0.0419582766938
0.22  -0.92  0.0512324905425
0.22  -0.9  0.0625566227695
0.22  -0.88  0.07638377543
0.22  -0.86  0.093267201627
0.22  -0.84  0.113882442317
0.22  -0.82  0.139054356105
0.22  -0.8  0.169790123557
0.22  -0.78  0.207319546577
0.22  -0.76  0.253144255347
0.22  -0.74  0.309097791662
0.22  -0.72  0.377418972748
0.22  -0.7  0.460841470992
0.22  -0.68  0.562703193854
0.22  -0.66  0.687079840475
0.22  -0.64  0.838947978869
0.22  -0.62  1.02438416875
0.22  -0.6  1.2508080973
0.22  -0.58  1.52727945628
0.22  -0.56  1.86486043912
0.22  -0.54  2.27705836223
0.22  -0.52  2.78036612082
0.22  -0.5  3.39492210391
0.22  -0.48  4.14531597307
0.22  -0.46  5.06157254589
0.22  -0.44  6.1803531513
0.22  -0.42  7.54642252551
0.22  -0.4  9.21443994207
0.22  -0.38  11.251146243
0.22  -0.36  13.7380342786
0.22  -0.34  16.7746096053
0.22  -0.32  20.4823719103
0.22  -0.3  25.009676466
0.22  -0.28  30.5376701328
0.22  -0.26  37.2875394213
0.22  -0.24  45.5293606241
0.22  -0.22  55.5929061292
0.22  -0.2  49.6272143946
0.22  -0.18  49.6750327482
0.22  -0.16  50.1262626319
0.22  -0.14  50.9234263088
0.22  -0.12  51.9686911266
0.22  -0.1  53.1404814189
0.22  -0.08  54.3107789117
0.22  -0.06  55.3596323485
0.22  -0.04  56.1856211833
0.22  -0.02  56.7125837405
0.22  6.17561557e-16  56.8935252838
0.22  0.02  56.7125837405
0.22  0.04  56.1856211833
0.22  0.06  55.3596323485
0.22  0.08  54.3107789117
0.22  0.1  53.1404814189
0.22  0.12  51.9686911266
0.22  0.14  50.9234263088
0.22  0.16  50.1262626319
0.22  0.18  49.6750327482
0.22  0.2  67.8808392986
0.22  0.22  55.5929061292
0.22  0.24  45.5293606241
0.22  0.26  37.2875394213
0.22  0.28  30.5376701328
0.22  0.3  25.009676466
0.22  0.32  20.4823719103
0.22  0.34  16.7746096053
0.22  0.36  13.7380342786
0.22  0.38  11.251146243
0.22  0.4  9.21443994208
0.22  0.42  7.54642252551
0.22  0.44  6.1803531513
0.22  0.46  5.06157254589
0.22  0.48  4.14531597307
0.22  0.5  3.39492210391
0.22  0.52  2.78036612082
0.22  0.54  2.27705836223
0.22  0.56  1.86486043912
0.22  0.58  1.52727945628
0.22  0.6  1.2508080973
0.22  0.62  1.02438416875
0.22  0.64  0.838947978869
0.22  0.66  0.687079840475
0.22  0.68  0.562703193854
0.22  0.7  0.460841470992
0.22  0.72  0.377418972748
0.22  0.74  0.309097791662
0.22  0.76  0.253144255348
0.22  0.78  0.207319546578
0.22  0.8  0.169790123557
0.22  0.82  0.139054356105
0.22  0.84  0.113882442317
0.22  0.86  0.093267201627
0.22  0.88  0.07638377543
0.22  0.9  0.0625566227695
0.22  0.92  0.0512324905425
0.22  0.94  0.0419582766938
0.22  0.96  0.0343629006607
0.22  0.98  0.0281424556693
0.24  -1  0.0211337074543
0.24  -0.98  0.0258049794367
0.24  -0.96  0.0315087622542
0.24  -0.94  0.0384732761065
0.24  -0.92  0.0469771856612
0.24  -0.9  0.0573607500057
0.24  -0.88  0.0700394371205
0.24  -0.86  0.085520547616
0.24  -0.84  0.104423512884
0.24  -0.82  0.127504679835
0.24  -0.8  0.155687573907
0.24  -0.78  0.190099851239
0.24  -0.76  0.232118418538
0.24  -0.74  0.283424525971
0.24  -0.72  0.346071037481
0.24  -0.7  0.422564570137
0.24  -0.68  0.51596578909
0.24  -0.66  0.630011871144
0.24  -0.64  0.769266036963
0.24  -0.62  0.939300135014
0.24  -0.6  1.14691758279
0.24  -0.58  1.40042558569
0.24  -0.56  1.70996752555
0.24  -0.54  2.08792881843
0.24  -0.52  2.54943248085
0.24  -0.5  3.11294423308
0.24  -0.48  3.80101135098
0.24  -0.46  4.64116482935
0.24  -0.44  5.6670209542
0.24  -0.42  6.91962636023
0.24  -0.4  8.44910039193
0.24  -0.38  10.3166404827
0.24  -0.36  12.5969707912
0.24  -0.34  15.3813320703
0.24  -0.32  18.781132399
0.24  -0.3  22.9324048515
0.24  -0.28  28.0012504623
0.24  -0.26  34.1904842746
0.24  -0.24  41.7477503909
0.24  -0.22  50.975430728
0.24  -0.2  45.5052416889
0.24  -0.18  45.5490883115
0.24  -0.16  45.9628396204
0.24  -0.14  46.6937919059
0.24  -0.12  47.65223837
0.24  -0.1  48.7267012652
0.24  -0.08  49.799795351
0.24  -0.06  50.7615323681
0.24  -0.04  51.5189156308
0.24  -0.02  52.0021093547
0.24  6.17561557e-16  52.1680221257
0.24  0.02  52.0021093547
0.24  0.04  51.5189156308
0.24  0.06  50.7615323681
0.24  0.08  49.799795351
0.24  0.1  48.7267012652
0.24  0.12  47.65223837
0.24  0.14  46.6937919058
0.24  0.16  45.9628396204
0.24  0.18  45.5490883115
0.24  0.2  62.2427439462
0.24  0.22  50.975430728
0.24  0.24  41.7477503909
0.24  0.26  34.1904842746
0.24  0.28  28.0012504623
0.24  0.3  22.9324048515
0.24  0.32  18.781132399
0.24  0.34  15.3813320703
0.24  0.36  12.5969707912
0.24  0.38  10.3166404827
0.24  0.4  8.44910039194
0.24  0.42  6.91962636023
0.24  0.44  5.6670209542
0.24  0.46  4.64116482935
0.24  0.48  3.80101135098
0.24  0.5  3.11294423308
0.24  0.52  2.54943248085
0.24  0.54  2.08792881843
0.24  0.56  1.70996752555
0.24  0.58  1.40042558569
0.24  0.6  1.14691758279
0.24  0.62  0.939300135014
0.24  0.64  0.769266036964
0.24  0.66  0.630011871144
0.24  0.68  0.51596578909
0.24  0.7  0.422564570137
0.24  0.72  0.346071037482
0.24  0.74  0.283424525972
0.24  0.76  0.232118418539
0.24  0.78  0.19009985124
0.24  0.8  0.155687573907
0.24  0.82  0.127504679835
0.24  0.84  0.104423512884
0.24  0.86  0.0855205476161
0.24  0.88  0.0700394371205
0.24  0.9  0.0573607500057
0.24  0.92  0.0469771856612
0.24  0.94  0.0384732761065
0.24  0.96  0.0315087622542
0.24  0.98  0.0258049794367
0.26  -1  0.0188235171544
0.26  -0.98  0.022984158087
0.26  -0.96  0.0280644429325
0.26  -0.94  0.0342676444415
0.26  -0.92  0.0418419655931
0.26  -0.9  0.0510904707115
0.26  -0.88  0.0623832116996
0.26  -0.86  0.0761720345842
0.26  -0.84  0.0930086588141
0.26  -0.82  0.113566752701
0.26  -0.8  0.138668888291
0.26  -0.78  0.169319454175
0.26  -0.76  0.206744843168
0.26  -0.74  0.252442522834
0.26  -0.72  0.308240952268
0.26  -0.7  0.376372742549
0.26  -0.68  0.459563988145
0.26  -0.66  0.561143343617
0.26  -0.64  0.685175209999
0.26  -0.62  0.836622359932
0.26  -0.6  1.0215445085
0.26  -0.58  1.24734077504
0.26  -0.56  1.52304573725
0.26  -0.54  1.85969092341
0.26  -0.52  2.27074620678
0.26  -0.5  2.77265876319
0.26  -0.48  3.38551115671
0.26  -0.46  4.13382488474
0.26  -0.44  5.04754153412
0.26  -0.42  6.16322080616
0.26  -0.4  7.52550334627
0.26  -0.38  9.18889690893
0.26  -0.36  11.2199573262
0.26  -0.34  13.6999515446
0.26  -0.32  16.7281092849
0.26  -0.3  20.4255934291
0.26  -0.28  24.9403479991
0.26  -0.26  30.4530177041
0.26  -0.24  37.1841759113
0.26  -0.22  45.403150244
0.26  -0.2  40.5309243253
0.26  -0.18  40.5699779393
0.26  -0.16  40.9385008253
0.26  -0.14  41.5895504772
0.26  -0.12  42.4432262225
0.26  -0.1  43.4002362872
0.26  -0.08  44.3560271713
0.26  -0.06  45.212633769
0.26  -0.04  45.8872251472
0.26  -0.02  46.3175994849
0.26  6.17561557e-16  46.4653758227
0.26  0.02  46.3175994849
0.26  0.04  45.8872251472
0.26  0.06  45.212633769
0.26  0.08  44.3560271713
0.26  0.1  43.4002362872
0.26  0.12  42.4432262225
0.26  0.14  41.5895504772
0.26  0.16  40.9385008253
0.26  0.18  40.5699779393
0.26  0.2  55.4387989395
0.26  0.22  45.403150244
0.26  0.24  37.1841759113
0.26  0.26  30.4530177041
0.26  0.28  24.9403479991
0.26  0.3  20.4255934292
0.26  0.32  16.7281092849
0.26  0.34  13.6999515446
0.26  0.36  11.2199573262
0.26  0.38  9.18889690893
0.26  0.4  7.52550334628
0.26  0.42  6.16322080616
0.26  0.44  5.04754153412
0.26  0.46  4.13382488474
0.26  0.48  3.38551115671
0.26  0.5  2.7726587632
0.26  0.52  2.27074620679
0.26  0.54  1.85969092341
0.26  0.56  1.52304573725
0.26  0.58  1.24734077504
0.26  0.6  1.02154450851
0.26  0.62  0.836622359932
0.26  0.64  0.685175209999
0.26  0.66  0.561143343617
0.26  0.68  0.459563988146
0.26  0.7  0.376372742549
0.26  0.72  0.308240952268
0.26  0.74  0.252442522834
0.26  0.76  0.206744843168
0.26  0.78  0.169319454175
0.26  0.8  0.138668888291
0.26  0.82  0.113566752702
0.26  0.84  0.0930086588141
0.26  0.86  0.0761720345842
0.26  0.88  0.0623832116996
0.26  0.9  0.0510904707115
0.26  0.92  0.0418419655931
0.26  0.94  0.0342676444416
0.26  0.96  0.0280644429326
0.26  0.98  0.022984158087
0.28  -1  0.0161607493558
0.28  -0.98  0.0197328275557
0.28  -0.96  0.0240944571795
0.28  -0.94  0.0294201560894
0.28  -0.92  0.0359230165627
0.28  -0.9  0.0438632315559
0.28  -0.88  0.0535585055662
0.28  -0.86  0.0653967666479
0.28  -0.84  0.07985168822
0.28  -0.82  0.0975016417235
0.28  -0.8  0.119052838465
0.28  -0.78  0.145367586596
0.28  -0.76  0.177498793857
0.28  -0.74  0.216732096601
0.28  -0.72  0.264637300773
0.28  -0.7  0.323131193114
0.28  -0.68  0.394554235772
0.28  -0.66  0.481764213059
0.28  -0.64  0.588250577339
0.28  -0.62  0.718274069264
0.28  -0.6  0.877037198859
0.28  -0.58  1.07089240876
0.28  -0.56  1.30759624863
0.28  -0.54  1.59661973084
0.28  -0.52  1.94952728534
0.28  -0.5  2.38043947652
0.28  -0.48  2.90659799633
0.28  -0.46  3.54905554022
0.28  -0.44  4.33351816916
0.28  -0.42  5.2913738626
0.28  -0.4  6.46094841671
0.28  -0.38  7.8890389391
0.28  -0.36  9.63278629832
0.28  -0.34  11.7619614487
0.28  -0.32  14.3617571113
0.28  -0.3  17.5361965113
0.28  -0.28  21.4122955638
0.28  -0.26  26.1451450443
0.28  -0.24  31.9241160925
0.28  -0.22  38.9804373455
0.28  -0.2  34.7974347094
0.28  -0.18  34.8309638136
0.28  -0.16  35.1473555879
0.28  -0.14  35.7063079961
0.28  -0.12  36.439223085
0.28  -0.1  37.2608548588
0.28  -0.08  38.0814399167
0.28  -0.06  38.8168712608
0.28  -0.04  39.3960351913
0.28  -0.02  39.7655289339
0.28  6.17561557e-16  39.8924008854
0.28  0.02  39.7655289339
0.28  0.04  39.3960351913
0.28  0.06  38.8168712608
0.28  0.08  38.0814399167
0.28  0.1  37.2608548588
0.28  0.12  36.439223085
0.28  0.14  35.7063079961
0.28  0.16  35.1473555879
0.28  0.18  34.8309638136
0.28  0.2  47.5964468756
0.28  0.22  38.9804373455
0.28  0.24  31.9241160925
0.28  0.26  26.1451450443
0.28  0.28  21.4122955638
0.28  0.3  17.5361965113
0.28  0.32  14.3617571113
0.28  0.34  11.7619614487
0.28  0.36  9.63278629832
0.28  0.38  7.8890389391
0.28  0.4  6.46094841671
0.28  0.42  5.2913738626
0.28  0.44  4.33351816916
0.28  0.46  3.54905554022
0.28  0.48  2.90659799633
0.28  0.5  2.38043947652
0.28  0.52  1.94952728534
0.28  0.54  1.59661973084
0.28  0.56  1.30759624863
0.28  0.58  1.07089240876
0.28  0.6  0.87703719886
0.28  0.62  0.718274069264
0.28  0.64  0.588250577339
0.28  0.66  0.481764213059
0.28  0.68  0.394554235772
0.28  0.7  0.323131193114
0.28  0.72  0.264637300774
0.28  0.74  0.216732096601
0.28  0.76  0.177498793857
0.28  0.78  0.145367586596
0.28  0.8  0.119052838465
0.28  0.82  0.0975016417236
0.28  0.84  0.07985168822
0.28  0.86  0.0653967666479
0.28  0.88  0.0535585055662
0.28  0.9  0.0438632315559
0.28  0.92  0.0359230165627
0.28  0.94  0.0294201560895
0.28  0.96  0.0240944571795
0.28  0.98  0.0197328275557
0.3  -1  0.0131952795416
0.3  -0.98  0.0161118875128
0.3  -0.96  0.0196731655747
0.3  -0.94  0.0240216078606
0.3  -0.92  0.0293312045801
0.3  -0.9  0.0358144037282
0.3  -0.88  0.0437306115712
0.3  -0.86  0.0533965720301
0.3  -0.84  0.0651990402633
0.3  -0.82  0.0796102575434
0.3  -0.8  0.0972068466121
0.3  -0.78  0.118692883554
0.3  -0.76  0.144928069341
0.3  -0.74  0.176962128261
0.3  -0.72  0.216076809557
0.3  -0.7  0.263837172886
0.3  -0.68  0.322154209605
0.3  -0.66  0.3933613055
0.3  -0.64  0.480307604407
0.3  -0.62  0.586472008369
0.3  -0.6  0.716102375736
0.3  -0.58  0.874385486804
0.3  -0.56  1.06765457767
0.3  -0.54  1.30364274616
0.3  -0.52  1.59179236914
0.3  -0.5  1.94363291163
0.3  -0.48  2.37324224467
0.3  -0.46  2.89780993015
0.3  -0.44  3.53832501092
0.3  -0.42  4.32041582597
0.3  -0.4  5.27537545355
0.3  -0.38  6.44141381222
0.3  -0.36  7.86518651906
0.3  -0.34  9.60366167785
0.3  -0.32  11.7263992913
0.3  -0.3  14.318334501
0.3  -0.28  17.4831760194
0.3  -0.26  21.3475557302
0.3  -0.24  26.0660954938
0.3  -0.22  31.8275938884
0.3  -0.2  28.4121650682
0.3  -0.18  28.4395416392
0.3  -0.16  28.6978760651
0.3  -0.14  29.1542616642
0.3  -0.12  29.7526880902
0.3  -0.1  30.4235518414
0.3  -0.08  31.0935609473
0.3  -0.06  31.6940419
0.3  -0.04  32.1669302417
0.3  -0.02  32.4686225156
0.3  6.17561557e-16  32.5722136814
0.3  0.02  32.4686225156
0.3  0.04  32.1669302417
0.3  0.06  31.6940419
0.3  0.08  31.0935609473
0.3  0.1  30.4235518414
0.3  0.12  29.7526880902
0.3  0.14  29.1542616642
0.3  0.16  28.6978760651
0.3  0.18  28.4395416392
0.3  0.2  38.8625804339
0.3  0.22  31.8275938884
0.3  0.24  26.0660954938
0.3  0.26  21.3475557302
0.3  0.28  17.4831760194
0.3  0.3  14.318334501
0.3  0.32  11.7263992913
0.3  0.34  9.60366167785
0.3  0.36  7.86518651906
0.3  0.38  6.44141381222
0.3  0.4  5.27537545355
0.3  0.42  4.32041582597
0.3  0.44  3.53832501092
0.3  0.46  2.89780993015
0.3  0.48  2.37324224467
0.3  0.5  1.94363291163
0.3  0.52  1.59179236914
0.3  0.54  1.30364274616
0.3  0.56  1.06765457767
0.3  0.58  0.874385486804
0.3  0.6  0.716102375736
0.3  0.62  0.586472008369
0.3  0.64  0.480307604407
0.3  0.66  0.393361305501
0.3  0.68  0.322154209605
0.3  0.7  0.263837172886
0.3  0.72  0.216076809557
0.3  0.74  0.176962128261
0.3  0.76  0.144928069341
0.3  0.78  0.118692883554
0.3  0.8  0.0972068466121
0.3  0.82  0.0796102575434
0.3  0.84  0.0651990402633
0.3  0.86  0.0533965720301
0.3  0.88  0.0437306115712
0.3  0.9  0.0358144037282
0.3  0.92  0.0293312045801
0.3  0.94  0.0240216078606
0.3  0.96  0.0196731655747
0.3  0.98  0.0161118875129
0.32  -1  0.0104335134361
0.32  -0.98  0.0127396766636
0.32  -0.96  0.0155555808201
0.32  -0.94  0.0189938960808
0.32  -0.92  0.023192196582
0.32  -0.9  0.0283184650485
0.32  -0.88  0.034577814131
0.32  -0.86  0.0422206933897
0.32  -0.84  0.0515529103012
0.32  -0.82  0.0629478662511
0.32  -0.8  0.0768614970991
0.32  -0.78  0.0938505161198
0.32  -0.76  0.114594689258
0.32  -0.74  0.139924033975
0.32  -0.72  0.170852029973
0.32  -0.7  0.208616170622
0.32  -0.68  0.254727477642
0.32  -0.66  0.311030960219
0.32  -0.64  0.379779437657
0.32  -0.62  0.46372367936
0.32  -0.6  0.566222468823
0.32  -0.58  0.691376995549
0.32  -0.56  0.844194952149
0.32  -0.54  1.03079090254
0.32  -0.52  1.25863093832
0.32  -0.5  1.53683141266
0.32  -0.48  1.87652370447
0.32  -0.46  2.29129960803
0.32  -0.44  2.79775516891
0.32  -0.42  3.41615472621
0.32  -0.4  4.17124173092
0.32  -0.38  5.09322878271
0.32  -0.36  6.2190064989
0.32  -0.34  7.59361958462
0.32  -0.32  9.27206916508
0.32  -0.3  11.3215134949
0.32  -0.28  13.8239550991
0.32  -0.26  16.8795218652
0.32  -0.24  20.6104733669
0.32  -0.22  25.1660927248
0.32  -0.2  22.4655116288
0.32  -0.18  22.4871582958
0.32  -0.16  22.6914234419
0.32  -0.14  23.0522877392
0.32  -0.12  23.525463782
0.32  -0.1  24.0559160501
0.32  -0.08  24.5856925499
0.32  -0.06  25.0604931078
0.32  -0.04  25.4344061311
0.32  -0.02  25.6729543471
0.32  6.17561557e-16  25.7548639282
0.32  0.02  25.6729543471
0.32  0.04  25.4344061311
0.32  0.06  25.0604931078
0.32  0.08  24.5856925499
0.32  0.1  24.0559160501
0.32  0.12  23.525463782
0.32  0.14  23.0522877392
0.32  0.16  22.6914234419
0.32  0.18  22.4871582958
0.32  0.2  30.7286597332
0.32  0.22  25.1660927248
0.32  0.24  20.6104733669
0.32  0.26  16.8795218652
0.32  0.28  13.8239550991
0.32  0.3  11.3215134949
0.32  0.32  9.27206916508
0.32  0.34  7.59361958462
0.32  0.36  6.2190064989
0.32  0.38  5.09322878271
0.32  0.4  4.17124173092
0.32  0.42  3.41615472621
0.32  0.44  2.79775516891
0.32  0.46  2.29129960803
0.32  0.48  1.87652370447
0.32  0.5  1.53683141266
0.32  0.52  1.25863093832
0.32  0.54  1.03079090254
0.32  0.56  0.844194952149
0.32  0.58  0.691376995549
0.32  0.6  0.566222468824
0.32  0.62  0.46372367936
0.32  0.64  0.379779437658
0.32  0.66  0.311030960219
0.32  0.68  0.254727477642
0.32  0.7  0.208616170622
0.32  0.72  0.170852029973
0.32  0.74  0.139924033975
0.32  0.76  0.114594689258
0.32  0.78  0.0938505161199
0.32  0.8  0.0768614970991
0.32  0.82  0.0629478662511
0.32  0.84  0.0515529103012
0.32  0.86  0.0422206933897
0.32  0.88  0.0345778141311
0.32  0.9  0.0283184650485
0.32  0.92  0.023192196582
0.32  0.94  0.0189938960808
0.32  0.96  0.0155555808201
0.32  0.98  0.0127396766636
0.34  -1  0.0082497837411
0.34  -0.98  0.0100732680367
0.34  -0.96  0.0122998047129
0.34  -0.94  0.0150184821275
0.34  -0.92  0.0183380802118
0.34  -0.9  0.0223914229814
0.34  -0.88  0.0273406931009
0.34  -0.86  0.0333839211496
0.34  -0.84  0.040762909236
0.34  -0.82  0.0497729060028
0.34  -0.8  0.0607744201381
0.34  -0.78  0.0742076450775
0.34  -0.76  0.0906100720571
0.34  -0.74  0.110637996255
0.34  -0.72  0.135092776525
0.34  -0.7  0.164952899429
0.34  -0.68  0.201413130517
0.34  -0.66  0.245932319376
0.34  -0.64  0.30029177124
0.34  -0.62  0.366666520704
0.34  -0.6  0.447712359383
0.34  -0.58  0.546672099649
0.34  -0.56  0.667505326292
0.34  -0.54  0.815046827732
0.34  -0.52  0.995200045946
0.34  -0.5  1.21517328545
0.34  -0.48  1.48376813254
0.34  -0.46  1.81173162502
0.34  -0.44  2.21218626355
0.34  -0.42  2.70115507014
0.34  -0.4  3.29820270253
0.34  -0.38  4.02721827681
0.34  -0.36  4.91737122058
0.34  -0.34  6.00427840236
0.34  -0.32  7.33142923644
0.34  -0.3  8.95192578476
0.34  -0.28  10.9306074807
0.34  -0.26  13.3466454894
0.34  -0.24  16.2967105108
0.34  -0.22  19.8988407749
0.34  -0.2  17.7634900943
0.34  -0.18  17.7806061235
0.34  -0.16  17.9421186659
0.34  -0.14  18.2274542272
0.34  -0.12  18.6015947359
0.34  -0.1  19.0210235816
0.34  -0.08  19.4399180969
0.34  -0.06  19.8153431105
0.34  -0.04  20.1109963053
0.34  -0.02  20.2996164863
0.34  6.17561557e-16  20.3643824288
0.34  0.02  20.2996164863
