0.18  0.28  57.2944206076
0.18  0.3  49.5652077488
0.18  0.32  42.8786920807
0.18  0.34  37.0942101943
0.18  0.36  32.090074654
0.18  0.38  27.7610140749
0.18  0.4  24.0159585409
0.18  0.42  20.7761237786
0.18  0.44  17.9733537817
0.18  0.46  15.548687022
0.18  0.48  13.4511160824
0.18  0.5  11.6365146205
0.18  0.52  10.0667090883
0.18  0.54  8.70867567934
0.18  0.56  7.53384561159
0.18  0.58  6.51750412912
0.18  0.6  5.63827058093
0.18  0.62  4.8776486388
0.18  0.64  4.21963719231
0.18  0.66  3.65039373543
0.18  0.68  3.15794316345
0.18  0.7  2.73192585413
0.18  0.72  2.36337973363
0.18  0.74  2.04455174246
0.18  0.76  1.76873473531
0.18  0.78  1.53012638366
0.18  0.8  1.3237071129
0.18  0.82  1.14513450618
0.18  0.84  0.990651953494
0.18  0.86  0.857009624339
0.18  0.88  0.741396101446
0.18  0.9  0.641379237325
0.18  0.92  0.554854989485
0.18  0.94  0.480003157944
0.18  0.96  0.415249093913
0.18  0.98  0.359230574095
0.2  -1  0.299444427846
0.2  -0.98  0.346139878695
0.2  -0.96  0.400117031679
0.2  -0.94  0.462511397541
0.2  -0.92  0.534635558895
0.2  -0.9  0.61800678287
0.2  -0.88  0.714378939671
0.2  -0.86  0.825779398529
0.2  -0.84  0.954551677221
0.2  -0.82  1.10340474237
0.2  -0.8  1.27546999762
0.2  -0.78  1.47436715865
0.2  -0.76  1.70428040059
0.2  -0.74  1.97004638011
0.2  -0.72  2.27725598348
0.2  -0.7  2.63237194143
0.2  -0.68  3.04286478476
0.2  -0.66  3.51737000102
0.2  -0.64  4.06586969821
0.2  -0.62  4.69990259711
0.2  -0.6  5.43280676999
0.2  -0.58  6.28000023197
0.2  -0.56  7.25930528789
0.2  -0.54  8.39132345802
0.2  -0.52  9.69986886961
0.2  -0.5  11.2124692319
0.2  -0.48  12.9609449329
0.2  -0.46  14.9820784414
0.2  -0.44  17.3183880949
0.2  -0.42  20.0190225528
0.2  -0.4  23.1407947306
0.2  -0.38  26.7493769664
0.2  -0.36  30.9206825617
0.2  -0.34  35.7424627602
0.2  -0.32  41.3161527602
0.2  -0.3  47.7590055937
0.2  -0.28  55.2065587651
0.2  -0.26  63.8154855362
0.2  -0.24  73.7668908425
0.2  -0.22  85.2701211758
0.2  -0.2  73.9794368407
0.2  -0.18  74.1348474738
0.2  -0.16  73.4221742648
0.2  -0.14  71.8978972225
0.2  -0.12  69.6876663122
0.2  -0.1  66.9866426646
0.2  -0.08  64.0574436908
0.2  -0.06  61.2208406779
0.2  -0.04  58.8310640722
0.2  -0.02  57.2270911705
0.2  6.17561557e-16  56.6610185888
0.2  0.02  57.2270911705
0.2  0.04  58.8310640722
0.2  0.06  61.2208406779
0.2  0.08  64.0574436908
0.2  0.1  66.9866426646
0.2  0.12  69.6876663122
0.2  0.14  71.8978972225
0.2  0.16  73.4221742648
0.2  0.18  74.1348474738
0.2  0.2  98.5671685807
0.2  0.22  85.2701211758
0.2  0.24  73.7668908425
0.2  0.26  63.8154855362
0.2  0.28  55.2065587651
0.2  0.3  47.7590055937
0.2  0.32  41.3161527602
0.2  0.34  35.7424627602
0.2  0.36  30.9206825617
0.2  0.38  26.7493769664
0.2  0.4  23.1407947306
0.2  0.42  20.0190225528
0.2  0.44  17.3183880949
0.2  0.46  14.9820784414
0.2  0.48  12.9609449329
0.2  0.5  11.2124692319
0.2  0.52  9.69986886961
0.2  0.54  8.39132345801
0.2  0.56  7.25930528789
0.2  0.58  6.28000023197
0.2  0.6  5.43280676999
0.2  0.62  4.69990259711
0.2  0.64  4.06586969821
0.2  0.66  3.51737000102
0.2  0.68  3.04286478476
0.2  0.7  2.63237194143
0.2  0.72  2.27725598348
0.2  0.74  1.97004638011
0.2  0.76  1.70428040059
0.2  0.78  1.47436715865
0.2  0.8  1.27546999762
0.2  0.82  1.10340474237
0.2  0.84  0.954551677221
0.2  0.86  0.825779398528
0.2  0.88  0.714378939671
0.2  0.9  0.61800678287
0.2  0.92  0.534635558895
0.2  0.94  0.462511397541
0.2  0.96  0.400117031679
0.2  0.98  0.346139878695
0.22  -1  0.283060462997
0.22  -0.98  0.327200993619
0.22  -0.96  0.378224811377
0.22  -0.94  0.437205298061
0.22  -0.92  0.505383218929
0.22  -0.9  0.584192824534
0.22  -0.88  0.675292022873
0.22  -0.86  0.780597256599
0.22  -0.84  0.902323818987
0.22  -0.82  1.04303245679
0.22  -0.8  1.20568324034
0.22  -0.78  1.3936978342
0.22  -0.76  1.61103147832
0.22  -0.74  1.86225619388
0.22  -0.72  2.15265696438
0.22  -0.7  2.48834291518
0.22  -0.68  2.87637583042
0.22  -0.66  3.3249187109
0.22  -0.64  3.84340749813
0.22  -0.62  4.4427495771
0.22  -0.6  5.13555323352
0.22  -0.58  5.93639289289
0.22  -0.56  6.86211572079
0.22  -0.54  7.93219603472
0.22  -0.52  9.16914498288
0.22  -0.5  10.5989841085
0.22  -0.48  12.2517927616
0.22  -0.46  14.162340875
0.22  -0.44  16.3708204149
0.22  -0.42  18.9236908942
0.22  -0.4  21.8746567357
0.22  -0.38  25.2857970457
0.22  -0.36  29.2288715641
0.22  -0.34  33.7868302654
0.22  -0.32  39.0555583674
0.22  -0.3  45.1458934563
0.22  -0.28  52.1859571638
0.22  -0.26  60.3238504458
0.22  -0.24  69.7307691643
0.22  -0.22  80.6046055137
0.22  -0.2  69.9316858055
0.22  -0.18  70.078593217
0.22  -0.16  69.4049135965
0.22  -0.14  67.9640366751
0.22  -0.12  65.8747375377
0.22  -0.1  63.3214991631
0.22  -0.08  60.5525699707
0.22  -0.06  57.8711703938
0.22  -0.04  55.6121493215
0.22  -0.02  54.0959370631
0.22  6.17561557e-16  53.5608368837
0.22  0.02  54.0959370631
0.22  0.04  55.6121493215
0.22  0.06  57.8711703938
0.22  0.08  60.5525699707
0.22  0.1  63.3214991631
0.22  0.12  65.8747375377
0.22  0.14  67.9640366751
0.22  0.16  69.4049135965
0.22  0.18  70.078593217
0.22  0.2  93.1741110543
0.22  0.22  80.6046055137
0.22  0.24  69.7307691643
0.22  0.26  60.3238504458
0.22  0.28  52.1859571638
0.22  0.3  45.1458934563
0.22  0.32  39.0555583674
0.22  0.34  33.7868302654
0.22  0.36  29.2288715641
0.22  0.38  25.2857970457
0.22  0.4  21.8746567357
0.22  0.42  18.9236908942
0.22  0.44  16.3708204149
0.22  0.46  14.162340875
0.22  0.48  12.2517927616
0.22  0.5  10.5989841085
0.22  0.52  9.16914498288
0.22  0.54  7.93219603472
0.22  0.56  6.86211572079
0.22  0.58  5.93639289289
0.22  0.6  5.13555323352
0.22  0.62  4.4427495771
0.22  0.64  3.84340749813
0.22  0.66  3.3249187109
0.22  0.68  2.87637583042
0.22  0.7  2.48834291518
0.22  0.72  2.15265696438
0.22  0.74  1.86225619388
0.22  0.76  1.61103147832
0.22  0.78  1.3936978342
0.22  0.8  1.20568324034
0.22  0.82  1.04303245679
0.22  0.84  0.902323818986
0.22  0.86  0.780597256599
0.22  0.88  0.675292022873
0.22  0.9  0.584192824534
0.22  0.92  0.505383218929
0.22  0.94  0.437205298061
0.22  0.96  0.378224811377
0.22  0.98  0.327200993619
0.24  -1  0.261894063706
0.24  -0.98  0.30273389989
0.24  -0.96  0.349942311962
0.24  -0.94  0.404512417491
0.24  -0.92  0.467592201091
0.24  -0.9  0.540508664423
0.24  -0.88  0.624795742176
0.24  -0.86  0.722226571257
0.24  -0.84  0.834850792059
0.24  -0.82  0.965037666487
0.24  -0.8  1.11552591984
0.24  -0.78  1.28948135502
0.24  -0.76  1.49056345118
0.24  -0.74  1.72300234767
0.24  -0.72  1.99168783304
0.24  -0.7  2.30227221086
0.24  -0.68  2.66128920655
0.24  -0.66  3.07629141658
0.24  -0.64  3.5560091915
0.24  -0.62  4.11053429524
0.24  -0.6  4.75153220435
0.24  -0.58  5.49248751314
0.24  -0.56  6.3489876075
0.24  -0.54  7.33905057476
0.24  -0.52  8.48350424802
0.24  -0.5  9.80642435872
0.24  -0.48  11.3356410148
0.24  -0.46  13.1033241594
0.24  -0.44  15.1466603258
0.24  -0.42  17.508634926
0.24  -0.4  20.2389365298
0.24  -0.38  23.3950021569
0.24  -0.36  27.0432255724
0.24  -0.34  31.2603540045
0.24  -0.32  36.1351026663
0.24  -0.3  41.7700210469
0.24  -0.28  48.2836502326
0.24  -0.26  55.813016641
0.24  -0.24  64.516514629
0.24  -0.22  74.5772386151
0.24  -0.2  64.7024073356
0.24  -0.18  64.8383294584
0.24  -0.16  64.215025548
0.24  -0.14  62.8818930143
0.24  -0.12  60.9488253028
0.24  -0.1  58.5865103173
0.24  -0.08  56.0246332165
0.24  -0.06  53.543740533
0.24  -0.04  51.4536421761
0.24  -0.02  50.0508076524
0.24  6.17561557e-16  49.5557206347
0.24  0.02  50.0508076524
0.24  0.04  51.4536421761
0.24  0.06  53.543740533
0.24  0.08  56.0246332165
0.24  0.1  58.5865103173
0.24  0.12  60.9488253028
0.24  0.14  62.8818930143
0.24  0.16  64.215025548
0.24  0.18  64.8383294584
0.24  0.2  86.206834815
0.24  0.22  74.5772386151
0.24  0.24  64.516514629
0.24  0.26  55.813016641
0.24  0.28  48.2836502326
0.24  0.3  41.7700210469
0.24  0.32  36.1351026663
0.24  0.34  31.2603540045
0.24  0.36  27.0432255724
0.24  0.38  23.3950021569
0.24  0.4  20.2389365298
0.24  0.42  17.508634926
0.24  0.44  15.1466603258
0.24  0.46  13.1033241594
0.24  0.48  11.3356410148
0.24  0.5  9.80642435872
0.24  0.52  8.48350424802
0.24  0.54  7.33905057476
0.24  0.56  6.3489876075
0.24  0.58  5.49248751314
0.24  0.6  4.75153220435
0.24  0.62  4.11053429524
0.24  0.64  3.5560091915
0.24  0.66  3.07629141658
0.24  0.68  2.66128920655
0.24  0.7  2.30227221086
0.24  0.72  1.99168783304
0.24  0.74  1.72300234767
0.24  0.76  1.49056345118
0.24  0.78  1.28948135502
0.24  0.8  1.11552591984
0.24  0.82  0.965037666486
0.24  0.84  0.834850792058
0.24  0.86  0.722226571257
0.24  0.88  0.624795742176
0.24  0.9  0.540508664423
0.24  0.92  0.46759220109
0.24  0.94  0.404512417491
0.24  0.96  0.349942311962
0.24  0.98  0.30273389989
0.26  -1  0.236302845856
0.26  -0.98  0.273151980112
0.26  -0.96  0.315747379042
0.26  -0.94  0.364985116824
0.26  -0.92  0.421901001703
0.26  -0.9  0.487692366163
0.26  -0.88  0.563743255061
0.26  -0.86  0.651653541611
0.26  -0.84  0.753272583719
0.26  -0.82  0.870738128699
0.26  -0.8  1.0065212848
0.26  -0.78  1.16347850561
0.26  -0.76  1.34491168092
0.26  -0.74  1.55463759816
0.26  -0.72  1.7970682357
0.26  -0.7  2.07730357711
0.26  -0.68  2.40123889887
0.26  -0.66  2.77568878856
0.26  -0.64  3.20853050256
0.26  -0.62  3.70886967886
0.26  -0.6  4.2872318913
0.26  -0.58  4.95578407474
0.26  -0.56  5.72859047939
0.26  -0.54  6.62190853872
0.26  -0.52  7.65453087508
0.26  -0.5  8.84818063779
0.26  -0.48  10.2279684904
0.26  -0.46  11.8229208605
0.26  -0.44  13.6665905654
0.26  -0.42  15.7977626584
0.26  -0.4  18.261270345
0.26  -0.38  21.1089381342
0.26  -0.36  24.4006720636
0.26  -0.34  28.2057199357
0.26  -0.32  32.6041280757
0.26  -0.3  37.6884252555
0.26  -0.28  43.5655692108
0.26  -0.26  50.3591966975
0.26  -0.24  58.2122244231
0.26  -0.22  67.2898555677
0.26  -0.2  58.379952454
0.26  -0.18  58.5025928222
0.26  -0.16  57.9401956232
0.26  -0.14  56.7373313538
0.26  -0.12  54.9931551209
0.26  -0.1  52.8616759038
0.26  -0.08  50.5501349659
0.26  -0.06  48.3116649789
0.26  -0.04  46.4258024936
0.26  -0.02  45.1600472278
0.26  6.17561557e-16  44.7133380906
0.26  0.02  45.1600472278
0.26  0.04  46.4258024936
0.26  0.06  48.3116649789
0.26  0.08  50.5501349659
0.26  0.1  52.8616759038
0.26  0.12  54.9931551209
0.26  0.14  56.7373313538
0.26  0.16  57.9401956232
0.26  0.18  58.5025928222
0.26  0.2  77.7830551435
0.26  0.22  67.2898555677
0.26  0.24  58.2122244231
0.26  0.26  50.3591966975
0.26  0.28  43.5655692108
0.26  0.3  37.6884252555
0.26  0.32  32.6041280757
0.26  0.34  28.2057199357
0.26  0.36  24.4006720636
0.26  0.38  21.1089381342
0.26  0.4  18.261270345
0.26  0.42  15.7977626584
0.26  0.44  13.6665905654
0.26  0.46  11.8229208605
0.26  0.48  10.2279684904
0.26  0.5  8.84818063779
0.26  0.52  7.65453087508
0.26  0.54  6.62190853872
0.26  0.56  5.72859047939
0.26  0.58  4.95578407474
0.26  0.6  4.2872318913
0.26  0.62  3.70886967886
0.26  0.64  3.20853050256
0.26  0.66  2.77568878856
0.26  0.68  2.40123889887
0.26  0.7  2.07730357711
0.26  0.72  1.7970682357
0.26  0.74  1.55463759816
0.26  0.76  1.34491168092
0.26  0.78  1.16347850561
0.26  0.8  1.0065212848
0.26  0.82  0.870738128699
0.26  0.84  0.753272583719
0.26  0.86  0.651653541611
0.26  0.88  0.563743255061
0.26  0.9  0.487692366163
0.26  0.92  0.421901001703
0.26  0.94  0.364985116824
0.26  0.96  0.315747379042
0.26  0.98  0.273151980112
0.28  -1  0.206719184637
0.28  -0.98  0.23895503419
0.28  -0.96  0.276217751464
0.28  -0.94  0.319291227666
0.28  -0.92  0.36908159423
0.28  -0.9  0.426636284982
0.28  -0.88  0.493166070889
0.28  -0.86  0.570070530888
0.28  -0.84  0.658967494664
0.28  -0.82  0.76172707673
0.28  -0.8  0.880511017801
0.28  -0.78  1.01781816106
0.28  -0.76  1.17653702003
0.28  -0.74  1.36000654386
0.28  -0.72  1.5720863584
0.28  -0.7  1.81723796067
0.28  -0.68  2.10061857484
0.28  -0.66  2.42818964409
0.28  -0.64  2.80684224081
0.28  -0.62  3.24454203317
0.28  -0.6  3.750496858
0.28  -0.58  4.33535042481
0.28  -0.56  5.01140622631
0.28  -0.54  5.7928863654
0.28  -0.52  6.69623074382
0.28  -0.5  7.74044290638
0.28  -0.48  8.94748981614
0.28  -0.46  10.3427639708
0.28  -0.44  11.9556175814
0.28  -0.42  13.8199800514
0.28  -0.4  15.9750717453
0.28  -0.38  18.4662290623
0.28  -0.36  21.3458581732
0.28  -0.34  24.6745374821
0.28  -0.32  28.522292007
0.28  -0.3  32.9700664875
0.28  -0.28  38.1114282093
0.28  -0.26  44.0545353678
0.28  -0.24  50.9244123787
0.28  -0.22  58.8655800014
0.28  -0.2  51.071141893
0.28  -0.18  51.1784284423
0.28  -0.16  50.6864399095
0.28  -0.14  49.6341668397
0.28  -0.12  48.1083507311
0.28  -0.1  46.2437195869
0.28  -0.08  44.2215693407
0.28  -0.06  42.2633420122
0.28  -0.04  40.6135778976
0.28  -0.02  39.5062873969
0.28  6.17561557e-16  39.115503493
0.28  0.02  39.5062873969
0.28  0.04  40.6135778976
0.28  0.06  42.2633420122
0.28  0.08  44.2215693407
0.28  0.1  46.2437195869
0.28  0.12  48.1083507311
0.28  0.14  49.6341668397
0.28  0.16  50.6864399095
0.28  0.18  51.1784284423
0.28  0.2  68.0450956042
0.28  0.22  58.8655800014
0.28  0.24  50.9244123787
0.28  0.26  44.0545353678
0.28  0.28  38.1114282093
0.28  0.3  32.9700664875
0.28  0.32  28.522292007
0.28  0.34  24.6745374821
0.28  0.36  21.3458581732
0.28  0.38  18.4662290623
0.28  0.4  15.9750717452
0.28  0.42  13.8199800514
0.28  0.44  11.9556175814
0.28  0.46  10.3427639708
0.28  0.48  8.94748981614
0.28  0.5  7.74044290637
0.28  0.52  6.69623074382
0.28  0.54  5.7928863654
0.28  0.56  5.01140622631
0.28  0.58  4.33535042481
0.28  0.6  3.750496858
0.28  0.62  3.24454203317
0.28  0.64  2.80684224081
0.28  0.66  2.42818964409
0.28  0.68  2.10061857484
0.28  0.7  1.81723796067
0.28  0.72  1.5720863584
0.28  0.74  1.36000654386
0.28  0.76  1.17653702003
0.28  0.78  1.01781816106
0.28  0.8  0.880511017801
0.28  0.82  0.76172707673
0.28  0.84  0.658967494663
0.28  0.86  0.570070530888
0.28  0.88  0.493166070889
0.28  0.9  0.426636284982
0.28  0.92  0.36908159423
0.28  0.94  0.319291227666
0.28  0.96  0.276217751464
0.28  0.98  0.23895503419
0.3  -1  0.173642909374
0.3  -0.98  0.200720834978
0.3  -0.96  0.232021300148
0.3  -0.94  0.268202768925
0.3  -0.92  0.310026386429
0.3  -0.9  0.358371990965
0.3  -0.88  0.414256623081
0.3  -0.86  0.478855920923
0.3  -0.84  0.55352885199
0.3  -0.82  0.639846301565
0.3  -0.8  0.739624119239
0.3  -0.78  0.854961318714
0.3  -0.76  0.988284234496
0.3  -0.74  1.1423975644
0.3  -0.72  1.32054337162
0.3  -0.7  1.52646928765
0.3  -0.68  1.76450735069
0.3  -0.66  2.03966513825
0.3  -0.64  2.35773111095
0.3  -0.62  2.72539638359
0.3  -0.6  3.15039548538
0.3  -0.58  3.64166907026
0.3  -0.56  4.20955200032
0.3  -0.54  4.86599075905
0.3  -0.52  5.62479476803
0.3  -0.5  6.50192689405
0.3  -0.48  7.51583925797
0.3  -0.46  8.68786140972
0.3  -0.44  10.0426490354
0.3  -0.42  11.6087026361
0.3  -0.4  13.418967089
0.3  -0.38  15.5115247053
0.3  -0.36  17.9303963626
0.3  -0.34  20.726467567
0.3  -0.32  23.9585589253
0.3  -0.3  27.6946635466
0.3  -0.28  32.0133774051
0.3  -0.26  37.0055527542
0.3  -0.24  42.7762093738
0.3  -0.22  49.4467438588
0.3  -0.2  42.8994613099
0.3  -0.18  42.9895813856
0.3  -0.16  42.5763138877
0.3  -0.14  41.6924106466
0.3  -0.12  40.4107340149
0.3  -0.1  38.8444547295
0.3  -0.08  37.1458603172
0.3  -0.06  35.500960783
0.3  -0.04  34.1151685491
0.3  -0.02  33.185050987
0.3  6.17561557e-16  32.856794787
0.3  0.02  33.185050987
0.3  0.04  34.1151685491
0.3  0.06  35.500960783
0.3  0.08  37.1458603172
0.3  0.1  38.8444547295
0.3  0.12  40.4107340149
0.3  0.14  41.6924106466
0.3  0.16  42.5763138877
0.3  0.18  42.9895813856
0.3  0.2  57.1574834243
0.3  0.22  49.4467438588
0.3  0.24  42.7762093738
0.3  0.26  37.0055527542
0.3  0.28  32.0133774051
0.3  0.3  27.6946635466
0.3  0.32  23.9585589253
0.3  0.34  20.726467567
0.3  0.36  17.9303963626
0.3  0.38  15.5115247053
0.3  0.4  13.418967089
0.3  0.42  11.6087026361
0.3  0.44  10.0426490354
0.3  0.46  8.68786140972
0.3  0.48  7.51583925797
0.3  0.5  6.50192689405
0.3  0.52  5.62479476803
0.3  0.54  4.86599075905
0.3  0.56  4.20955200032
0.3  0.58  3.64166907026
0.3  0.6  3.15039548538
0.3  0.62  2.72539638358
0.3  0.64  2.35773111095
0.3  0.66  2.03966513825
0.3  0.68  1.76450735069
0.3  0.7  1.52646928765
0.3  0.72  1.32054337162
0.3  0.74  1.1423975644
0.3  0.76  0.988284234496
0.3  0.78  0.854961318714
0.3  0.8  0.739624119239
0.3  0.82  0.639846301565
0.3  0.84  0.55352885199
0.3  0.86  0.478855920923
0.3  0.88  0.414256623081
0.3  0.9  0.358371990965
0.3  0.92  0.310026386429
0.3  0.94  0.268202768925
0.3  0.96  0.232021300148
0.3  0.98  0.200720834978
0.32  -1  0.142238707954
0.32  -0.98  0.164419453289
0.32  -0.96  0.190059070479
0.32  -0.94  0.219696937003
0.32  -0.92  0.25395654102
0.32  -0.9  0.293558597616
0.32  -0.88  0.339336210393
0.32  -0.86  0.392252397371
0.32  -0.84  0.45342034988
0.32  -0.82  0.524126850627
0.32  -0.8  0.60585934359
0.32  -0.78  0.700337225189
0.32  -0.76  0.809548015022
0.32  -0.74  0.935789167066
0.32  -0.72  1.08171640094
0.32  -0.7  1.25039956995
0.32  -0.68  1.44538724122
0.32  -0.66  1.67078134645
0.32  -0.64  1.93132347375
0.32  -0.62  2.23249461589
0.32  -0.6  2.5806304732
0.32  -0.58  2.98305473698
0.32  -0.56  3.44823315706
0.32  -0.54  3.98595163476
0.32  -0.52  4.6075220877
0.32  -0.5  5.32602041717
0.32  -0.48  6.15656158435
0.32  -0.46  7.11661758179
0.32  -0.44  8.22638498968
0.32  -0.42  9.50920984872
0.32  -0.4  10.992078788
0.32  -0.38  12.7061867394
0.32  -0.36  14.6875931814
0.32  -0.34  16.9779807181
0.32  -0.32  19.625531951
0.32  -0.3  22.6859430903
0.32  -0.28  26.2235956295
0.32  -0.26  30.3129107308
0.32  -0.24  35.0399148139
0.32  -0.22  40.5040492835
0.32  -0.2  35.1408760119
0.32  -0.18  35.2146974145
0.32  -0.16  34.876171441
0.32  -0.14  34.152126587
0.32  -0.12  33.1022476788
0.32  -0.1  31.8192379513
0.32  -0.08  30.4278429589
0.32  -0.06  29.0804318536
0.32  -0.04  27.9452671783
0.32  -0.02  27.1833660977
0.32  6.17561557e-16  26.9144766974
0.32  0.02  27.1833660977
0.32  0.04  27.9452671783
0.32  0.06  29.0804318536
0.32  0.08  30.4278429589
0.32  0.1  31.8192379513
0.32  0.12  33.1022476788
0.32  0.14  34.152126587
0.32  0.16  34.876171441
0.32  0.18  35.2146974145
0.32  0.2  46.8202624656
0.32  0.22  40.5040492835
0.32  0.24  35.0399148139
0.32  0.26  30.3129107308
0.32  0.28  26.2235956295
0.32  0.3  22.6859430903
0.32  0.32  19.625531951
0.32  0.34  16.9779807181
0.32  0.36  14.6875931814
0.32  0.38  12.7061867394
0.32  0.4  10.992078788
0.32  0.42  9.50920984872
0.32  0.44  8.22638498968
0.32  0.46  7.11661758179
0.32  0.48  6.15656158435
0.32  0.5  5.32602041717
0.32  0.52  4.6075220877
0.32  0.54  3.98595163476
0.32  0.56  3.44823315706
0.32  0.58  2.98305473698
0.32  0.6  2.5806304732
0.32  0.62  2.23249461589
0.32  0.64  1.93132347375
0.32  0.66  1.67078134644
0.32  0.68  1.44538724122
0.32  0.7  1.25039956995
0.32  0.72  1.08171640094
0.32  0.74  0.935789167066
0.32  0.76  0.809548015022
0.32  0.78  0.700337225189
0.32  0.8  0.60585934359
0.32  0.82  0.524126850627
0.32  0.84  0.453420349879
0.32  0.86  0.392252397371
0.32  0.88  0.339336210393
0.32  0.9  0.293558597616
0.32  0.92  0.25395654102
0.32  0.94  0.219696937003
0.32  0.96  0.190059070479
0.32  0.98  0.164419453289
0.34  -1  0.116514115742
0.34  -0.98  0.134683360713
0.34  -0.96  0.155685923009
0.34  -0.94  0.179963630956
0.34  -0.92  0.208027211716
0.34  -0.9  0.240467035391
0.34  -0.88  0.27796553457
0.34  -0.86  0.321311560576
0.34  -0.84  0.371416978439
0.34  -0.82  0.429335849682
0.34  -0.8  0.49628660649
0.34  -0.78  0.573677683715
0.34  -0.76  0.663137147948
0.34  -0.74  0.766546946956
0.34  -0.72  0.886082499986
0.34  -0.7  1.02425846179
0.34  -0.68  1.18398162312
0.34  -0.66  1.36861206052
0.34  -0.64  1.58203382182
0.34  -0.62  1.82873663442
0.34  -0.6  2.1139103551
0.34  -0.58  2.44355414842
0.34  -0.56  2.82460269039
0.34  -0.54  3.26507205242
0.34  -0.52  3.77422833439
0.34  -0.5  4.36278259451
0.34  -0.48  5.0431161765
0.34  -0.46  5.8295411744
0.34  -0.44  6.73860151436
0.34  -0.42  7.78942098716
0.34  -0.4  9.00410555303
0.34  -0.38  10.4082083821
0.34  -0.36  12.0312674132
0.34  -0.34  13.9074267399
0.34  -0.32  16.0761548956
0.34  -0.3  18.5830751485
0.34  -0.28  21.4809252719
0.34  -0.26  24.8306669833
0.34  -0.24  28.7027683879
0.34  -0.22  33.1786864075
0.34  -0.2  28.7854702408
0.34  -0.18  28.8459406681
0.34  -0.16  28.568638835
0.34  -0.14  27.9755411674
0.34  -0.12  27.115538188
0.34  -0.1  26.0645672812
0.34  -0.08  24.9248131347
0.34  -0.06  23.821088166
0.34  -0.04  22.8912237834
0.34  -0.02  22.26711638
0.34  6.17561557e-16  22.0468569924
0.34  0.02  22.26711638
0.34  0.04  22.8912237834
0.34  0.06  23.821088166
0.34  0.08  24.9248131347
0.34  0.1  26.0645672812
0.34  0.12  27.115538188
0.34  0.14  27.9755411674
0.34  0.16  28.568638835
0.34  0.18  28.8459406681
0.34  0.2  38.35258038
0.34  0.22  33.1786864075
0.34  0.24  28.7027683879
0.34  0.26  24.8306669833
0.34  0.28  21.4809252719
0.34  0.3  18.5830751485
0.34  0.32  16.0761548956
0.34  0.34  13.9074267399
0.34  0.36  12.0312674132
0.34  0.38  10.4082083821
0.34  0.4  9.00410555303
0.34  0.42  7.78942098716
0.34  0.44  6.73860151436
0.34  0.46  5.8295411744
0.34  0.48  5.0431161765
0.34  0.5  4.36278259451
0.34  0.52  3.77422833439
0.34  0.54  3.26507205242
0.34  0.56  2.82460269039
0.34  0.58  2.44355414842
0.34  0.6  2.1139103551
0.34  0.62  1.82873663442
0.34  0.64  1.58203382182
0.34  0.66  1.36861206052
0.34  0.68  1.18398162312
0.34  0.7  1.02425846179
0.34  0.72  0.886082499986
0.34  0.74  0.766546946956
0.34  0.76  0.663137147948
0.34  0.78  0.573677683715
0.34  0.8  0.49628660649
0.34  0.82  0.429335849682
0.34  0.84  0.371416978439
0.34  0.86  0.321311560576
0.34  0.88  0.27796553457
0.34  0.9  0.240467035391
0.34  0.92  0.208027211716
0.34  0.94  0.179963630956
0.34  0.96  0.155685923009
0.34  0.98  0.134683360713
0.36  -1  0.0954419465861
0.36  -0.98  0.110325191393
0.36  -0.96  0.127529333708
0.36  -0.94  0.14741629496
0.36  -0.92  0.170404434713
0.36  -0.9  0.19697735164
0.36  -0.88  0.227694056933
0.36  -0.86  0.26320073415
0.36  -0.84  0.304244332901
0.36  -0.82  0.351688282334
0.36  -0.8  0.40653065499
0.36  -0.78  0.469925163129
0.36  -0.76  0.543205429238
0.36  -0.74  0.627913041277
0.36  -0.72  0.725829982884
0.36  -0.7  0.839016120739
0.36  -0.68  0.969852537728
0.36  -0.66  1.1210916235
0.36  -0.64  1.29591497612
0.36  -0.62  1.49800033301
0.36  -0.6  1.73159893902
0.36  -0.58  2.00162497934
0.36  -0.56  2.31375895862
0.36  -0.54  2.67456720109
0.36  -0.52  3.09163998543
0.36  -0.5  3.57375122063
0.36  -0.48  4.13104302154
0.36  -0.46  4.77523906736
0.36  -0.44  5.51989123125
0.36  -0.42  6.38066466935
0.36  -0.4  7.37566736681
0.36  -0.38  8.52583107323
0.36  -0.36  9.85535164132
0.36  -0.34  11.392198032
0.36  -0.32  13.1687006943
0.36  -0.3  15.2222316964
0.36  -0.28  17.5959909181
0.36  -0.26  20.3399148407
0.36  -0.24  23.5117270548
0.36  -0.22  27.1781525847
0.36  -0.2  23.5794718579
0.36  -0.18  23.6290059015
0.36  -0.16  23.4018555123
0.36  -0.14  22.9160225679
0.36  -0.12  22.211555492
0.36  -0.1  21.3506580074
0.36  -0.08  20.4170341828
0.36  -0.06  19.5129234762
0.36  -0.04  18.7512297863
0.36  -0.02  18.2399953743
0.36  6.17561557e-16  18.0595710148
0.36  0.02  18.2399953743
0.36  0.04  18.7512297863
0.36  0.06  19.5129234762
0.36  0.08  20.4170341828
0.36  0.1  21.3506580074
0.36  0.12  22.211555492
0.36  0.14  22.9160225679
0.36  0.16  23.4018555123
0.36  0.18  23.6290059015
0.36  0.2  31.4163215742
0.36  0.22  27.1781525847
0.36  0.24  23.5117270548
0.36  0.26  20.3399148407
0.36  0.28  17.5959909181
0.36  0.3  15.2222316964
0.36  0.32  13.1687006943
0.36  0.34  11.392198032
0.36  0.36  9.85535164132
0.36  0.38  8.52583107323
0.36  0.4  7.37566736681
0.36  0.42  6.38066466935
0.36  0.44  5.51989123125
0.36  0.46  4.77523906736
0.36  0.48  4.13104302153
0.36  0.5  3.57375122063
0.36  0.52  3.09163998543
0.36  0.54  2.67456720109
0.36  0.56  2.31375895862
0.36  0.58  2.00162497934
0.36  0.6  1.73159893902
0.36  0.62  1.49800033301
0.36  0.64  1.29591497612
0.36  0.66  1.1210916235
0.36  0.68  0.969852537728
0.36  0.7  0.839016120739
0.36  0.72  0.725829982884
0.36  0.74  0.627913041277
0.36  0.76  0.543205429238
0.36  0.78  0.469925163129
0.36  0.8  0.40653065499
0.36  0.82  0.351688282334
0.36  0.84  0.304244332901
0.36  0.86  0.26320073415
0.36  0.88  0.227694056933
0.36  0.9  0.19697735164
0.36  0.92  0.170404434713
0.36  0.94  0.14741629496
0.36  0.96  0.127529333708
0.36  0.98  0.110325191393
0.38  -1  0.0781807861662
0.38  -0.98  0.0903723206154
0.38  -0.96  0.104465006479
0.38  -0.94  0.12075530986
0.38  -0.92  0.139585927871
0.38  -0.9  0.161352997911
0.38  -0.88  0.186514431161
0.38  -0.86  0.215599545602
0.38  -0.84  0.249220201218
0.38  -0.82  0.288083671612
0.38  -0.8  0.333007522841
0.38  -0.78  0.384936812448
0.38  -0.76  0.444963970525
0.38  -0.74  0.514351781025
0.38  -0.72  0.594559946802
0.38  -0.7  0.687275797192
0.38  -0.68  0.794449784157
0.38  -0.66  0.918336513706
0.38  -0.64  1.06154217576
0.38  -0.62  1.22707937025
0.38  -0.6  1.41843048282
0.38  -0.58  1.63962094333
0.38  -0.56  1.89530390834
0.38  -0.54  2.19085814901
0.38  -0.52  2.53250120361
0.38  -0.5  2.92742017514
0.38  -0.48  3.38392292553
0.38  -0.46  3.9116128471
0.38  -0.44  4.52159088794
0.38  -0.42  5.22668908123
0.38  -0.4  6.04174049109
0.38  -0.38  6.98389125398
0.38  -0.36  8.07296127985
0.38  -0.34  9.33186120112
0.38  -0.32  10.7870743409
0.38  -0.3  12.4692138394
0.38  -0.28  14.4136666587
0.38  -0.26  16.6613380141
0.38  -0.24  19.259511892
0.38  -0.22  22.2628457573
0.38  -0.2  19.3150047037
0.38  -0.18  19.3555802641
0.38  -0.16  19.1695111755
0.38  -0.14  18.7715435848
0.38  -0.12  18.1944829548
0.38  -0.1  17.4892831495
0.38  -0.08  16.7245099318
0.38  -0.06  15.983912235
0.38  -0.04  15.3599747146
0.38  -0.02  14.9411996406
0.38  6.17561557e-16  14.7934059422
0.38  0.02  14.9411996406
0.38  0.04  15.3599747146
0.38  0.06  15.983912235
0.38  0.08  16.7245099318
0.38  0.1  17.4892831495
0.38  0.12  18.1944829548
0.38  0.14  18.7715435848
0.38  0.16  19.1695111755
0.38  0.18  19.3555802641
0.38  0.2  25.7345203757
0.38  0.22  22.2628457573
0.38  0.24  19.259511892
0.38  0.26  16.6613380141
0.38  0.28  14.4136666587
0.38  0.3  12.4692138394
0.38  0.32  10.7870743409
0.38  0.34  9.33186120112
0.38  0.36  8.07296127985
0.38  0.38  6.98389125398
0.38  0.4  6.04174049109
0.38  0.42  5.22668908123
0.38  0.44  4.52159088794
0.38  0.46  3.9116128471
0.38  0.48  3.38392292553
0.38  0.5  2.92742017514
0.38  0.52  2.53250120361
0.38  0.54  2.19085814901
0.38  0.56  1.89530390834
0.38  0.58  1.63962094333
0.38  0.6  1.41843048282
0.38  0.62  1.22707937025
0.38  0.64  1.06154217576
0.38  0.66  0.918336513706
0.38  0.68  0.794449784157
0.38  0.7  0.687275797192
0.38  0.72  0.594559946802
0.38  0.74  0.514351781025
0.38  0.76  0.444963970525
0.38  0.78  0.384936812448
0.38  0.8  0.333007522841
0.38  0.82  0.288083671612
0.38  0.84  0.249220201218
0.38  0.86  0.215599545602
0.38  0.88  0.186514431161
0.38  0.9  0.161352997911
0.38  0.92  0.139585927871
0.38  0.94  0.12075530986
0.38  0.96  0.104465006479
0.38  0.98  0.0903723206154
0.4  -1  0.0640413942108
0.4  -0.98  0.0740280277813
0.4  -0.96  0.0855719798846
0.4  -0.94  0.0989160992239
0.4  -0.92  0.1143411044
0.4  -0.9  0.132171489353
0.4  -0.88  0.152782349701
0.4  -0.86  0.176607273586
0.4  -0.84  0.204147463004
0.4  -0.82  0.23598227754
0.4  -0.8  0.272781422281
0.4  -0.78  0.315319036315
0.4  -0.76  0.364489978208
0.4  -0.74  0.421328651027
0.4  -0.72  0.487030762957
0.4  -0.7  0.562978481259
0.4  -0.68  0.650769508761
0.4  -0.66  0.75225069453
0.4  -0.64  0.869556885815
0.4  -0.62  1.00515583856
0.4  -0.6  1.16190013129
0.4  -0.58  1.34308717444
0.4  -0.56  1.55252857761
0.4  -0.54  1.79463033388
0.4  -0.52  2.07448550818
0.4  -0.5  2.39798137945
0.4  -0.48  2.77192329062
0.4  -0.46  3.20417781178
0.4  -0.44  3.70383822822
0.4  -0.42  4.28141583479
0.4  -0.4  4.94906106069
0.4  -0.38  5.72081907658
0.4  -0.36  6.6129252611
0.4  -0.34  7.64414674254
0.4  -0.32  8.83617720061
0.4  -0.3  10.2140932337
0.4  -0.28  11.8068818923
0.4  -0.26  13.6480504759
0.4  -0.24  15.7763314219
0.4  -0.22  18.2364971153
0.4  -0.2  15.8217880769
0.4  -0.18  15.8550253414
0.4  -0.16  15.7026077918
0.4  -0.14  15.3766146596
0.4  -0.12  14.9039183732
0.4  -0.1  14.3262575317
0.4  -0.08  13.6997974317
0.4  -0.06  13.093140587
0.4  -0.04  12.5820453337
0.4  -0.02  12.2390078571
0.4  6.17561557e-16  12.1179433991
0.4  0.02  12.2390078571
0.4  0.04  12.5820453337
0.4  0.06  13.093140587
0.4  0.08  13.6997974317
0.4  0.1  14.3262575317
0.4  0.12  14.9039183732
0.4  0.14  15.3766146596
0.4  0.16  15.7026077918
0.4  0.18  15.8550253414
0.4  0.2  21.0803017599
0.4  0.22  18.2364971153
0.4  0.24  15.7763314219
0.4  0.26  13.6480504759
0.4  0.28  11.8068818923
0.4  0.3  10.2140932337
0.4  0.32  8.83617720061
0.4  0.34  7.64414674254
0.4  0.36  6.6129252611
0.4  0.38  5.72081907658
0.4  0.4  4.94906106069
0.4  0.42  4.28141583479
0.4  0.44  3.70383822822
0.4  0.46  3.20417781178
0.4  0.48  2.77192329062
0.4  0.5  2.39798137945
0.4  0.52  2.07448550818
0.4  0.54  1.79463033388
0.4  0.56  1.55252857761
0.4  0.58  1.34308717444
0.4  0.6  1.16190013129
0.4  0.62  1.00515583856
0.4  0.64  0.869556885815
0.4  0.66  0.75225069453
0.4  0.68  0.650769508761
0.4  0.7  0.562978481259
0.4  0.72  0.487030762957
0.4  0.74  0.421328651027
0.4  0.76  0.364489978208
0.4  0.78  0.315319036315
0.4  0.8  0.272781422281
0.4  0.82  0.23598227754
0.4  0.84  0.204147463004
0.4  0.86  0.176607273586
0.4  0.88  0.152782349701
0.4  0.9  0.132171489352
0.4  0.92  0.1143411044
0.4  0.94  0.0989160992239
0.4  0.96  0.0855719798846
0.4  0.98  0.0740280277813
0.42  -1  0.0524591830497
0.42  -0.98  0.0606396832556
0.42  -0.96  0.070095853034
0.42  -0.94  0.0810266206678
0.42  -0.92  0.0936619353737
0.42  -0.9  0.108267604716
0.42  -0.88  0.125150886368
0.42  -0.86  0.144666951854
0.42  -0.84  0.167226358246
0.42  -0.82  0.193303685008
0.42  -0.8  0.223447517661
0.42  -0.78  0.258291988314
0.42  -0.76  0.298570115817
0.42  -0.74  0.345129226194
0.42  -0.72  0.398948777734
0.42  -0.7  0.461160965737
0.42  -0.68  0.533074540365
0.42  -0.66  0.616202338658
0.42  -0.64  0.712293109905
0.42  -0.62  0.823368303865
0.42  -0.6  0.951764595757
0.42  -0.58  1.10018304261
0.42  -0.56  1.27174590508
0.42  -0.54  1.47006233003
0.42  -0.52  1.69930427575
0.42  -0.5  1.96429427692
0.42  -0.48  2.27060689565
0.42  -0.46  2.62468599291
0.42  -0.44  3.0339802872
0.42  -0.42  3.50710005235
0.42  -0.4  4.05399825076
0.42  -0.38  4.68617991271
0.42  -0.36  5.41694416621
0.42  -0.34  6.26166400915
0.42  -0.32  7.23810970918
0.42  -0.3  8.36682263462
0.42  -0.28  9.67154738071
0.42  -0.26  11.1797312818
0.42  -0.24  12.9231018174
0.42  -0.22  14.9383340595
0.42  -0.2  12.9603374057
0.42  -0.18  12.9875635421
0.42  -0.16  12.8627114799
0.42  -0.14  12.5956758602
0.42  -0.12  12.2084690962
0.42  -0.1  11.7352811495
0.42  -0.08  11.222119538
0.42  -0.06  10.7251796625
0.42  -0.04  10.3065185797
0.42  -0.02  10.0255211717
0.42  6.17561557e-16  9.92635183533
0.42  0.02  10.0255211717
0.42  0.04  10.3065185797
0.42  0.06  10.7251796625
0.42  0.08  11.222119538
0.42  0.1  11.7352811495
0.42  0.12  12.2084690962
0.42  0.14  12.5956758602
0.42  0.16  12.8627114799
0.42  0.18  12.9875635421
0.42  0.2  17.2678222015
0.42  0.22  14.9383340595
0.42  0.24  12.9231018174
0.42  0.26  11.1797312818
0.42  0.28  9.67154738071
0.42  0.3  8.36682263462
0.42  0.32  7.23810970918
0.42  0.34  6.26166400915
0.42  0.36  5.41694416621
0.42  0.38  4.68617991271
0.42  0.4  4.05399825076
0.42  0.42  3.50710005235
0.42  0.44  3.0339802872
0.42  0.46  2.62468599291
0.42  0.48  2.27060689565
0.42  0.5  1.96429427692
0.42  0.52  1.69930427575
0.42  0.54  1.47006233003
0.42  0.56  1.27174590508
0.42  0.58  1.10018304261
0.42  0.6  0.951764595757
0.42  0.62  0.823368303865
0.42  0.64  0.712293109905
0.42  0.66  0.616202338658
0.42  0.68  0.533074540365
0.42  0.7  0.461160965737
0.42  0.72  0.398948777734
0.42  0.74  0.345129226194
0.42  0.76  0.298570115817
0.42  0.78  0.258291988314
0.42  0.8  0.223447517661
0.42  0.82  0.193303685008
0.42  0.84  0.167226358246
0.42  0.86  0.144666951854
0.42  0.88  0.125150886368
0.42  0.9  0.108267604716
0.42  0.92  0.0936619353737
0.42  0.94  0.0810266206677
0.42  0.96  0.070095853034
0.42  0.98  0.0606396832556
0.44  -1  0.0429716735583
0.44  -0.98  0.0496726887848
0.44  -0.96  0.0574186622676
0.44  -0.94  0.0663725450998
0.44  -0.92  0.0767226990154
0.44  -0.9  0.0886868589318
0.44  -0.88  0.102516713412
0.44  -0.86  0.118503199408
0.44  -0.84  0.136982622662
0.44  -0.82  0.158343732534
0.44  -0.8  0.183035900068
0.44  -0.78  0.211578571363
0.44  -0.76  0.244572195091
0.44  -0.74  0.282710854063
0.44  -0.72  0.326796866566
0.44  -0.7  0.377757664634
0.44  -0.68  0.43666530432
0.44  -0.66  0.504759018408
0.44  -0.64  0.583471286003
0.44  -0.62  0.674457967414
0.44  -0.6  0.77963313829
0.44  -0.58  0.901209355789
0.44  -0.56  1.04174420387
0.44  -0.54  1.20419409689
0.44  -0.52  1.3919764733
0.44  -0.5  1.6090416879
0.44  -0.48  1.85995611496
0.44  -0.46  2.14999821049
0.44  -0.44  2.48526955443
0.44  -0.42  2.87282320891
0.44  -0.4  3.32081209256
0.44  -0.38  3.83866049255
0.44  -0.36  4.43726232208
0.44  -0.34  5.12921029437
0.44  -0.32  5.92906083397
0.44  -0.3  6.85364029848
0.44  -0.28  7.9223989526
0.44  -0.26  9.15782014094
0.44  -0.24  10.5858932674
0.44  -0.22  12.236660531
0.44  -0.2  10.6163946105
0.44  -0.18  10.638696762
0.44  -0.16  10.5364248289
0.44  -0.14  10.3176839562
0.44  -0.12  10.0005055006
0.44  -0.1  9.6128959956
0.44  -0.08  9.19254226588
0.44  -0.06  8.7854764889
0.44  -0.04  8.44253238766
0.44  -0.02  8.21235478701
0.44  6.17561557e-16  8.13112072844
0.44  0.02  8.21235478701
0.44  0.04  8.44253238766
0.44  0.06  8.7854764889
0.44  0.08  9.19254226588
0.44  0.1  9.6128959956
0.44  0.12  10.0005055006
0.44  0.14  10.3176839562
0.44  0.16  10.5364248289
0.44  0.18  10.638696762
0.44  0.2  14.14484892
0.44  0.22  12.236660531
0.44  0.24  10.5858932674
0.44  0.26  9.15782014094
0.44  0.28  7.9223989526
0.44  0.3  6.85364029848
0.44  0.32  5.92906083397
0.44  0.34  5.12921029437
0.44  0.36  4.43726232208
0.44  0.38  3.83866049255
0.44  0.4  3.32081209256
0.44  0.42  2.87282320891
0.44  0.44  2.48526955443
0.44  0.46  2.14999821049
0.44  0.48  1.85995611496
0.44  0.5  1.6090416879
0.44  0.52  1.3919764733
0.44  0.54  1.20419409689
0.44  0.56  1.04174420387
0.44  0.58  0.901209355789
0.44  0.6  0.77963313829
0.44  0.62  0.674457967414
0.44  0.64  0.583471286003
0.44  0.66  0.504759018408
0.44  0.68  0.43666530432
0.44  0.7  0.377757664634
0.44  0.72  0.326796866566
0.44  0.74  0.282710854063
0.44  0.76  0.244572195091
0.44  0.78  0.211578571363
0.44  0.8  0.183035900068
0.44  0.82  0.158343732534
0.44  0.84  0.136982622662
0.44  0.86  0.118503199408
0.44  0.88  0.102516713412
0.44  0.9  0.0886868589318
0.44  0.92  0.0767226990154
0.44  0.94  0.0663725450998
0.44  0.96  0.0574186622676
0.44  0.98  0.0496726887848
0.46  -1  0.0352000283087
0.46  -0.98  0.040689130923
0.46  -0.96  0.0470342057896
0.46  -0.94  0.0543687334695
0.46  -0.92  0.0628470095212
0.46  -0.9  0.0726473903971
0.46  -0.88  0.0839760455066
0.46  -0.86  0.0970712943766
0.46  -0.84  0.11220862015
0.46  -0.82  0.129706464891
0.46  -0.8  0.149932928611
0.46  -0.78  0.173313512945
0.46  -0.76  0.200340072374
0.46  -0.74  0.231581161313
0.46  -0.72  0.267693994713
0.46  -0.7  0.309438273818
0.46  -0.68  0.357692167903
0.46  -0.66  0.413470788214
0.46  -0.64  0.477947542739
0.46  -0.62  0.552478821049
0.46  -0.6  0.638632528495
0.46  -0.58  0.738221070045
0.46  -0.56  0.853339477622
0.46  -0.54  0.986409483034
0.46  -0.52  1.14023046365
0.46  -0.5  1.31803833256
0.46  -0.48  1.52357361206
0.46  -0.46  1.76116012261
0.46  -0.44  2.03579594246
0.46  -0.42  2.35325855164
0.46  -0.4  2.72022637209
0.46  -0.38  3.14441926079
0.46  -0.36  3.63476091147
0.46  -0.34  4.20156658125
0.46  -0.32  4.85676009142
0.46  -0.3  5.61412466742
0.46  -0.28  6.48959289486
0.46  -0.26  7.50158189137
0.46  -0.24  8.67138074524
0.46  -0.22  10.0235983714
0.46  -0.2  8.69636576569
0.46  -0.18  8.71463445991
0.46  -0.16  8.63085892494
0.46  -0.14  8.45167844922
0.46  -0.12  8.19186332701
0.46  -0.1  7.87435496815
0.46  -0.08  7.53002434379
0.46  -0.06  7.19657847849
0.46  -0.04  6.91565755845
0.46  -0.02  6.72710874506
0.46  6.17561557e-16  6.66056627825
0.46  0.02  6.72710874506
0.46  0.04  6.91565755845
0.46  0.06  7.19657847849
0.46  0.08  7.53002434379
0.46  0.1  7.87435496815
0.46  0.12  8.19186332701
0.46  0.14  8.45167844922
0.46  0.16  8.63085892494
0.46  0.18  8.71463445991
0.46  0.2  11.5866812059
0.46  0.22  10.0235983714
0.46  0.24  8.67138074524
0.46  0.26  7.50158189137
0.46  0.28  6.48959289486
0.46  0.3  5.61412466742
0.46  0.32  4.85676009142
0.46  0.34  4.20156658125
0.46  0.36  3.63476091147
0.46  0.38  3.14441926079
0.46  0.4  2.72022637209
0.46  0.42  2.35325855164
0.46  0.44  2.03579594246
0.46  0.46  1.76116012261
0.46  0.48  1.52357361206
0.46  0.5  1.31803833256
0.46  0.52  1.14023046365
0.46  0.54  0.986409483034
0.46  0.56  0.853339477621
0.46  0.58  0.738221070045
0.46  0.6  0.638632528495
0.46  0.62  0.552478821049
0.46  0.64  0.477947542739
0.46  0.66  0.413470788214
0.46  0.68  0.357692167903
0.46  0.7  0.309438273818
0.46  0.72  0.267693994713
0.46  0.74  0.231581161313
0.46  0.76  0.200340072374
0.46  0.78  0.173313512945
0.46  0.8  0.149932928611
0.46  0.82  0.129706464891
0.46  0.84  0.11220862015
0.46  0.86  0.0970712943766
0.46  0.88  0.0839760455066
0.46  0.9  0.0726473903971
0.46  0.92  0.0628470095212
0.46  0.94  0.0543687334695
0.46  0.96  0.0470342057896
0.46  0.98  0.040689130923
0.48  -1  0.0288339245445
0.48  -0.98  0.0333302950932
0.48  -0.96  0.0385278309681
0.48  -0.94  0.0445358720935
0.48  -0.92  0.0514808088929
0.48  -0.9  0.0595087411492
0.48  -0.88  0.0687885514878
0.48  -0.86  0.0795154581397
0.48  -0.84  0.0919151217231
0.48  -0.82  0.106248392439
0.48  -0.8  0.122816797543
0.48  -0.78  0.141968884541
0.48  -0.76  0.164107553534
0.48  -0.74  0.189698532986
0.48  -0.72  0.219280177189
0.48  -0.7  0.25347479156
0.48  -0.68  0.293001724005
0.48  -0.66  0.33869249775
0.48  -0.64  0.391508303992
0.48  -0.62  0.452560222363
0.48  -0.6  0.523132594577
0.48  -0.58  0.604710042963
0.48  -0.56  0.699008702289
0.48  -0.54  0.808012321876
0.48  -0.52  0.934013997487
0.48  -0.5  1.0796644109
0.48  -0.48  1.24802759199
0.48  -0.46  1.44264537633
0.48  -0.44  1.66761191435
0.48  -0.42  1.9276597995
0.48  -0.4  2.22825962721
0.48  -0.38  2.57573507916
0.48  -0.36  2.97739595377
0.48  -0.34  3.44169194156
0.48  -0.32  3.97839038022
0.48  -0.3  4.59878172893
0.48  -0.28  5.31591708433
0.48  -0.26  6.14488273485
0.48  -0.24  7.10311752912
0.48  -0.22  8.21077973488
0.48  -0.2  7.12358388182
0.48  -0.18  7.13854858998
0.48  -0.16  7.06992428568
0.48  -0.14  6.92314950835
0.48  -0.12  6.71032326959
0.48  -0.1  6.45023790883
0.48  -0.08  6.16818122541
0.48  -0.06  5.89504073712
0.48  -0.04  5.66492579118
0.48  -0.02  5.5104769876
0.48  6.17561557e-16  5.45596906362
0.48  0.02  5.5104769876
0.48  0.04  5.66492579118
0.48  0.06  5.89504073712
0.48  0.08  6.16818122541
0.48  0.1  6.45023790883
0.48  0.12  6.71032326959
0.48  0.14  6.92314950835
0.48  0.16  7.06992428568
0.48  0.18  7.13854858998
0.48  0.2  9.49117110598
0.48  0.22  8.21077973488
0.48  0.24  7.10311752912
0.48  0.26  6.14488273485
0.48  0.28  5.31591708433
0.48  0.3  4.59878172893
0.48  0.32  3.97839038022
0.48  0.34  3.44169194156
0.48  0.36  2.97739595377
0.48  0.38  2.57573507916
0.48  0.4  2.22825962721
0.48  0.42  1.9276597995
0.48  0.44  1.66761191435
0.48  0.46  1.44264537633
0.48  0.48  1.24802759199
0.48  0.5  1.0796644109
0.48  0.52  0.934013997487
0.48  0.54  0.808012321876
0.48  0.56  0.699008702289
0.48  0.58  0.604710042963
0.48  0.6  0.523132594577
0.48  0.62  0.452560222363
0.48  0.64  0.391508303992
0.48  0.66  0.33869249775
0.48  0.68  0.293001724005
0.48  0.7  0.25347479156
0.48  0.72  0.219280177189
0.48  0.74  0.189698532986
0.48  0.76  0.164107553534
0.48  0.78  0.141968884541
0.48  0.8  0.122816797543
0.48  0.82  0.106248392439
0.48  0.84  0.0919151217231
0.48  0.86  0.0795154581397
0.48  0.88  0.0687885514878
0.48  0.9  0.0595087411492
0.48  0.92  0.0514808088929
0.48  0.94  0.0445358720935
0.48  0.96  0.0385278309681
0.48  0.98  0.0333302950932
0.5  -1  0.0236191629549
0.5  -0.98  0.0273023420702
0.5  -0.96  0.031559877204
0.5  -0.94  0.0364813336003
0.5  -0.92  0.0421702433331
0.5  -0.9  0.0487462832981
0.5  -0.88  0.0563477928408
0.5  -0.86  0.0651346839842
0.5  -0.84  0.0752918054788
0.5  -0.82  0.0870328314424
0.5  -0.8  0.100604756397
0.5  -0.78  0.116293091262
0.5  -0.76  0.134427869611
0.5  -0.74  0.155390590552
0.5  -0.72  0.17962224427
0.5  -0.7  0.20763258909
0.5  -0.68  0.240010875199
0.5  -0.66  0.277438240625
0.5  -0.64  0.320702040261
0.5  -0.62  0.370712409349
0.5  -0.6  0.428521409884
0.5  -0.58  0.495345162714
0.5  -0.56  0.572589430924
0.5  -0.54  0.661879192701
0.5  -0.52  0.765092825804
0.5  -0.5  0.88440162276
0.5  -0.48  1.02231546809
0.5  -0.46  1.18173563842
0.5  -0.44  1.3660158363
0.5  -0.42  1.57903274164
0.5  -0.4  1.82526756493
0.5  -0.38  2.10990031791
0.5  -0.36  2.43891878487
0.5  -0.34  2.81924448691
0.5  -0.32  3.25887828913
0.5  -0.3  3.76706871386
0.5  -0.28  4.35450650069
0.5  -0.26  5.03354950621
0.5  -0.24  5.81848267477
0.5  -0.22  6.7258185491
0.5  -0.2  5.83524758372
0.5  -0.18  5.84750584845
0.5  -0.16  5.79129259787
0.5  -0.14  5.67106278392
0.5  -0.12  5.49672725056
0.5  -0.1  5.28367964725
0.5  -0.08  5.0526343465
0.5  -0.06  4.82889270175
0.5  -0.04  4.64039521164
0.5  -0.02  4.51387925803
0.5  6.17561557e-16  4.46922936874
0.5  0.02  4.51387925803
0.5  0.04  4.64039521164
0.5  0.06  4.82889270175
0.5  0.08  5.0526343465
0.5  0.1  5.28367964725
0.5  0.12  5.49672725056
0.5  0.14  5.67106278392
0.5  0.16  5.79129259787
0.5  0.18  5.84750584845
0.5  0.2  7.77464464258
0.5  0.22  6.7258185491
0.5  0.24  5.81848267477
0.5  0.26  5.03354950621
0.5  0.28  4.35450650069
0.5  0.3  3.76706871386
0.5  0.32  3.25887828913
0.5  0.34  2.81924448691
0.5  0.36  2.43891878487
0.5  0.38  2.10990031791
0.5  0.4  1.82526756493
0.5  0.42  1.57903274164
0.5  0.44  1.3660158363
0.5  0.46  1.18173563842
0.5  0.48  1.02231546809
0.5  0.5  0.88440162276
0.5  0.52  0.765092825804
0.5  0.54  0.661879192701
0.5  0.56  0.572589430924
0.5  0.58  0.495345162714
0.5  0.6  0.428521409884
0.5  0.62  0.370712409349
0.5  0.64  0.320702040261
0.5  0.66  0.277438240625
0.5  0.68  0.240010875199
0.5  0.7  0.20763258909
0.5  0.72  0.17962224427
0.5  0.74  0.155390590552
0.5  0.76  0.134427869611
0.5  0.78  0.116293091262
0.5  0.8  0.100604756397
0.5  0.82  0.0870328314424
0.5  0.84  0.0752918054788
0.5  0.86  0.0651346839842
0.5  0.88  0.0563477928408
0.5  0.9  0.0487462832981
0.5  0.92  0.0421702433331
0.5  0.94  0.0364813336003
0.5  0.96  0.031559877204
0.5  0.98  0.0273023420702
0.52  -1  0.0193475174643
0.52  -0.98  0.022364574944
0.52  -0.96  0.0258521132413
0.52  -0.94  0.0298834992713
0.52  -0.92  0.034543540807
0.52  -0.9  0.0399302705702
0.52  -0.88  0.0461570085334
0.52  -0.86  0.053354745819
0.52  -0.84  0.0616749003427
0.52  -0.82  0.0712925021736
0.52  -0.8  0.082409875621
0.52  -0.78  0.0952608955052
0.52  -0.76  0.110115907154
0.52  -0.74  0.127287413624
0.52  -0.72  0.147136649788
0.52  -0.7  0.170081181592
0.52  -0.68  0.196603690334
0.52  -0.66  0.227262126774
0.52  -0.64  0.262701448677
0.52  -0.62  0.303667188707
0.52  -0.6  0.351021138107
0.52  -0.58  0.405759476099
0.52  -0.56  0.469033726379
0.52  -0.54  0.542174981582
0.52  -0.52  0.626721905315
0.52  -0.5  0.724453100835
0.52  -0.48  0.837424527304
0.52  -0.46  0.968012750752
0.52  -0.44  1.11896493961
0.52  -0.42  1.29345665653
0.52  -0.4  1.49515866235
0.52  -0.38  1.72831413741
0.52  -0.36  1.99782794481
0.52  -0.34  2.30936981344
0.52  -0.32  2.66949361133
0.52  -0.3  3.08577521862
0.52  -0.28  3.56697190037
0.52  -0.26  4.12320653212
0.52  -0.24  4.76618055352
0.52  -0.22  5.50942013013
0.52  -0.2  4.77991344359
0.52  -0.18  4.78995473894
0.52  -0.16  4.74390794001
0.52  -0.14  4.6454222981
0.52  -0.12  4.50261623072
0.52  -0.1  4.32809936772
0.52  -0.08  4.13883978219
0.52  -0.06  3.9555629494
0.52  -0.04  3.80115618703
0.52  -0.02  3.69752128572
0.52  6.17561557e-16  3.66094655551
0.52  0.02  3.69752128572
0.52  0.04  3.80115618703
0.52  0.06  3.9555629494
0.52  0.08  4.13883978219
0.52  0.1  4.32809936772
0.52  0.12  4.50261623072
0.52  0.14  4.6454222981
0.52  0.16  4.74390794001
0.52  0.18  4.78995473894
0.52  0.2  6.36856070168
0.52  0.22  5.50942013013
0.52  0.24  4.76618055352
0.52  0.26  4.12320653212
0.52  0.28  3.56697190037
0.52  0.3  3.08577521862
0.52  0.32  2.66949361133
0.52  0.34  2.30936981344
0.52  0.36  1.99782794481
0.52  0.38  1.72831413741
0.52  0.4  1.49515866235
0.52  0.42  1.29345665653
0.52  0.44  1.11896493961
0.52  0.46  0.968012750752
0.52  0.48  0.837424527304
0.52  0.5  0.724453100835
0.52  0.52  0.626721905315
0.52  0.54  0.542174981582
0.52  0.56  0.469033726379
0.52  0.58  0.405759476099
0.52  0.6  0.351021138107
0.52  0.62  0.303667188707
0.52  0.64  0.262701448677
0.52  0.66  0.227262126774
0.52  0.68  0.196603690334
0.52  0.7  0.170081181592
0.52  0.72  0.147136649788
0.52  0.74  0.127287413624
0.52  0.76  0.110115907154
0.52  0.78  0.0952608955052
0.52  0.8  0.0824098756209
0.52  0.82  0.0712925021736
0.52  0.84  0.0616749003426
0.52  0.86  0.053354745819
0.52  0.88  0.0461570085334
0.52  0.9  0.0399302705701
0.52  0.92  0.034543540807
0.52  0.94  0.0298834992713
0.52  0.96  0.0258521132413
0.52  0.98  0.022364574944
0.54  -1  0.0158484207398
0.54  -0.98  0.0183198280624
0.54  -0.96  0.0211766273589
0.54  -0.94  0.0244789167656
0.54  -0.92  0.0282961661393
0.54  -0.9  0.0327086784864
0.54  -0.88  0.0378092792876
0.54  -0.86  0.0437052692557
0.54  -0.84  0.0505206816079
0.54  -0.82  0.0583988913372
0.54  -0.8  0.0675056313745
0.54  -0.78  0.0780324790921
0.54  -0.76  0.0902008864932
0.54  -0.74  0.10426683887
0.54  -0.72  0.120526239937
0.54  -0.7  0.139321136718
0.54  -0.68  0.161046915149
0.54  -0.66  0.186160617764
0.54  -0.64  0.215190558441
0.54  -0.62  0.24874743648
0.54  -0.6  0.287537183804
0.54  -0.58  0.332375815566
0.54  -0.56  0.384206596558
0.54  -0.54  0.444119884557
0.54  -0.52  0.513376068047
0.54  -0.5  0.593432080859
0.54  -0.48  0.685972051507
0.54  -0.46  0.792942731993
0.54  -0.44  0.916594451391
0.54  -0.42  1.05952845574
0.54  -0.4  1.22475163015
0.54  -0.38  1.41573975425
0.54  -0.36  1.63651062177
0.54  -0.34  1.89170856234
0.54  -0.32  2.18670214371
0.54  -0.3  2.52769710964
0.54  -0.28  2.92186692936
0.54  -0.26  3.377503705
0.54  -0.24  3.90419261145
0.54  -0.22  4.5130135386
0.54  -0.2  3.91544183866
0.54  -0.18  3.92366711478
0.54  -0.16  3.88594811314
0.54  -0.14  3.80527409939
0.54  -0.12  3.68829523406
0.54  -0.1  3.54534063142
0.54  -0.08  3.39030960245
0.54  -0.06  3.24017931503
0.54  -0.04  3.11369779926
0.54  -0.02  3.02880579581
0.54  6.17561557e-16  2.99884579118
0.54  0.02  3.02880579581
0.54  0.04  3.11369779926
0.54  0.06  3.24017931503
0.54  0.08  3.39030960245
0.54  0.1  3.54534063142
0.54  0.12  3.68829523406
0.54  0.14  3.80527409939
0.54  0.16  3.88594811314
0.54  0.18  3.92366711478
0.54  0.2  5.21677417754
0.54  0.22  4.5130135386
0.54  0.24  3.90419261145
0.54  0.26  3.377503705
0.54  0.28  2.92186692936
0.54  0.3  2.52769710964
0.54  0.32  2.18670214371
0.54  0.34  1.89170856234
0.54  0.36  1.63651062177
0.54  0.38  1.41573975425
0.54  0.4  1.22475163015
0.54  0.42  1.05952845574
0.54  0.44  0.916594451391
0.54  0.46  0.792942731993
0.54  0.48  0.685972051507
0.54  0.5  0.593432080859
0.54  0.52  0.513376068047
0.54  0.54  0.444119884557
0.54  0.56  0.384206596558
