-0.06  0.48  0.752621114509
-0.06  0.5  0.601448446672
-0.06  0.52  0.480640560078
-0.06  0.54  0.384098336724
-0.06  0.56  0.3069477371
-0.06  0.58  0.245293728982
-0.06  0.6  0.196023642482
-0.06  0.62  0.156650023509
-0.06  0.64  0.12518505194
-0.06  0.66  0.100040184343
-0.06  0.68  0.079945954635
-0.06  0.7  0.0638878836987
-0.06  0.72  0.0510552622973
-0.06  0.74  0.040800221534
-0.06  0.76  0.0326050244837
-0.06  0.78  0.0260559276791
-0.06  0.8  0.0208222928205
-0.06  0.82  0.0166398941401
-0.06  0.84  0.013297578676
-0.06  0.86  0.010626605984
-0.06  0.88  0.00849212909297
-0.06  0.9  0.00678638660734
-0.06  0.92  0.00542326225615
-0.06  0.94  0.00433393721885
-0.06  0.96  0.00346341573203
-0.06  0.98  0.00276774856837
-0.04  -1  0.00280233916168
-0.04  -0.98  0.0035067005905
-0.04  -0.96  0.00438810162579
-0.04  -0.94  0.00549104076077
-0.04  -0.92  0.00687120108141
-0.04  -0.9  0.00859826148778
-0.04  -0.88  0.0107594145094
-0.04  -0.86  0.0134637683152
-0.04  -0.84  0.0168478551585
-0.04  -0.82  0.0210825243571
-0.04  -0.8  0.026381567807
-0.04  -0.78  0.0330125135001
-0.04  -0.76  0.0413101319667
-0.04  -0.74  0.051693337531
-0.04  -0.72  0.0646863376579
-0.04  -0.7  0.0809450981393
-0.04  -0.68  0.101290460243
-0.04  -0.66  0.126749581778
-0.04  -0.64  0.158607794283
-0.04  -0.62  0.198473494384
-0.04  -0.6  0.248359345461
-0.04  -0.58  0.310783889149
-0.04  -0.56  0.388898696666
-0.04  -0.54  0.486647479324
-0.04  -0.52  0.608965191095
-0.04  -0.5  0.762027175155
-0.04  -0.48  0.953560932819
-0.04  -0.46  1.19323625488
-0.04  -0.44  1.49315341155
-0.04  -0.42  1.86845404781
-0.04  -0.4  2.33808562588
-0.04  -0.38  2.92575800853
-0.04  -0.36  3.66114047737
-0.04  -0.34  4.58135961893
-0.04  -0.32  5.73287370088
-0.04  -0.3  7.17381816841
-0.04  -0.28  8.97694067557
-0.04  -0.26  11.2332738301
-0.04  -0.24  14.0567310737
-0.04  -0.22  17.5898577269
-0.04  -0.2  15.9823932015
-0.04  -0.18  16.0437705693
-0.04  -0.16  16.3966839174
-0.04  -0.14  16.9880177523
-0.04  -0.12  17.736257915
-0.04  -0.1  18.5498396613
-0.04  -0.08  19.3413784346
-0.04  -0.06  20.0358197853
-0.04  -0.04  20.5739965278
-0.04  -0.02  20.9136969177
-0.04  6.17561557e-16  21.0297205106
-0.04  0.02  20.9136969177
-0.04  0.04  20.5739965278
-0.04  0.06  20.0358197853
-0.04  0.08  19.3413784346
-0.04  0.1  18.5498396613
-0.04  0.12  17.736257915
-0.04  0.14  16.9880177523
-0.04  0.16  16.3966839174
-0.04  0.18  16.0437705693
-0.04  0.2  22.0110275448
-0.04  0.22  17.5898577269
-0.04  0.24  14.0567310737
-0.04  0.26  11.2332738301
-0.04  0.28  8.97694067558
-0.04  0.3  7.17381816841
-0.04  0.32  5.73287370089
-0.04  0.34  4.58135961893
-0.04  0.36  3.66114047737
-0.04  0.38  2.92575800853
-0.04  0.4  2.33808562588
-0.04  0.42  1.86845404781
-0.04  0.44  1.49315341155
-0.04  0.46  1.19323625488
-0.04  0.48  0.95356093282
-0.04  0.5  0.762027175156
-0.04  0.52  0.608965191095
-0.04  0.54  0.486647479324
-0.04  0.56  0.388898696667
-0.04  0.58  0.310783889149
-0.04  0.6  0.248359345461
-0.04  0.62  0.198473494384
-0.04  0.64  0.158607794283
-0.04  0.66  0.126749581778
-0.04  0.68  0.101290460243
-0.04  0.7  0.0809450981393
-0.04  0.72  0.0646863376579
-0.04  0.74  0.051693337531
-0.04  0.76  0.0413101319667
-0.04  0.78  0.0330125135001
-0.04  0.8  0.026381567807
-0.04  0.82  0.0210825243571
-0.04  0.84  0.0168478551585
-0.04  0.86  0.0134637683152
-0.04  0.88  0.0107594145094
-0.04  0.9  0.00859826148778
-0.04  0.92  0.00687120108141
-0.04  0.94  0.00549104076077
-0.04  0.96  0.00438810162579
-0.04  0.98  0.0035067005905
-0.02  -1  0.00355052641174
-0.02  -0.98  0.00444294296524
-0.02  -0.96  0.0055596663433
-0.02  -0.94  0.00695707554446
-0.02  -0.92  0.00870572029733
-0.02  -0.9  0.0108938828407
-0.02  -0.88  0.0136320349488
-0.02  -0.86  0.017058415219
-0.02  -0.84  0.0213460081989
-0.02  -0.82  0.0267112776995
-0.02  -0.8  0.0334250952071
-0.02  -0.78  0.0418264151258
-0.02  -0.76  0.052339387261
-0.02  -0.74  0.0654947704846
-0.02  -0.72  0.0819567286762
-0.02  -0.7  0.102556361761
-0.02  -0.68  0.128333664699
-0.02  -0.66  0.16059003276
-0.02  -0.64  0.200953963891
-0.02  -0.62  0.251463275208
-0.02  -0.6  0.314667984417
-0.02  -0.58  0.393759050244
-0.02  -0.56  0.492729471465
-0.02  -0.54  0.616575877812
-0.02  -0.52  0.771550790273
-0.02  -0.5  0.965478286441
-0.02  -0.48  1.20814900761
-0.02  -0.46  1.51181444999
-0.02  -0.44  1.89180549484
-0.02  -0.42  2.3673064048
-0.02  -0.4  2.96232336224
-0.02  -0.38  3.70689644767
-0.02  -0.36  4.63861624592
-0.02  -0.34  5.80452164787
-0.02  -0.32  7.26347466018
-0.02  -0.3  9.08913211797
-0.02  -0.28  11.3736643305
-0.02  -0.26  14.2324083998
-0.02  -0.24  17.8096911402
-0.02  -0.22  22.2861155752
-0.02  -0.2  20.2494794208
-0.02  -0.18  20.3272437287
-0.02  -0.16  20.7743802426
-0.02  -0.14  21.5235923393
-0.02  -0.12  22.4716026645
-0.02  -0.1  23.5023999063
-0.02  -0.08  24.5052689946
-0.02  -0.06  25.3851169413
-0.02  -0.04  26.0669797095
-0.02  -0.02  26.4973755813
-0.02  6.17561557e-16  26.644375929
-0.02  0.02  26.4973755813
-0.02  0.04  26.0669797095
-0.02  0.06  25.3851169413
-0.02  0.08  24.5052689946
-0.02  0.1  23.5023999063
-0.02  0.12  22.4716026645
-0.02  0.14  21.5235923393
-0.02  0.16  20.7743802426
-0.02  0.18  20.3272437287
-0.02  0.2  27.8876788777
-0.02  0.22  22.2861155752
-0.02  0.24  17.8096911403
-0.02  0.26  14.2324083998
-0.02  0.28  11.3736643305
-0.02  0.3  9.08913211798
-0.02  0.32  7.26347466019
-0.02  0.34  5.80452164787
-0.02  0.36  4.63861624592
-0.02  0.38  3.70689644768
-0.02  0.4  2.96232336225
-0.02  0.42  2.3673064048
-0.02  0.44  1.89180549484
-0.02  0.46  1.51181444999
-0.02  0.48  1.20814900761
-0.02  0.5  0.965478286441
-0.02  0.52  0.771550790273
-0.02  0.54  0.616575877813
-0.02  0.56  0.492729471466
-0.02  0.58  0.393759050244
-0.02  0.6  0.314667984417
-0.02  0.62  0.251463275208
-0.02  0.64  0.200953963891
-0.02  0.66  0.16059003276
-0.02  0.68  0.128333664699
-0.02  0.7  0.102556361762
-0.02  0.72  0.0819567286762
-0.02  0.74  0.0654947704846
-0.02  0.76  0.0523393872611
-0.02  0.78  0.0418264151259
-0.02  0.8  0.0334250952071
-0.02  0.82  0.0267112776995
-0.02  0.84  0.0213460081989
-0.02  0.86  0.017058415219
-0.02  0.88  0.0136320349488
-0.02  0.9  0.0108938828407
-0.02  0.92  0.00870572029734
-0.02  0.94  0.00695707554446
-0.02  0.96  0.00555966634331
-0.02  0.98  0.00444294296524
2.8449465e-16  -1  0.00449846969732
2.8449465e-16  -0.98  0.00562914959031
2.8449465e-16  -0.96  0.00704402324395
2.8449465e-16  -0.94  0.00881452209882
2.8449465e-16  -0.92  0.0110300317219
2.8449465e-16  -0.9  0.0138024045345
2.8449465e-16  -0.88  0.0172716068037
2.8449465e-16  -0.86  0.0216127849925
2.8449465e-16  -0.84  0.0270451082195
2.8449465e-16  -0.82  0.0338428332516
2.8449465e-16  -0.8  0.042349150656
2.8449465e-16  -0.78  0.0529935111506
2.8449465e-16  -0.76  0.0663133068921
2.8449465e-16  -0.74  0.0829810023054
2.8449465e-16  -0.72  0.103838084184
2.8449465e-16  -0.7  0.129937545071
2.8449465e-16  -0.68  0.162597044733
2.8449465e-16  -0.66  0.203465433654
2.8449465e-16  -0.64  0.254605997052
2.8449465e-16  -0.62  0.318600622086
2.8449465e-16  -0.6  0.398680147241
2.8449465e-16  -0.58  0.498887474745
2.8449465e-16  -0.56  0.62428168089
2.8449465e-16  -0.54  0.781193429027
2.8449465e-16  -0.52  0.977544580012
2.8449465e-16  -0.5  1.223248136
2.8449465e-16  -0.48  1.53070870917
2.8449465e-16  -0.46  1.91544878211
2.8449465e-16  -0.44  2.39689237732
2.8449465e-16  -0.42  2.99934570013
2.8449465e-16  -0.4  3.75322426406
2.8449465e-16  -0.38  4.69658845117
2.8449465e-16  -0.36  5.87706503204
2.8449465e-16  -0.34  7.3542516552
2.8449465e-16  -0.32  9.2027256995
2.8449465e-16  -0.3  11.5158093945
2.8449465e-16  -0.28  14.4102812949
2.8449465e-16  -0.26  18.0322719737
2.8449465e-16  -0.24  22.5646415833
2.8449465e-16  -0.22  28.23621175
2.8449465e-16  -0.2  25.6558208551
2.8449465e-16  -0.18  25.754347198
2.8449465e-16  -0.16  26.3208632086
2.8449465e-16  -0.14  27.2701049612
2.8449465e-16  -0.12  28.4712214229
2.8449465e-16  -0.1  29.7772278058
2.8449465e-16  -0.08  31.04784959
2.8449465e-16  -0.06  32.1626052255
2.8449465e-16  -0.04  33.0265162755
2.8449465e-16  -0.02  33.5718221154
2.8449465e-16  6.17561557e-16  33.7580695989
2.8449465e-16  0.02  33.5718221154
2.8449465e-16  0.04  33.0265162755
2.8449465e-16  0.06  32.1626052255
2.8449465e-16  0.08  31.04784959
2.8449465e-16  0.1  29.7772278058
2.8449465e-16  0.12  28.4712214229
2.8449465e-16  0.14  27.2701049612
2.8449465e-16  0.16  26.3208632086
2.8449465e-16  0.18  25.754347198
2.8449465e-16  0.2  35.3333178835
2.8449465e-16  0.22  28.23621175
2.8449465e-16  0.24  22.5646415833
2.8449465e-16  0.26  18.0322719737
2.8449465e-16  0.28  14.4102812949
2.8449465e-16  0.3  11.5158093945
2.8449465e-16  0.32  9.20272569951
2.8449465e-16  0.34  7.3542516552
2.8449465e-16  0.36  5.87706503204
2.8449465e-16  0.38  4.69658845118
2.8449465e-16  0.4  3.75322426406
2.8449465e-16  0.42  2.99934570013
2.8449465e-16  0.44  2.39689237732
2.8449465e-16  0.46  1.91544878211
2.8449465e-16  0.48  1.53070870917
2.8449465e-16  0.5  1.223248136
2.8449465e-16  0.52  0.977544580013
2.8449465e-16  0.54  0.781193429027
2.8449465e-16  0.56  0.62428168089
2.8449465e-16  0.58  0.498887474745
2.8449465e-16  0.6  0.398680147242
2.8449465e-16  0.62  0.318600622086
2.8449465e-16  0.64  0.254605997052
2.8449465e-16  0.66  0.203465433654
2.8449465e-16  0.68  0.162597044733
2.8449465e-16  0.7  0.129937545071
2.8449465e-16  0.72  0.103838084184
2.8449465e-16  0.74  0.0829810023054
2.8449465e-16  0.76  0.0663133068921
2.8449465e-16  0.78  0.0529935111506
2.8449465e-16  0.8  0.042349150656
2.8449465e-16  0.82  0.0338428332516
2.8449465e-16  0.84  0.0270451082195
2.8449465e-16  0.86  0.0216127849925
2.8449465e-16  0.88  0.0172716068037
2.8449465e-16  0.9  0.0138024045345
2.8449465e-16  0.92  0.0110300317219
2.8449465e-16  0.94  0.00881452209882
2.8449465e-16  0.96  0.00704402324396
2.8449465e-16  0.98  0.00562914959031
0.02  -1  0.00551542733426
0.02  -0.98  0.00690171716341
0.02  -0.96  0.00863644771599
0.02  -0.94  0.0108071987572
0.02  -0.92  0.0135235630225
0.02  -0.9  0.0169226791265
0.02  -0.88  0.0211761551553
0.02  -0.86  0.0264987324885
0.02  -0.84  0.0331591272518
0.02  -0.82  0.0414935967438
0.02  -0.8  0.0519229157529
0.02  -0.78  0.0649736198318
0.02  -0.76  0.0813045880193
0.02  -0.74  0.101740307068
0.02  -0.72  0.127312496556
0.02  -0.7  0.159312196381
0.02  -0.68  0.19935494631
0.02  -0.66  0.249462348278
0.02  -0.64  0.312164129158
0.02  -0.62  0.390625856791
0.02  -0.6  0.488808757127
0.02  -0.58  0.611669701047
0.02  -0.56  0.765411457391
0.02  -0.54  0.957795846522
0.02  -0.52  1.19853560429
0.02  -0.5  1.49978474011
0.02  -0.48  1.87675214537
0.02  -0.46  2.34846943096
0.02  -0.44  2.93875175885
0.02  -0.42  3.67740017661
0.02  -0.4  4.60170615575
0.02  -0.38  5.7583342924
0.02  -0.36  7.20567822036
0.02  -0.34  9.01680867747
0.02  -0.32  11.2831625615
0.02  -0.3  14.1191592217
0.02  -0.28  17.6679770447
0.02  -0.26  22.1087819714
0.02  -0.24  27.6657728851
0.02  -0.22  34.619500537
0.02  -0.2  31.455767216
0.02  -0.18  31.5765671594
0.02  -0.16  32.271154008
0.02  -0.14  33.4349884363
0.02  -0.12  34.9076382507
0.02  -0.1  36.5088901846
0.02  -0.08  38.0667582135
0.02  -0.06  39.4335238286
0.02  -0.04  40.492737059
0.02  -0.02  41.1613188073
0.02  6.17561557e-16  41.3896707871
0.02  0.02  41.1613188073
0.02  0.04  40.492737059
0.02  0.06  39.4335238286
0.02  0.08  38.0667582135
0.02  0.1  36.5088901846
0.02  0.12  34.9076382507
0.02  0.14  33.4349884363
0.02  0.16  32.271154008
0.02  0.18  31.5765671594
0.02  0.2  43.3210314567
0.02  0.22  34.619500537
0.02  0.24  27.6657728851
0.02  0.26  22.1087819714
0.02  0.28  17.6679770447
0.02  0.3  14.1191592217
0.02  0.32  11.2831625615
0.02  0.34  9.01680867747
0.02  0.36  7.20567822037
0.02  0.38  5.7583342924
0.02  0.4  4.60170615575
0.02  0.42  3.67740017661
0.02  0.44  2.93875175885
0.02  0.46  2.34846943096
0.02  0.48  1.87675214537
0.02  0.5  1.49978474011
0.02  0.52  1.19853560429
0.02  0.54  0.957795846523
0.02  0.56  0.765411457392
0.02  0.58  0.611669701047
0.02  0.6  0.488808757128
0.02  0.62  0.390625856791
0.02  0.64  0.312164129159
0.02  0.66  0.249462348278
0.02  0.68  0.199354946311
0.02  0.7  0.159312196381
0.02  0.72  0.127312496556
0.02  0.74  0.101740307068
0.02  0.76  0.0813045880193
0.02  0.78  0.0649736198318
0.02  0.8  0.0519229157529
0.02  0.82  0.0414935967438
0.02  0.84  0.0331591272518
0.02  0.86  0.0264987324885
0.02  0.88  0.0211761551553
0.02  0.9  0.0169226791265
0.02  0.92  0.0135235630225
0.02  0.94  0.0108071987572
0.02  0.96  0.00863644771599
0.02  0.98  0.00690171716341
0.04  -1  0.00642427855441
0.04  -0.98  0.00803900602336
0.04  -0.96  0.0100595914851
0.04  -0.94  0.0125880464018
0.04  -0.92  0.0157520225795
0.04  -0.9  0.0197112568087
0.04  -0.88  0.0246656353505
0.04  -0.86  0.0308652854127
0.04  -0.84  0.038623203095
0.04  -0.82  0.0483310553383
0.04  -0.8  0.0604789536582
0.04  -0.78  0.0756801979595
0.04  -0.76  0.0947022396511
0.04  -0.74  0.118505427268
0.04  -0.72  0.148291490716
0.04  -0.7  0.185564211916
0.04  -0.68  0.232205344878
0.04  -0.66  0.2905696181
0.04  -0.64  0.363603615617
0.04  -0.62  0.4549945385
0.04  -0.6  0.569356357234
0.04  -0.58  0.712462753051
0.04  -0.56  0.891538608528
0.04  -0.54  1.11562476367
0.04  -0.52  1.39603445258
0.04  -0.5  1.74692446445
0.04  -0.48  2.18600986447
0.04  -0.46  2.73545835828
0.04  -0.44  3.42300945275
0.04  -0.42  4.28337491527
0.04  -0.4  5.35999123521
0.04  -0.38  6.70721256248
0.04  -0.36  8.39305483612
0.04  -0.34  10.5026296432
0.04  -0.32  13.1424411703
0.04  -0.3  16.4457631834
0.04  -0.28  20.5793674994
0.04  -0.26  25.7519436437
0.04  -0.24  32.2246347682
0.04  -0.22  40.3242217484
0.04  -0.2  36.6391574925
0.04  -0.18  36.779863269
0.04  -0.16  37.5889065443
0.04  -0.14  38.944521641
0.04  -0.12  40.6598397927
0.04  -0.1  42.5249515666
0.04  -0.08  44.3395304854
0.04  -0.06  45.9315164726
0.04  -0.04  47.165270528
0.04  -0.02  47.9440234925
0.04  6.17561557e-16  48.2100041025
0.04  0.02  47.9440234925
0.04  0.04  47.165270528
0.04  0.06  45.9315164726
0.04  0.08  44.3395304854
0.04  0.1  42.5249515666
0.04  0.12  40.6598397927
0.04  0.14  38.944521641
0.04  0.16  37.5889065443
0.04  0.18  36.779863269
0.04  0.2  50.459621073
0.04  0.22  40.3242217485
0.04  0.24  32.2246347682
0.04  0.26  25.7519436437
0.04  0.28  20.5793674994
0.04  0.3  16.4457631834
0.04  0.32  13.1424411703
0.04  0.34  10.5026296432
0.04  0.36  8.39305483613
0.04  0.38  6.70721256248
0.04  0.4  5.35999123521
0.04  0.42  4.28337491528
0.04  0.44  3.42300945276
0.04  0.46  2.73545835828
0.04  0.48  2.18600986447
0.04  0.5  1.74692446445
0.04  0.52  1.39603445258
0.04  0.54  1.11562476367
0.04  0.56  0.891538608528
0.04  0.58  0.712462753051
0.04  0.6  0.569356357234
0.04  0.62  0.4549945385
0.04  0.64  0.363603615617
0.04  0.66  0.290569618101
0.04  0.68  0.232205344878
0.04  0.7  0.185564211917
0.04  0.72  0.148291490716
0.04  0.74  0.118505427268
0.04  0.76  0.0947022396512
0.04  0.78  0.0756801979596
0.04  0.8  0.0604789536583
0.04  0.82  0.0483310553383
0.04  0.84  0.038623203095
0.04  0.86  0.0308652854128
0.04  0.88  0.0246656353505
0.04  0.9  0.0197112568087
0.04  0.92  0.0157520225795
0.04  0.94  0.0125880464018
0.04  0.96  0.0100595914851
0.04  0.98  0.00803900602336
0.06  -1  0.00720720920796
0.06  -0.98  0.00901872447524
0.06  -0.96  0.0112855598906
0.06  -0.94  0.0141221591139
0.06  -0.92  0.0176717309528
0.06  -0.9  0.0221134794155
0.06  -0.88  0.0276716510209
0.06  -0.86  0.0346268561285
0.06  -0.84  0.0433302358591
0.06  -0.82  0.0542211898371
0.06  -0.8  0.0678495597602
0.06  -0.78  0.084903388758
0.06  -0.76  0.106243658
0.06  -0.74  0.132947754268
0.06  -0.72  0.166363863008
0.06  -0.7  0.20817903294
0.06  -0.68  0.260504348553
0.06  -0.66  0.325981510514
0.06  -0.64  0.407916204805
0.06  -0.62  0.51044499389
0.06  -0.6  0.638744155584
0.06  -0.58  0.799291013089
0.06  -0.56  1.00019094973
0.06  -0.54  1.25158661805
0.06  -0.52  1.56617000276
0.06  -0.5  1.95982318935
0.06  -0.48  2.45242018858
0.06  -0.46  3.06883029757
0.06  -0.44  3.84017365341
0.06  -0.42  4.80539236726
0.06  -0.4  6.01321655931
0.06  -0.38  7.5246245521
0.06  -0.36  9.41592142768
0.06  -0.34  11.7825913729
0.06  -0.32  14.744118303
0.06  -0.3  18.4500181372
0.06  -0.28  23.0873872731
0.06  -0.26  28.8903483527
0.06  -0.24  36.1518701995
0.06  -0.22  45.238558669
0.06  -0.2  41.1043934374
0.06  -0.18  41.2622471106
0.06  -0.16  42.1698889718
0.06  -0.14  43.6907136877
0.06  -0.12  45.6150786841
0.06  -0.1  47.7074927408
0.06  -0.08  49.7432154731
0.06  -0.06  51.5292177407
0.06  -0.04  52.9133301376
0.06  -0.02  53.7869901897
0.06  6.17561557e-16  54.0853860151
0.06  0.02  53.7869901897
0.06  0.04  52.9133301376
0.06  0.06  51.5292177407
0.06  0.08  49.7432154731
0.06  0.1  47.7074927408
0.06  0.12  45.6150786841
0.06  0.14  43.6907136877
0.06  0.16  42.1698889718
0.06  0.18  41.2622471106
0.06  0.2  56.6091651456
0.06  0.22  45.238558669
0.06  0.24  36.1518701995
0.06  0.26  28.8903483527
0.06  0.28  23.0873872731
0.06  0.3  18.4500181372
0.06  0.32  14.744118303
0.06  0.34  11.7825913729
0.06  0.36  9.41592142768
0.06  0.38  7.52462455211
0.06  0.4  6.01321655932
0.06  0.42  4.80539236726
0.06  0.44  3.84017365342
0.06  0.46  3.06883029757
0.06  0.48  2.45242018858
0.06  0.5  1.95982318935
0.06  0.52  1.56617000276
0.06  0.54  1.25158661805
0.06  0.56  1.00019094973
0.06  0.58  0.799291013089
0.06  0.6  0.638744155584
0.06  0.62  0.51044499389
0.06  0.64  0.407916204805
0.06  0.66  0.325981510514
0.06  0.68  0.260504348553
0.06  0.7  0.20817903294
0.06  0.72  0.166363863008
0.06  0.74  0.132947754268
0.06  0.76  0.106243658
0.06  0.78  0.084903388758
0.06  0.8  0.0678495597602
0.06  0.82  0.0542211898371
0.06  0.84  0.0433302358591
0.06  0.86  0.0346268561285
0.06  0.88  0.0276716510209
0.06  0.9  0.0221134794155
0.06  0.92  0.0176717309528
0.06  0.94  0.0141221591139
0.06  0.96  0.0112855598906
0.06  0.98  0.00901872447524
0.08  -1  0.00784887328047
0.08  -0.98  0.00982166931958
0.08  -0.96  0.0122903230535
0.08  -0.94  0.0153794671603
0.08  -0.92  0.0192450604516
0.08  -0.9  0.0240822616237
0.08  -0.88  0.0301352820568
0.08  -0.86  0.0377097150938
0.08  -0.84  0.0471879642533
0.08  -0.82  0.0590485492883
0.08  -0.8  0.073890264779
0.08  -0.78  0.0924624109298
0.08  -0.76  0.115702622809
0.08  -0.74  0.144784207876
0.08  -0.72  0.181175381694
0.08  -0.7  0.226713392389
0.08  -0.68  0.283697276131
0.08  -0.66  0.355003926481
0.08  -0.64  0.444233337507
0.08  -0.62  0.555890353407
0.08  -0.6  0.695612100489
0.08  -0.58  0.870452583647
0.08  -0.56  1.08923881549
0.08  -0.54  1.36301645771
0.08  -0.52  1.70560747338
0.08  -0.5  2.13430794382
0.08  -0.48  2.67076128016
0.08  -0.46  3.34205091456
0.08  -0.44  4.18206763685
0.08  -0.42  5.23322060804
0.08  -0.4  6.5485784331
0.08  -0.38  8.19454838738
0.08  -0.36  10.2542290604
0.08  -0.34  12.8316056789
0.08  -0.32  16.0567999143
0.08  -0.3  20.0926392176
0.08  -0.28  25.1428773406
0.08  -0.26  31.4624810667
0.08  -0.24  39.3705024872
0.08  -0.22  49.2661866942
0.08  -0.2  44.7639531546
0.08  -0.18  44.935860677
0.08  -0.16  45.9243106785
0.08  -0.14  47.5805357349
0.08  -0.12  49.6762286122
0.08  -0.1  51.9549321029
0.08  -0.08  54.1718969917
0.08  -0.06  56.1169085868
0.08  -0.04  57.624249708
0.08  -0.02  58.5756924706
0.08  6.17561557e-16  58.9006547346
0.08  0.02  58.5756924706
0.08  0.04  57.624249708
0.08  0.06  56.1169085868
0.08  0.08  54.1718969917
0.08  0.1  51.9549321029
0.08  0.12  49.6762286122
0.08  0.14  47.5805357349
0.08  0.16  45.9243106785
0.08  0.18  44.935860677
0.08  0.2  61.649128105
0.08  0.22  49.2661866942
0.08  0.24  39.3705024872
0.08  0.26  31.4624810667
0.08  0.28  25.1428773406
0.08  0.3  20.0926392176
0.08  0.32  16.0567999143
0.08  0.34  12.8316056789
0.08  0.36  10.2542290604
0.08  0.38  8.19454838738
0.08  0.4  6.5485784331
0.08  0.42  5.23322060805
0.08  0.44  4.18206763686
0.08  0.46  3.34205091456
0.08  0.48  2.67076128016
0.08  0.5  2.13430794382
0.08  0.52  1.70560747338
0.08  0.54  1.36301645771
0.08  0.56  1.08923881549
0.08  0.58  0.870452583647
0.08  0.6  0.69561210049
0.08  0.62  0.555890353407
0.08  0.64  0.444233337507
0.08  0.66  0.355003926482
0.08  0.68  0.283697276131
0.08  0.7  0.226713392389
0.08  0.72  0.181175381694
0.08  0.74  0.144784207876
0.08  0.76  0.115702622809
0.08  0.78  0.0924624109299
0.08  0.8  0.073890264779
0.08  0.82  0.0590485492883
0.08  0.84  0.0471879642533
0.08  0.86  0.0377097150939
0.08  0.88  0.0301352820568
0.08  0.9  0.0240822616237
0.08  0.92  0.0192450604516
0.08  0.94  0.0153794671603
0.08  0.96  0.0122903230535
0.08  0.98  0.00982166931958
0.1  -1  0.00833669368598
0.1  -0.98  0.0104321022491
0.1  -0.96  0.0130541868798
0.1  -0.94  0.0163353263822
0.1  -0.92  0.0204411726652
0.1  -0.9  0.0255790138594
0.1  -0.88  0.0320082394849
0.1  -0.86  0.0400534360142
0.1  -0.84  0.0501207739744
0.1  -0.82  0.0627185139099
0.1  -0.8  0.0784826664702
0.1  -0.78  0.0982091021022
0.1  -0.76  0.122893731438
0.1  -0.74  0.15378278493
0.1  -0.72  0.192435730155
0.1  -0.7  0.24080400324
0.1  -0.68  0.301329529238
0.1  -0.66  0.377068005386
0.1  -0.64  0.471843171314
0.1  -0.62  0.590439854708
0.1  -0.6  0.738845538565
0.1  -0.58  0.924552645803
0.1  -0.56  1.15693680241
0.1  -0.54  1.44773017615
0.1  -0.52  1.81161378787
0.1  -0.5  2.26695869883
0.1  -0.48  2.83675349384
0.1  -0.46  3.54976488498
0.1  -0.44  4.4419900305
0.1  -0.42  5.55847389064
0.1  -0.4  6.95558337159
0.1  -0.38  8.70385307028
0.1  -0.36  10.8915462905
0.1  -0.34  13.6291111121
0.1  -0.32  17.0547564828
0.1  -0.3  21.3414298478
0.1  -0.28  26.7055485905
0.1  -0.26  33.4179260999
0.1  -0.24  41.8174440802
0.1  -0.22  52.328161364
0.1  -0.2  47.5461065924
0.1  -0.18  47.7286984505
0.1  -0.16  48.7785822481
0.1  -0.14  50.5377444204
0.1  -0.12  52.7636880627
0.1  -0.1  55.1840167296
0.1  -0.08  57.5387696387
0.1  -0.06  59.6046669088
0.1  -0.04  61.2056917641
0.1  -0.02  62.2162682619
0.1  6.17561557e-16  62.561427466
0.1  0.02  62.2162682619
0.1  0.04  61.2056917641
0.1  0.06  59.6046669088
0.1  0.08  57.5387696387
0.1  0.1  55.1840167296
0.1  0.12  52.7636880627
0.1  0.14  50.5377444204
0.1  0.16  48.7785822481
0.1  0.18  47.7286984505
0.1  0.2  65.4807229845
0.1  0.22  52.328161364
0.1  0.24  41.8174440803
0.1  0.26  33.4179260999
0.1  0.28  26.7055485905
0.1  0.3  21.3414298478
0.1  0.32  17.0547564828
0.1  0.34  13.6291111121
0.1  0.36  10.8915462905
0.1  0.38  8.70385307029
0.1  0.4  6.95558337159
0.1  0.42  5.55847389064
0.1  0.44  4.4419900305
0.1  0.46  3.54976488498
0.1  0.48  2.83675349384
0.1  0.5  2.26695869883
0.1  0.52  1.81161378787
0.1  0.54  1.44773017615
0.1  0.56  1.15693680241
0.1  0.58  0.924552645804
0.1  0.6  0.738845538566
0.1  0.62  0.590439854708
0.1  0.64  0.471843171314
0.1  0.66  0.377068005386
0.1  0.68  0.301329529238
0.1  0.7  0.24080400324
0.1  0.72  0.192435730156
0.1  0.74  0.15378278493
0.1  0.76  0.122893731438
0.1  0.78  0.0982091021023
0.1  0.8  0.0784826664702
0.1  0.82  0.0627185139099
0.1  0.84  0.0501207739744
0.1  0.86  0.0400534360142
0.1  0.88  0.032008239485
0.1  0.9  0.0255790138594
0.1  0.92  0.0204411726652
0.1  0.94  0.0163353263822
0.1  0.96  0.0130541868798
0.1  0.98  0.0104321022491
0.12  -1  0.00866110878713
0.12  -0.98  0.0108380583312
0.12  -0.96  0.0135621790787
0.12  -0.94  0.0169710012385
0.12  -0.92  0.0212366229177
0.12  -0.9  0.0265743986824
0.12  -0.88  0.0332538119674
0.12  -0.86  0.0416120802424
0.12  -0.84  0.0520711798033
0.12  -0.82  0.0651591497063
0.12  -0.8  0.0815367503961
0.12  -0.78  0.102030822918
0.12  -0.76  0.127676032889
0.12  -0.74  0.159767106725
0.12  -0.72  0.199924197312
0.12  -0.7  0.250174679195
0.12  -0.68  0.313055502794
0.12  -0.66  0.391741275116
0.12  -0.64  0.490204533253
0.12  -0.62  0.613416302254
0.12  -0.6  0.767597062749
0.12  -0.58  0.960530798702
0.12  -0.56  1.20195798034
0.12  -0.54  1.50406732241
0.12  -0.52  1.88211114478
0.12  -0.5  2.35517540239
0.12  -0.48  2.94714326061
0.12  -0.46  3.68790086281
0.12  -0.44  4.61484616499
0.12  -0.42  5.7747770124
0.12  -0.4  7.22625377979
0.12  -0.38  9.04255585589
0.12  -0.36  11.3153812333
0.12  -0.34  14.1594759817
0.12  -0.32  17.7184273285
0.12  -0.3  22.1719128167
0.12  -0.28  27.7447715215
0.12  -0.26  34.7183552969
0.12  -0.24  43.4447331305
0.12  -0.22  54.3644657313
0.12  -0.2  49.396321505
0.12  -0.18  49.5860187646
0.12  -0.16  50.6767578666
0.12  -0.14  52.5043762874
0.12  -0.12  54.8169405684
0.12  -0.1  57.3314541962
0.12  -0.08  59.7778402433
0.12  -0.06  61.9241300884
0.12  -0.04  63.5874574176
0.12  -0.02  64.6373596108
0.12  6.17561557e-16  64.9959503816
0.12  0.02  64.6373596108
0.12  0.04  63.5874574176
0.12  0.06  61.9241300884
0.12  0.08  59.7778402433
0.12  0.1  57.3314541962
0.12  0.12  54.8169405684
0.12  0.14  52.5043762874
0.12  0.16  50.6767578666
0.12  0.18  49.5860187646
0.12  0.2  68.0288477172
0.12  0.22  54.3644657313
0.12  0.24  43.4447331306
0.12  0.26  34.7183552969
0.12  0.28  27.7447715215
0.12  0.3  22.1719128167
0.12  0.32  17.7184273285
0.12  0.34  14.1594759817
0.12  0.36  11.3153812333
0.12  0.38  9.04255585589
0.12  0.4  7.22625377979
0.12  0.42  5.7747770124
0.12  0.44  4.614846165
0.12  0.46  3.68790086281
0.12  0.48  2.94714326061
0.12  0.5  2.3551754024
0.12  0.52  1.88211114478
0.12  0.54  1.50406732241
0.12  0.56  1.20195798034
0.12  0.58  0.960530798702
0.12  0.6  0.76759706275
0.12  0.62  0.613416302255
0.12  0.64  0.490204533253
0.12  0.66  0.391741275116
0.12  0.68  0.313055502794
0.12  0.7  0.250174679195
0.12  0.72  0.199924197312
0.12  0.74  0.159767106725
0.12  0.76  0.127676032889
0.12  0.78  0.102030822918
0.12  0.8  0.0815367503961
0.12  0.82  0.0651591497063
0.12  0.84  0.0520711798033
0.12  0.86  0.0416120802424
0.12  0.88  0.0332538119674
0.12  0.9  0.0265743986824
0.12  0.92  0.0212366229177
0.12  0.94  0.0169710012385
0.12  0.96  0.0135621790787
0.12  0.98  0.0108380583312
0.14  -1  0.00881575981024
0.14  -0.98  0.0110315805292
0.14  -0.96  0.0138043426309
0.14  -0.94  0.0172740320362
0.14  -0.92  0.0216158198015
0.14  -0.9  0.0270489058206
0.14  -0.88  0.033847585371
0.14  -0.86  0.0423550972095
0.14  -0.84  0.0530009523565
0.14  -0.82  0.0663226184278
0.14  -0.8  0.0829926542739
0.14  -0.78  0.103852664848
0.14  -0.76  0.129955790551
0.14  -0.74  0.162619876171
0.14  -0.72  0.203494003721
0.14  -0.7  0.25464174814
0.14  -0.68  0.318645359126
0.14  -0.66  0.398736128832
0.14  -0.64  0.498957527178
0.14  -0.62  0.624369340839
0.14  -0.6  0.781303122101
0.14  -0.58  0.977681844186
0.14  -0.56  1.2234199012
0.14  -0.54  1.53092364716
0.14  -0.52  1.91571774427
0.14  -0.5  2.39722894248
0.14  -0.48  2.99976686016
0.14  -0.46  3.75375128169
0.14  -0.44  4.69724793346
0.14  -0.42  5.87789027366
0.14  -0.4  7.35528431938
0.14  -0.38  9.20401792142
0.14  -0.36  11.5174264134
0.14  -0.34  14.4123047478
0.14  -0.32  18.0348040167
0.14  -0.3  22.5678100494
0.14  -0.28  28.2401766027
0.14  -0.26  35.3382792927
0.14  -0.24  44.2204735805
0.14  -0.22  55.3351867386
0.14  -0.2  50.2783323244
0.14  -0.18  50.4714167803
0.14  -0.16  51.5816319012
0.14  -0.14  53.4418839103
0.14  -0.12  55.7957408757
0.14  -0.1  58.3551531551
0.14  -0.08  60.8452213812
0.14  -0.06  63.0298349477
0.14  -0.04  64.7228623164
0.14  -0.02  65.7915113528
0.14  6.17561557e-16  66.1565050486
0.14  0.02  65.7915113528
0.14  0.04  64.7228623164
0.14  0.06  63.0298349477
0.14  0.08  60.8452213812
0.14  0.1  58.3551531551
0.14  0.12  55.7957408757
0.14  0.14  53.4418839103
0.14  0.16  51.5816319012
0.14  0.18  50.4714167803
0.14  0.2  69.2435571913
0.14  0.22  55.3351867386
0.14  0.24  44.2204735805
0.14  0.26  35.3382792927
0.14  0.28  28.2401766027
0.14  0.3  22.5678100494
0.14  0.32  18.0348040167
0.14  0.34  14.4123047478
0.14  0.36  11.5174264134
0.14  0.38  9.20401792143
0.14  0.4  7.35528431938
0.14  0.42  5.87789027366
0.14  0.44  4.69724793346
0.14  0.46  3.75375128169
0.14  0.48  2.99976686016
0.14  0.5  2.39722894248
0.14  0.52  1.91571774427
0.14  0.54  1.53092364716
0.14  0.56  1.2234199012
0.14  0.58  0.977681844186
0.14  0.6  0.781303122101
0.14  0.62  0.62436934084
0.14  0.64  0.498957527179
0.14  0.66  0.398736128833
0.14  0.68  0.318645359126
0.14  0.7  0.25464174814
0.14  0.72  0.203494003721
0.14  0.74  0.162619876171
0.14  0.76  0.129955790551
0.14  0.78  0.103852664848
0.14  0.8  0.082992654274
0.14  0.82  0.0663226184278
0.14  0.84  0.0530009523565
0.14  0.86  0.0423550972096
0.14  0.88  0.033847585371
0.14  0.9  0.0270489058206
0.14  0.92  0.0216158198015
0.14  0.94  0.0172740320362
0.14  0.96  0.0138043426309
0.14  0.98  0.0110315805292
0.16  -1  0.00879761548194
0.16  -0.98  0.0110088756662
0.16  -0.96  0.0137759309534
0.16  -0.94  0.0172384791496
0.16  -0.92  0.0215713307796
0.16  -0.9  0.0269932345866
0.16  -0.88  0.0337779213018
0.16  -0.86  0.0422679232387
0.16  -0.84  0.0528918674109
0.16  -0.82  0.0661861152348
0.16  -0.8  0.082821841321
0.16  -0.78  0.103638918457
0.16  -0.76  0.129688319501
0.16  -0.74  0.162285176896
0.16  -0.72  0.203075178562
0.16  -0.7  0.254117652251
0.16  -0.68  0.317989532954
0.16  -0.66  0.397915462278
0.16  -0.64  0.497930587995
0.16  -0.62  0.623084282882
0.16  -0.6  0.779695067815
0.16  -0.58  0.975669609196
0.16  -0.56  1.22090189563
0.16  -0.54  1.52777274674
0.16  -0.52  1.91177487236
0.16  -0.5  2.3922950389
0.16  -0.48  2.99359283139
0.16  -0.46  3.74602542515
0.16  -0.44  4.68758020085
0.16  -0.42  5.86579257895
0.16  -0.4  7.34014589725
0.16  -0.38  9.18507449211
0.16  -0.36  11.4937215972
0.16  -0.34  14.3826417812
0.16  -0.32  17.9976853325
0.16  -0.3  22.5213616703
0.16  -0.28  28.1820535315
0.16  -0.26  35.2655471227
0.16  -0.24  44.1294603488
0.16  -0.22  55.2212975429
0.16  -0.2  50.1748509924
0.16  -0.18  50.3675380478
0.16  -0.16  51.4754681577
0.16  -0.14  53.3318914528
0.16  -0.12  55.6809037815
0.16  -0.1  58.2350483565
0.16  -0.08  60.7199916001
0.16  -0.06  62.9001088615
0.16  -0.04  64.5896516928
0.16  -0.02  65.6561012683
0.16  6.17561557e-16  66.0203437452
0.16  0.02  65.6561012683
0.16  0.04  64.5896516928
0.16  0.06  62.9001088615
0.16  0.08  60.7199916001
0.16  0.1  58.2350483565
0.16  0.12  55.6809037815
0.16  0.14  53.3318914528
0.16  0.16  51.4754681577
0.16  0.18  50.3675380478
0.16  0.2  69.1010422112
0.16  0.22  55.2212975429
0.16  0.24  44.1294603488
0.16  0.26  35.2655471227
0.16  0.28  28.1820535315
0.16  0.3  22.5213616703
0.16  0.32  17.9976853325
0.16  0.34  14.3826417812
0.16  0.36  11.4937215972
0.16  0.38  9.18507449212
0.16  0.4  7.34014589726
0.16  0.42  5.86579257896
0.16  0.44  4.68758020085
0.16  0.46  3.74602542515
0.16  0.48  2.99359283139
0.16  0.5  2.3922950389
0.16  0.52  1.91177487236
0.16  0.54  1.52777274674
0.16  0.56  1.22090189563
0.16  0.58  0.975669609197
0.16  0.6  0.779695067816
0.16  0.62  0.623084282882
0.16  0.64  0.497930587996
0.16  0.66  0.397915462279
0.16  0.68  0.317989532954
0.16  0.7  0.254117652251
0.16  0.72  0.203075178562
0.16  0.74  0.162285176896
0.16  0.76  0.129688319501
0.16  0.78  0.103638918457
0.16  0.8  0.0828218413211
0.16  0.82  0.0661861152349
0.16  0.84  0.0528918674109
0.16  0.86  0.0422679232387
0.16  0.88  0.0337779213018
0.16  0.9  0.0269932345866
0.16  0.92  0.0215713307796
0.16  0.94  0.0172384791497
0.16  0.96  0.0137759309534
0.16  0.98  0.0110088756662
0.18  -1  0.00860703144438
0.18  -0.98  0.0107703887742
0.18  -0.96  0.0134775009359
0.18  -0.94  0.0168650394415
0.18  -0.92  0.0211040278696
0.18  -0.9  0.0264084761774
0.18  -0.88  0.0330461852268
0.18  -0.86  0.0413522670036
0.18  -0.84  0.0517460631113
0.18  -0.82  0.0647523156902
0.18  -0.8  0.0810276595965
0.18  -0.78  0.10139377333
0.18  -0.76  0.12687886237
0.18  -0.74  0.15876956925
0.18  -0.72  0.198675931113
0.18  -0.7  0.248612664191
0.18  -0.68  0.311100878953
0.18  -0.66  0.38929536112
0.18  -0.64  0.487143844464
0.18  -0.62  0.609586316459
0.18  -0.6  0.762804418935
0.18  -0.58  0.954533535015
0.18  -0.56  1.19445331837
0.18  -0.54  1.49467638112
0.18  -0.52  1.87035981224
0.18  -0.5  2.34047039977
0.18  -0.48  2.92874218978
0.18  -0.46  3.66487472564
0.18  -0.44  4.58603246181
0.18  -0.42  5.73872105196
0.18  -0.4  7.18113523757
0.18  -0.38  8.98609687305
0.18  -0.36  11.2447314165
0.18  -0.34  14.0710684978
0.18  -0.32  17.6077988292
0.18  -0.3  22.0334781014
0.18  -0.28  27.5715415626
0.18  -0.26  34.5015843908
0.18  -0.24  43.1734773616
0.18  -0.22  54.0250304559
0.18  -0.2  49.0879058189
0.18  -0.18  49.2764186663
0.18  -0.16  50.3603475233
0.18  -0.14  52.1765548476
0.18  -0.12  54.474680177
0.18  -0.1  56.9734939425
0.18  -0.08  59.4046054953
0.18  -0.06  61.537494556
0.18  -0.04  63.1904365726
0.18  -0.02  64.2337834941
0.18  6.17561557e-16  64.5901353327
0.18  0.02  64.2337834941
0.18  0.04  63.1904365726
0.18  0.06  61.537494556
0.18  0.08  59.4046054953
0.18  0.1  56.9734939425
0.18  0.12  54.474680177
0.18  0.14  52.1765548476
0.18  0.16  50.3603475233
0.18  0.18  49.2764186663
0.18  0.2  67.6040961749
0.18  0.22  54.0250304559
0.18  0.24  43.1734773616
0.18  0.26  34.5015843909
0.18  0.28  27.5715415626
0.18  0.3  22.0334781014
0.18  0.32  17.6077988292
0.18  0.34  14.0710684978
0.18  0.36  11.2447314165
0.18  0.38  8.98609687305
0.18  0.4  7.18113523758
0.18  0.42  5.73872105196
0.18  0.44  4.58603246182
0.18  0.46  3.66487472564
0.18  0.48  2.92874218978
0.18  0.5  2.34047039977
0.18  0.52  1.87035981224
0.18  0.54  1.49467638112
0.18  0.56  1.19445331838
0.18  0.58  0.954533535015
0.18  0.6  0.762804418935
0.18  0.62  0.609586316459
0.18  0.64  0.487143844465
0.18  0.66  0.38929536112
0.18  0.68  0.311100878953
0.18  0.7  0.248612664191
0.18  0.72  0.198675931113
0.18  0.74  0.15876956925
0.18  0.76  0.12687886237
0.18  0.78  0.10139377333
0.18  0.8  0.0810276595965
0.18  0.82  0.0647523156902
0.18  0.84  0.0517460631113
0.18  0.86  0.0413522670036
0.18  0.88  0.0330461852268
0.18  0.9  0.0264084761774
0.18  0.92  0.0211040278696
0.18  0.94  0.0168650394415
0.18  0.96  0.0134775009359
0.18  0.98  0.0107703887742
0.2  -1  0.00824774328432
0.2  -0.98  0.0103207943709
0.2  -0.96  0.0129149020254
0.2  -0.94  0.0161610326037
0.2  -0.92  0.0202230705509
0.2  -0.9  0.0253060922861
0.2  -0.88  0.0316667197091
0.2  -0.86  0.0396260760372
0.2  -0.84  0.0495859980615
0.2  -0.82  0.0620493233153
0.2  -0.8  0.0776452763766
0.2  -0.78  0.0971612359567
0.2  -0.76  0.121582486575
0.2  -0.74  0.152141961721
0.2  -0.72  0.19038248985
0.2  -0.7  0.23823468576
0.2  -0.68  0.298114419787
0.2  -0.66  0.373044785655
0.2  -0.64  0.466808724662
0.2  -0.62  0.584140011603
0.2  -0.6  0.730962244552
0.2  -0.58  0.91468790418
0.2  -0.56  1.14459258093
0.2  -0.54  1.43228326332
0.2  -0.52  1.79228432943
0.2  -0.5  2.24277082599
0.2  -0.48  2.80648605543
0.2  -0.46  3.51188979634
0.2  -0.44  4.39459512644
0.2  -0.42  5.49916638771
0.2  -0.4  6.88136906577
0.2  -0.38  8.61098517135
0.2  -0.36  10.7753362612
0.2  -0.34  13.4836919623
0.2  -0.32  16.872786568
0.2  -0.3  21.1137222183
0.2  -0.28  26.4206071781
0.2  -0.26  33.0613653263
0.2  -0.24  41.3712625858
0.2  -0.22  51.7698331889
0.2  -0.2  47.0388017257
0.2  -0.18  47.2194453751
0.2  -0.16  48.2581271796
0.2  -0.14  49.9985195389
0.2  -0.12  52.2007129285
0.2  -0.1  54.595217304
0.2  -0.08  56.9248455983
0.2  -0.06  58.9687002699
0.2  -0.04  60.5526425972
0.2  -0.02  61.5524365007
0.2  6.17561557e-16  61.8939129438
0.2  0.02  61.5524365007
0.2  0.04  60.5526425972
0.2  0.06  58.9687002699
0.2  0.08  56.9248455983
0.2  0.1  54.595217304
0.2  0.12  52.2007129285
0.2  0.14  49.9985195389
0.2  0.16  48.2581271796
0.2  0.18  47.2194453751
0.2  0.2  64.7820603215
0.2  0.22  51.769833189
0.2  0.24  41.3712625858
0.2  0.26  33.0613653263
0.2  0.28  26.4206071781
0.2  0.3  21.1137222184
0.2  0.32  16.872786568
0.2  0.34  13.4836919623
0.2  0.36  10.7753362612
0.2  0.38  8.61098517136
0.2  0.4  6.88136906577
0.2  0.42  5.49916638771
0.2  0.44  4.39459512644
0.2  0.46  3.51188979634
0.2  0.48  2.80648605543
0.2  0.5  2.24277082599
0.2  0.52  1.79228432943
0.2  0.54  1.43228326332
0.2  0.56  1.14459258093
0.2  0.58  0.91468790418
0.2  0.6  0.730962244553
0.2  0.62  0.584140011603
0.2  0.64  0.466808724662
0.2  0.66  0.373044785655
0.2  0.68  0.298114419787
0.2  0.7  0.23823468576
0.2  0.72  0.19038248985
0.2  0.74  0.152141961721
0.2  0.76  0.121582486575
0.2  0.78  0.0971612359567
0.2  0.8  0.0776452763766
0.2  0.82  0.0620493233154
0.2  0.84  0.0495859980615
0.2  0.86  0.0396260760373
0.2  0.88  0.0316667197091
0.2  0.9  0.0253060922861
0.2  0.92  0.0202230705509
0.2  0.94  0.0161610326037
0.2  0.96  0.0129149020254
0.2  0.98  0.0103207943709
0.22  -1  0.00772679331293
0.22  -0.98  0.00966890483621
0.22  -0.96  0.0120991615727
0.22  -0.94  0.015140257686
0.22  -0.92  0.0189457262324
0.22  -0.9  0.0237076904448
0.22  -0.88  0.0296665632836
0.22  -0.86  0.0371231849474
0.22  -0.84  0.046454011119
0.22  -0.82  0.0581301187413
0.22  -0.8  0.0727409888506
0.22  -0.78  0.0910242671706
0.22  -0.76  0.113903004961
0.22  -0.74  0.14253226027
0.22  -0.72  0.178357412296
0.22  -0.7  0.223187132938
0.22  -0.68  0.279284699571
0.22  -0.66  0.349482259069
0.22  -0.64  0.437323811836
0.22  -0.62  0.547244134532
0.22  -0.6  0.684792674616
0.22  -0.58  0.856913720251
0.22  -0.56  1.07229699028
0.22  -0.54  1.34181634415
0.22  -0.52  1.67907876059
0.22  -0.5  2.10111130079
0.22  -0.48  2.62922073813
0.22  -0.46  3.29006925394
0.22  -0.44  4.11702050676
0.22  -0.42  5.15182403313
0.22  -0.4  6.44672301844
0.22  -0.38  8.06709185121
0.22  -0.36  10.0947366204
0.22  -0.34  12.6320251851
0.22  -0.32  15.8070553278
0.22  -0.3  19.7801219102
0.22  -0.28  24.751809535
0.22  -0.26  30.9731192781
0.22  -0.24  38.7581407515
0.22  -0.22  48.4999092608
0.22  -0.2  44.0677026544
0.22  -0.18  44.236936358
0.22  -0.16  45.2100121854
0.22  -0.14  46.8404766143
0.22  -0.12  48.9035734603
0.22  -0.1  51.1468344056
0.22  -0.08  53.32931702
0.22  -0.06  55.2440762535
0.22  -0.04  56.7279724613
0.22  -0.02  57.6646166538
0.22  6.17561557e-16  57.9845245129
0.22  0.02  57.6646166538
0.22  0.04  56.7279724613
0.22  0.06  55.2440762535
0.22  0.08  53.32931702
0.22  0.1  51.1468344056
0.22  0.12  48.9035734603
0.22  0.14  46.8404766143
0.22  0.16  45.2100121854
0.22  0.18  44.236936358
0.22  0.2  60.6902486214
0.22  0.22  48.4999092609
0.22  0.24  38.7581407515
0.22  0.26  30.9731192781
0.22  0.28  24.7518095351
0.22  0.3  19.7801219102
0.22  0.32  15.8070553278
0.22  0.34  12.6320251851
0.22  0.36  10.0947366204
0.22  0.38  8.06709185121
0.22  0.4  6.44672301845
0.22  0.42  5.15182403313
0.22  0.44  4.11702050676
0.22  0.46  3.29006925394
0.22  0.48  2.62922073813
0.22  0.5  2.10111130079
0.22  0.52  1.67907876059
0.22  0.54  1.34181634415
0.22  0.56  1.07229699028
0.22  0.58  0.856913720252
0.22  0.6  0.684792674616
0.22  0.62  0.547244134533
0.22  0.64  0.437323811836
0.22  0.66  0.349482259069
0.22  0.68  0.279284699571
0.22  0.7  0.223187132938
0.22  0.72  0.178357412296
0.22  0.74  0.14253226027
0.22  0.76  0.113903004961
0.22  0.78  0.0910242671707
0.22  0.8  0.0727409888507
0.22  0.82  0.0581301187413
0.22  0.84  0.0464540111191
0.22  0.86  0.0371231849474
0.22  0.88  0.0296665632836
0.22  0.9  0.0237076904448
0.22  0.92  0.0189457262324
0.22  0.94  0.015140257686
0.22  0.96  0.0120991615727
0.22  0.98  0.00966890483622
0.24  -1  0.00705439253136
0.24  -0.98  0.00882749768249
0.24  -0.96  0.0110462686883
0.24  -0.94  0.0138227226247
0.24  -0.92  0.0172970317986
0.24  -0.9  0.0216446005007
0.24  -0.88  0.0270849204816
0.24  -0.86  0.0338926522332
0.24  -0.84  0.0424114915228
0.24  -0.82  0.0530715212492
0.24  -0.8  0.0664109246475
0.24  -0.78  0.0831031560565
0.24  -0.76  0.103990940997
0.24  -0.74  0.130128822088
0.24  -0.72  0.162836398782
0.24  -0.7  0.203764948787
0.24  -0.68  0.254980794617
0.24  -0.66  0.319069624147
0.24  -0.64  0.399267031879
0.24  -0.62  0.499621871471
0.24  -0.6  0.625200666524
0.24  -0.58  0.782343399563
0.24  -0.56  0.978983592967
0.24  -0.54  1.22504884151
0.24  -0.52  1.53296201782
0.24  -0.5  1.91826845466
0.24  -0.48  2.400420768
0.24  -0.46  3.0037609436
0.24  -0.44  3.7587492687
0.24  -0.42  4.70350215288
0.24  -0.4  5.88571647658
0.24  -0.38  7.3650776202
0.24  -0.36  9.21627274562
0.24  -0.34  11.5327614591
0.24  -0.32  14.4314942216
0.24  -0.3  18.0588167202
0.24  -0.28  22.59785829
0.24  -0.26  28.2777773986
0.24  -0.24  35.3853309612
0.24  -0.22  44.2793515764
0.24  -0.2  40.2328443235
0.24  -0.18  40.3873509767
0.24  -0.16  41.2757478279
0.24  -0.14  42.764326029
0.24  -0.12  44.6478881217
0.24  -0.1  46.6959360787
0.24  -0.08  48.6884947549
0.24  -0.06  50.4366278664
0.24  -0.04  51.7913925018
0.24  -0.02  52.6465280707
0.24  6.17561557e-16  52.9385969175
0.24  0.02  52.6465280707
0.24  0.04  51.7913925018
0.24  0.06  50.4366278664
0.24  0.08  48.6884947549
0.24  0.1  46.6959360787
0.24  0.12  44.6478881217
0.24  0.14  42.764326029
0.24  0.16  41.2757478279
0.24  0.18  40.3873509767
0.24  0.2  55.4088635818
0.24  0.22  44.2793515764
0.24  0.24  35.3853309612
0.24  0.26  28.2777773986
0.24  0.28  22.59785829
0.24  0.3  18.0588167202
0.24  0.32  14.4314942216
0.24  0.34  11.5327614591
0.24  0.36  9.21627274562
0.24  0.38  7.3650776202
0.24  0.4  5.88571647658
0.24  0.42  4.70350215288
0.24  0.44  3.7587492687
0.24  0.46  3.0037609436
0.24  0.48  2.400420768
0.24  0.5  1.91826845466
0.24  0.52  1.53296201782
0.24  0.54  1.22504884151
0.24  0.56  0.978983592968
0.24  0.58  0.782343399563
0.24  0.6  0.625200666525
0.24  0.62  0.499621871471
0.24  0.64  0.399267031879
0.24  0.66  0.319069624147
0.24  0.68  0.254980794617
0.24  0.7  0.203764948787
0.24  0.72  0.162836398782
0.24  0.74  0.130128822088
0.24  0.76  0.103990940997
0.24  0.78  0.0831031560566
0.24  0.8  0.0664109246475
0.24  0.82  0.0530715212493
0.24  0.84  0.0424114915228
0.24  0.86  0.0338926522332
0.24  0.88  0.0270849204817
0.24  0.9  0.0216446005007
0.24  0.92  0.0172970317986
0.24  0.94  0.0138227226247
0.24  0.96  0.0110462686883
0.24  0.98  0.0088274976825
0.26  -1  0.00624372048757
0.26  -0.98  0.00781306510648
0.26  -0.96  0.00977686084435
0.26  -0.94  0.0122342520723
0.26  -0.92  0.0153093028684
0.26  -0.9  0.0191572605282
0.26  -0.88  0.0239723933937
0.26  -0.86  0.0299977987029
0.26  -0.84  0.0375376756187
0.26  -0.82  0.0469726830563
0.26  -0.8  0.0587791576633
0.26  -0.78  0.0735531621958
0.26  -0.76  0.0920405783966
0.26  -0.74  0.11517476365
0.26  -0.72  0.144123672546
0.26  -0.7  0.180348822345
0.26  -0.68  0.22567907927
0.26  -0.66  0.282402990816
0.26  -0.64  0.353384325564
0.26  -0.62  0.442206653666
0.26  -0.6  0.553354267298
0.26  -0.58  0.692438575037
0.26  -0.56  0.866481399955
0.26  -0.54  1.08426948402
0.26  -0.52  1.35679809633
0.26  -0.5  1.69782614134
0.26  -0.48  2.12457079207
0.26  -0.46  2.65857671797
0.26  -0.44  3.32680379101
0.26  -0.42  4.16298818427
0.26  -0.4  5.20934557944
0.26  -0.38  6.51870247159
0.26  -0.36  8.15716317245
0.26  -0.34  10.2074471587
0.26  -0.32  12.773065255
0.26  -0.3  15.9835454911
0.26  -0.28  20.0009724655
0.26  -0.26  25.0281703636
0.26  -0.24  31.3189427579
0.26  -0.22  39.1908861585
0.26  -0.2  35.6093927662
0.26  -0.18  35.7461439253
0.26  -0.16  36.5324485712
0.26  -0.14  37.8499633211
0.26  -0.12  39.5170714633
0.26  -0.1  41.3297631914
0.26  -0.08  43.0933423195
0.26  -0.06  44.6405846192
0.26  -0.04  45.8396633028
0.26  -0.02  46.5965289645
0.26  6.17561557e-16  46.8550340356
0.26  0.02  46.5965289645
0.26  0.04  45.8396633028
0.26  0.06  44.6405846192
0.26  0.08  43.0933423195
0.26  0.1  41.3297631914
0.26  0.12  39.5170714633
0.26  0.14  37.8499633211
0.26  0.16  36.5324485712
0.26  0.18  35.7461439253
0.26  0.2  49.0414242191
0.26  0.22  39.1908861585
0.26  0.24  31.3189427579
0.26  0.26  25.0281703636
0.26  0.28  20.0009724655
0.26  0.3  15.9835454911
0.26  0.32  12.773065255
0.26  0.34  10.2074471587
0.26  0.36  8.15716317246
0.26  0.38  6.5187024716
0.26  0.4  5.20934557944
0.26  0.42  4.16298818427
0.26  0.44  3.32680379101
0.26  0.46  2.65857671797
0.26  0.48  2.12457079207
0.26  0.5  1.69782614134
0.26  0.52  1.35679809634
0.26  0.54  1.08426948402
0.26  0.56  0.866481399955
0.26  0.58  0.692438575037
0.26  0.6  0.553354267298
0.26  0.62  0.442206653666
0.26  0.64  0.353384325564
0.26  0.66  0.282402990816
0.26  0.68  0.22567907927
0.26  0.7  0.180348822345
0.26  0.72  0.144123672546
0.26  0.74  0.11517476365
0.26  0.76  0.0920405783966
0.26  0.78  0.0735531621958
0.26  0.8  0.0587791576634
0.26  0.82  0.0469726830563
0.26  0.84  0.0375376756187
0.26  0.86  0.0299977987029
0.26  0.88  0.0239723933937
0.26  0.9  0.0191572605282
0.26  0.92  0.0153093028684
0.26  0.94  0.0122342520723
0.26  0.96  0.00977686084436
0.26  0.98  0.00781306510648
0.28  -1  0.00531066694758
0.28  -0.98  0.0066454907299
0.28  -0.96  0.00831581936452
0.28  -0.94  0.0104059812155
0.28  -0.92  0.0130215003852
0.28  -0.9  0.0162944242132
0.28  -0.88  0.0203899898312
0.28  -0.86  0.0255149663392
0.28  -0.84  0.0319280937695
0.28  -0.82  0.0399531458596
0.28  -0.8  0.0499952761228
0.28  -0.78  0.0625614724652
0.28  -0.76  0.0782861530237
0.28  -0.74  0.0979631954581
0.28  -0.72  0.122586016731
0.28  -0.7  0.153397726847
0.28  -0.68  0.191953888619
0.28  -0.66  0.240201051955
0.28  -0.64  0.30057502755
0.28  -0.62  0.376123861454
0.28  -0.6  0.470661719001
0.28  -0.58  0.588961447105
0.28  -0.56  0.736995536651
0.28  -0.54  0.922237650212
0.28  -0.52  1.15403993806
0.28  -0.5  1.44410519169
0.28  -0.48  1.80707767199
0.28  -0.46  2.26128244079
0.28  -0.44  2.82965052154
0.28  -0.42  3.54087659711
0.28  -0.4  4.43086769216
0.28  -0.38  5.54455597843
0.28  -0.36  6.93816722453
0.28  -0.34  8.68205941518
0.28  -0.32  10.8642748509
0.28  -0.3  13.5949850596
0.28  -0.28  17.0120529264
0.28  -0.26  21.2879928519
0.28  -0.24  26.6386803299
0.28  -0.22  33.3342506575
0.28  -0.2  30.2879710204
0.28  -0.18  30.4042862626
0.28  -0.16  31.0730865559
0.28  -0.14  32.1937136002
0.28  -0.12  33.611691251
0.28  -0.1  35.1534966642
0.28  -0.08  36.653528801
0.28  -0.06  37.9695532063
0.28  -0.04  38.9894431173
0.28  -0.02  39.6332037503
0.28  6.17561557e-16  39.8530781568
0.28  0.02  39.6332037503
0.28  0.04  38.9894431173
0.28  0.06  37.9695532063
0.28  0.08  36.653528801
0.28  0.1  35.1534966642
0.28  0.12  33.611691251
0.28  0.14  32.1937136002
0.28  0.16  31.0730865559
0.28  0.18  30.4042862626
0.28  0.2  41.7127370101
0.28  0.22  33.3342506575
0.28  0.24  26.6386803299
0.28  0.26  21.2879928519
0.28  0.28  17.0120529264
0.28  0.3  13.5949850596
0.28  0.32  10.8642748509
0.28  0.34  8.68205941518
0.28  0.36  6.93816722453
0.28  0.38  5.54455597843
0.28  0.4  4.43086769216
0.28  0.42  3.54087659712
0.28  0.44  2.82965052154
0.28  0.46  2.26128244079
0.28  0.48  1.80707767199
0.28  0.5  1.44410519169
0.28  0.52  1.15403993806
0.28  0.54  0.922237650212
0.28  0.56  0.736995536651
0.28  0.58  0.588961447105
0.28  0.6  0.470661719001
0.28  0.62  0.376123861454
0.28  0.64  0.30057502755
0.28  0.66  0.240201051955
0.28  0.68  0.191953888619
0.28  0.7  0.153397726847
0.28  0.72  0.122586016731
0.28  0.74  0.0979631954581
0.28  0.76  0.0782861530237
0.28  0.78  0.0625614724652
0.28  0.8  0.0499952761228
0.28  0.82  0.0399531458596
0.28  0.84  0.0319280937695
0.28  0.86  0.0255149663392
0.28  0.88  0.0203899898312
0.28  0.9  0.0162944242132
0.28  0.92  0.0130215003852
0.28  0.94  0.0104059812155
0.28  0.96  0.00831581936453
0.28  0.98  0.00664549072991
0.3  -1  0.00427352044441
0.3  -0.98  0.00534765986602
0.3  -0.96  0.00669178173233
0.3  -0.94  0.00837374550271
0.3  -0.92  0.0104784669538
0.3  -0.9  0.0131122052451
0.3  -0.88  0.0164079275287
0.3  -0.86  0.0205320219409
0.3  -0.84  0.0256926978893
0.3  -0.82  0.0321504977312
0.3  -0.8  0.0402314505397
0.3  -0.78  0.0503435320368
0.3  -0.76  0.062997261693
0.3  -0.74  0.0788314768601
0.3  -0.72  0.0986455851721
