-0.06  0.5  7.7570617943
-0.06  0.52  6.8887148642
-0.06  0.54  6.1175730887
-0.06  0.56  5.43275505423
-0.06  0.58  4.8245974427
-0.06  0.6  4.28451867454
-0.06  0.62  3.80489781594
-0.06  0.64  3.37896704145
-0.06  0.66  3.00071613471
-0.06  0.68  2.66480767957
-0.06  0.7  2.36650174503
-0.06  0.72  2.10158900102
-0.06  0.74  1.86633132153
-0.06  0.76  1.6574090367
-0.06  0.78  1.4718740897
-0.06  0.8  1.30710843729
-0.06  0.82  1.16078710727
-0.06  0.84  1.03084539121
-0.06  0.86  0.915449709881
-0.06  0.88  0.812971739959
-0.06  0.9  0.721965437138
-0.06  0.92  0.641146631306
-0.06  0.94  0.569374905902
-0.06  0.96  0.505637505746
-0.06  0.98  0.449035046271
-0.04  -1  0.474096901908
-0.04  -0.98  0.533858497134
-0.04  -0.96  0.601153253302
-0.04  -0.94  0.676930752054
-0.04  -0.92  0.762260273166
-0.04  -0.9  0.85834588292
-0.04  -0.88  0.966543424419
-0.04  -0.86  1.0883796496
-0.04  -0.84  1.22557376289
-0.04  -0.82  1.38006168054
-0.04  -0.8  1.55402334789
-0.04  -0.78  1.74991350012
-0.04  -0.76  1.9704963005
-0.04  -0.74  2.21888434487
-0.04  -0.72  2.4985825828
-0.04  -0.7  2.81353777519
-0.04  -0.68  3.16819418614
-0.04  -0.66  3.567556295
-0.04  -0.64  4.01725941348
-0.04  -0.62  4.5236492043
-0.04  -0.6  5.09387122348
-0.04  -0.58  5.7359717497
-0.04  -0.56  6.45901132358
-0.04  -0.54  7.27319259903
-0.04  -0.52  8.19000431064
-0.04  -0.5  9.22238338872
-0.04  -0.48  10.3848975095
-0.04  -0.46  11.6939506565
-0.04  -0.44  13.1680145935
-0.04  -0.42  14.8278895155
-0.04  -0.4  16.6969975559
-0.04  -0.38  18.801713291
-0.04  -0.36  21.1717359061
-0.04  -0.34  23.8405082739
-0.04  -0.32  26.8456888598
-0.04  -0.3  30.2296831124
-0.04  -0.28  34.0402418372
-0.04  -0.26  38.3311349982
-0.04  -0.24  43.1629104541
-0.04  -0.22  48.6037483354
-0.04  -0.2  42.1608866681
-0.04  -0.18  42.4946223841
-0.04  -0.16  41.9861968973
-0.04  -0.14  40.6662965876
-0.04  -0.12  38.6183308299
-0.04  -0.1  35.9842639791
-0.04  -0.08  32.9756070951
-0.04  -0.06  29.8899061233
-0.04  -0.04  27.1253535081
-0.04  -0.02  25.1616507516
-0.04  6.17561557e-16  24.4434705377
-0.04  0.02  25.1616507516
-0.04  0.04  27.1253535081
-0.04  0.06  29.8899061233
-0.04  0.08  32.9756070952
-0.04  0.1  35.9842639791
-0.04  0.12  38.6183308299
-0.04  0.14  40.6662965876
-0.04  0.16  41.9861968973
-0.04  0.18  42.4946223841
-0.04  0.2  54.7304231203
-0.04  0.22  48.6037483354
-0.04  0.24  43.1629104541
-0.04  0.26  38.3311349982
-0.04  0.28  34.0402418372
-0.04  0.3  30.2296831124
-0.04  0.32  26.8456888598
-0.04  0.34  23.8405082739
-0.04  0.36  21.1717359061
-0.04  0.38  18.801713291
-0.04  0.4  16.6969975559
-0.04  0.42  14.8278895155
-0.04  0.44  13.1680145935
-0.04  0.46  11.6939506565
-0.04  0.48  10.3848975095
-0.04  0.5  9.22238338872
-0.04  0.52  8.19000431064
-0.04  0.54  7.27319259903
-0.04  0.56  6.45901132358
-0.04  0.58  5.7359717497
-0.04  0.6  5.09387122348
-0.04  0.62  4.5236492043
-0.04  0.64  4.01725941348
-0.04  0.66  3.567556295
-0.04  0.68  3.16819418614
-0.04  0.7  2.81353777519
-0.04  0.72  2.4985825828
-0.04  0.74  2.21888434487
-0.04  0.76  1.9704963005
-0.04  0.78  1.74991350012
-0.04  0.8  1.55402334789
-0.04  0.82  1.38006168054
-0.04  0.84  1.22557376289
-0.04  0.86  1.0883796496
-0.04  0.88  0.966543424419
-0.04  0.9  0.85834588292
-0.04  0.92  0.762260273166
-0.04  0.94  0.676930752054
-0.04  0.96  0.601153253302
-0.04  0.98  0.533858497134
-0.02  -1  0.563654578079
-0.02  -0.98  0.634705235881
-0.02  -0.96  0.714712080984
-0.02  -0.94  0.804804072548
-0.02  -0.92  0.906252479037
-0.02  -0.9  1.02048881681
-0.02  -0.88  1.14912504995
-0.02  -0.86  1.29397633631
-0.02  -0.84  1.45708664083
-0.02  -0.82  1.64075757748
-0.02  -0.8  1.84758088684
-0.02  -0.78  2.08047500757
-0.02  -0.76  2.34272625785
-0.02  -0.74  2.63803520795
-0.02  -0.72  2.97056889812
-0.02  -0.7  3.34501963882
-0.02  -0.68  3.76667122286
-0.02  -0.66  4.24147348388
-0.02  -0.64  4.77612625315
-0.02  -0.62  5.37817389941
-0.02  -0.6  6.05611178581
-0.02  -0.58  6.81950614619
-0.02  -0.56  7.67912907204
-0.02  -0.54  8.64711051517
-0.02  -0.52  9.73710945084
-0.02  -0.5  10.9645066165
-0.02  -0.48  12.3466215463
-0.02  -0.46  13.9029569627
-0.02  -0.44  15.6554739758
-0.02  -0.42  17.6289019714
-0.02  -0.4  19.8510875618
-0.02  -0.38  22.3533875239
-0.02  -0.36  25.1711112672
-0.02  -0.34  28.3440190776
-0.02  -0.32  31.9168831659
-0.02  -0.3  35.9401194388
-0.02  -0.28  40.4704989069
-0.02  -0.26  45.5719487678
-0.02  -0.24  51.316454469
-0.02  -0.22  57.7850754789
-0.02  -0.2  50.1251467594
-0.02  -0.18  50.5219256952
-0.02  -0.16  49.9174578068
-0.02  -0.14  48.3482261809
-0.02  -0.12  45.9133963594
-0.02  -0.1  42.7817499946
-0.02  -0.08  39.2047529299
-0.02  -0.06  35.5361580237
-0.02  -0.04  32.2493769213
-0.02  -0.02  29.914727519
-0.02  6.17561557e-16  29.0608818941
-0.02  0.02  29.914727519
-0.02  0.04  32.2493769213
-0.02  0.06  35.5361580237
-0.02  0.08  39.2047529299
-0.02  0.1  42.7817499946
-0.02  0.12  45.9133963594
-0.02  0.14  48.3482261809
-0.02  0.16  49.9174578068
-0.02  0.18  50.5219256952
-0.02  0.2  65.0690890993
-0.02  0.22  57.7850754789
-0.02  0.24  51.316454469
-0.02  0.26  45.5719487678
-0.02  0.28  40.4704989069
-0.02  0.3  35.9401194388
-0.02  0.32  31.9168831659
-0.02  0.34  28.3440190776
-0.02  0.36  25.1711112672
-0.02  0.38  22.3533875239
-0.02  0.4  19.8510875618
-0.02  0.42  17.6289019714
-0.02  0.44  15.6554739758
-0.02  0.46  13.9029569627
-0.02  0.48  12.3466215463
-0.02  0.5  10.9645066165
-0.02  0.52  9.73710945084
-0.02  0.54  8.64711051517
-0.02  0.56  7.67912907204
-0.02  0.58  6.81950614619
-0.02  0.6  6.05611178581
-0.02  0.62  5.37817389941
-0.02  0.64  4.77612625315
-0.02  0.66  4.24147348388
-0.02  0.68  3.76667122286
-0.02  0.7  3.34501963882
-0.02  0.72  2.97056889812
-0.02  0.74  2.63803520795
-0.02  0.76  2.34272625785
-0.02  0.78  2.08047500757
-0.02  0.8  1.84758088684
-0.02  0.82  1.64075757748
-0.02  0.84  1.45708664083
-0.02  0.86  1.29397633631
-0.02  0.88  1.14912504995
-0.02  0.9  1.02048881681
-0.02  0.92  0.906252479037
-0.02  0.94  0.804804072548
-0.02  0.96  0.714712080984
-0.02  0.98  0.634705235881
2.8449465e-16  -1  0.670129844998
2.8449465e-16  -0.98  0.754602087665
2.8449465e-16  -0.96  0.849722355987
2.8449465e-16  -0.94  0.956832871345
2.8449465e-16  -0.92  1.07744504689
2.8449465e-16  -0.9  1.21326081474
2.8449465e-16  -0.88  1.36619664162
2.8449465e-16  -0.86  1.53841057166
2.8449465e-16  -0.84  1.7323326781
2.8449465e-16  -0.82  1.95069935354
2.8449465e-16  -0.8  2.19659192256
2.8449465e-16  -0.78  2.47348012163
2.8449465e-16  -0.76  2.7852710598
2.8449465e-16  -0.74  3.13636435107
2.8449465e-16  -0.72  3.53171419637
2.8449465e-16  -0.7  3.97689929125
2.8449465e-16  -0.68  4.47820154559
2.8449465e-16  -0.66  5.04269472627
2.8449465e-16  -0.64  5.67834427358
2.8449465e-16  -0.62  6.39411969981
2.8449465e-16  -0.6  7.20012115603
2.8449465e-16  -0.58  8.10772195319
2.8449465e-16  -0.56  9.12972904842
2.8449465e-16  -0.54  10.2805637612
2.8449465e-16  -0.52  11.5764652693
2.8449465e-16  -0.5  13.0357197567
2.8449465e-16  -0.48  14.6789184455
2.8449465e-16  -0.46  16.5292481544
2.8449465e-16  -0.44  18.6128184828
2.8449465e-16  -0.42  20.9590302377
2.8449465e-16  -0.4  23.6009903019
2.8449465e-16  -0.38  26.5759787983
2.8449465e-16  -0.36  29.9259751414
2.8449465e-16  -0.34  33.6982503998
2.8449465e-16  -0.32  37.9460343278
2.8449465e-16  -0.3  42.7292664788
2.8449465e-16  -0.28  48.1154419998
2.8449465e-16  -0.26  54.18056404
2.8449465e-16  -0.24  61.010216215
2.8449465e-16  -0.22  68.7007702587
2.8449465e-16  -0.2  59.5938685407
2.8449465e-16  -0.18  60.065599663
2.8449465e-16  -0.16  59.346946807
2.8449465e-16  -0.14  57.4812847737
2.8449465e-16  -0.12  54.5865116371
2.8449465e-16  -0.1  50.8632921785
2.8449465e-16  -0.08  46.6105945482
2.8449465e-16  -0.06  42.2489960951
2.8449465e-16  -0.04  38.3413366945
2.8449465e-16  -0.02  35.5656682214
2.8449465e-16  6.17561557e-16  34.5505297688
2.8449465e-16  0.02  35.5656682214
2.8449465e-16  0.04  38.3413366945
2.8449465e-16  0.06  42.2489960951
2.8449465e-16  0.08  46.6105945482
2.8449465e-16  0.1  50.8632921785
2.8449465e-16  0.12  54.5865116371
2.8449465e-16  0.14  57.4812847737
2.8449465e-16  0.16  59.346946807
2.8449465e-16  0.18  60.065599663
2.8449465e-16  0.2  77.3607459038
2.8449465e-16  0.22  68.7007702587
2.8449465e-16  0.24  61.010216215
2.8449465e-16  0.26  54.18056404
2.8449465e-16  0.28  48.1154419998
2.8449465e-16  0.3  42.7292664788
2.8449465e-16  0.32  37.9460343278
2.8449465e-16  0.34  33.6982503998
2.8449465e-16  0.36  29.9259751414
2.8449465e-16  0.38  26.5759787983
2.8449465e-16  0.4  23.6009903019
2.8449465e-16  0.42  20.9590302377
2.8449465e-16  0.44  18.6128184828
2.8449465e-16  0.46  16.5292481544
2.8449465e-16  0.48  14.6789184455
2.8449465e-16  0.5  13.0357197567
2.8449465e-16  0.52  11.5764652693
2.8449465e-16  0.54  10.2805637612
2.8449465e-16  0.56  9.12972904842
2.8449465e-16  0.58  8.10772195319
2.8449465e-16  0.6  7.20012115603
2.8449465e-16  0.62  6.39411969981
2.8449465e-16  0.64  5.67834427358
2.8449465e-16  0.66  5.04269472627
2.8449465e-16  0.68  4.47820154559
2.8449465e-16  0.7  3.97689929125
2.8449465e-16  0.72  3.53171419637
2.8449465e-16  0.74  3.13636435107
2.8449465e-16  0.76  2.7852710598
2.8449465e-16  0.78  2.47348012163
2.8449465e-16  0.8  2.19659192256
2.8449465e-16  0.82  1.95069935354
2.8449465e-16  0.84  1.7323326781
2.8449465e-16  0.86  1.53841057166
2.8449465e-16  0.88  1.36619664162
2.8449465e-16  0.9  1.21326081474
2.8449465e-16  0.92  1.07744504689
2.8449465e-16  0.94  0.956832871345
2.8449465e-16  0.96  0.849722355987
2.8449465e-16  0.98  0.754602087665
0.02  -1  0.780347013676
0.02  -0.98  0.878712521191
0.02  -0.96  0.989477349648
0.02  -0.94  1.11420447741
0.02  -0.92  1.2546539018
0.02  -0.9  1.41280747405
0.02  -0.88  1.59089686475
0.02  -0.86  1.79143505451
0.02  -0.84  2.01725179402
0.02  -0.82  2.2715335341
0.02  -0.8  2.55786838898
0.02  -0.78  2.88029676742
0.02  -0.76  3.24336838602
0.02  -0.74  3.65220646927
0.02  -0.72  4.11258004232
0.02  -0.7  4.63098533633
0.02  -0.68  5.21473745547
0.02  -0.66  5.87207359872
0.02  -0.64  6.61226929317
0.02  -0.62  7.44576927901
0.02  -0.6  8.38433489293
0.02  -0.58  9.44121002984
0.02  -0.56  10.6313080245
0.02  -0.54  11.9714220905
0.02  -0.52  13.4804622854
0.02  -0.5  15.1797223466
0.02  -0.48  17.0931801627
0.02  -0.46  19.24783612
0.02  -0.44  21.6740940992
0.02  -0.42  24.4061904981
0.02  -0.4  27.4826773338
0.02  -0.38  30.9469662418
0.02  -0.36  34.8479410479
0.02  -0.34  39.2406475579
0.02  -0.32  44.1870702962
0.02  -0.3  49.7570071565
0.02  -0.28  56.0290543042
0.02  -0.26  63.0917152302
0.02  -0.24  71.0446496041
0.02  -0.22  80.00007955
0.02  -0.2  69.395353298
0.02  -0.18  69.9446706807
0.02  -0.16  69.1078200103
0.02  -0.14  66.9353100003
0.02  -0.12  63.5644295818
0.02  -0.1  59.2288471458
0.02  -0.08  54.2767025418
0.02  -0.06  49.1977460483
0.02  -0.04  44.6473885818
0.02  -0.02  41.415202133
0.02  6.17561557e-16  40.2331024759
0.02  0.02  41.415202133
0.02  0.04  44.6473885818
0.02  0.06  49.1977460483
0.02  0.08  54.2767025418
0.02  0.1  59.2288471458
0.02  0.12  63.5644295818
0.02  0.14  66.9353100003
0.02  0.16  69.1078200103
0.02  0.18  69.9446706807
0.02  0.2  90.0843731889
0.02  0.22  80.00007955
0.02  0.24  71.0446496041
0.02  0.26  63.0917152302
0.02  0.28  56.0290543042
0.02  0.3  49.7570071565
0.02  0.32  44.1870702962
0.02  0.34  39.2406475579
0.02  0.36  34.8479410479
0.02  0.38  30.9469662418
0.02  0.4  27.4826773338
0.02  0.42  24.4061904981
0.02  0.44  21.6740940992
0.02  0.46  19.24783612
0.02  0.48  17.0931801627
0.02  0.5  15.1797223466
0.02  0.52  13.4804622854
0.02  0.54  11.9714220905
0.02  0.56  10.6313080245
0.02  0.58  9.44121002984
0.02  0.6  8.38433489293
0.02  0.62  7.44576927901
0.02  0.64  6.61226929317
0.02  0.66  5.87207359872
0.02  0.68  5.21473745547
0.02  0.7  4.63098533633
0.02  0.72  4.11258004232
0.02  0.74  3.65220646927
0.02  0.76  3.24336838602
0.02  0.78  2.88029676742
0.02  0.8  2.55786838898
0.02  0.82  2.2715335341
0.02  0.84  2.01725179402
0.02  0.86  1.79143505451
0.02  0.88  1.59089686475
0.02  0.9  1.41280747405
0.02  0.92  1.2546539018
0.02  0.94  1.11420447741
0.02  0.96  0.989477349648
0.02  0.98  0.878712521191
0.04  -1  0.877935718524
0.04  -0.98  0.98860262825
0.04  -0.96  1.11321949428
0.04  -0.94  1.25354475805
0.04  -0.92  1.4115585188
0.04  -0.9  1.58949047427
0.04  -0.88  1.78985138352
0.04  -0.86  2.01546849569
0.04  -0.84  2.26952544469
0.04  -0.82  2.55560717278
0.04  -0.8  2.8777505169
0.04  -0.78  3.24050117159
0.04  -0.76  3.64897783231
0.04  -0.74  4.10894442422
0.04  -0.72  4.62689143568
0.04  -0.7  5.21012750413
0.04  -0.68  5.86688254667
0.04  -0.66  6.60642389061
0.04  -0.64  7.43918704273
0.04  -0.62  8.37692294244
0.04  -0.6  9.43286377671
0.04  -0.58  10.6219096966
0.04  -0.56  11.96083907
0.04  -0.54  13.4685452377
0.04  -0.52  15.1663031128
0.04  -0.5  17.0780693869
0.04  -0.48  19.2308205773
0.04  -0.46  21.654933687
0.04  -0.44  24.3846148481
0.04  -0.42  27.4583819966
0.04  -0.4  30.9196083911
0.04  -0.38  34.8171346432
0.04  -0.36  39.2059578966
0.04  -0.34  44.1480078802
0.04  -0.32  49.7130207844
0.04  -0.3  55.979523294
0.04  -0.28  63.0359406606
0.04  -0.26  70.9818444522
0.04  -0.24  79.9293575861
0.04  -0.22  90.0047364708
0.04  -0.2  78.0738034388
0.04  -0.18  78.6918174027
0.04  -0.16  77.7503117882
0.04  -0.14  75.3061118321
0.04  -0.12  71.5136755564
0.04  -0.1  66.6358934743
0.04  -0.08  61.0644431388
0.04  -0.06  55.3503220614
0.04  -0.04  50.2309055944
0.04  -0.02  46.5945080909
0.04  6.17561557e-16  45.2645773119
0.04  0.02  46.5945080909
0.04  0.04  50.2309055944
0.04  0.06  55.3503220614
0.04  0.08  61.0644431388
0.04  0.1  66.6358934743
0.04  0.12  71.5136755564
0.04  0.14  75.3061118321
0.04  0.16  77.7503117882
0.04  0.18  78.6918174027
0.04  0.2  101.350152582
0.04  0.22  90.0047364708
0.04  0.24  79.9293575861
0.04  0.26  70.9818444522
0.04  0.28  63.0359406606
0.04  0.3  55.979523294
0.04  0.32  49.7130207844
0.04  0.34  44.1480078802
0.04  0.36  39.2059578966
0.04  0.38  34.8171346432
0.04  0.4  30.9196083911
0.04  0.42  27.4583819966
0.04  0.44  24.3846148481
0.04  0.46  21.654933687
0.04  0.48  19.2308205773
0.04  0.5  17.0780693869
0.04  0.52  15.1663031128
0.04  0.54  13.4685452377
0.04  0.56  11.96083907
0.04  0.58  10.6219096966
0.04  0.6  9.43286377671
0.04  0.62  8.37692294244
0.04  0.64  7.43918704273
0.04  0.66  6.60642389061
0.04  0.68  5.86688254667
0.04  0.7  5.21012750413
0.04  0.72  4.62689143568
0.04  0.74  4.10894442422
0.04  0.76  3.64897783231
0.04  0.78  3.24050117159
0.04  0.8  2.8777505169
0.04  0.82  2.55560717278
0.04  0.84  2.26952544469
0.04  0.86  2.01546849569
0.04  0.88  1.78985138352
0.04  0.9  1.58949047427
0.04  0.92  1.4115585188
0.04  0.94  1.25354475805
0.04  0.96  1.11321949428
0.04  0.98  0.98860262825
0.06  -1  0.96131666801
0.06  -0.98  1.08249404202
0.06  -0.96  1.21894625361
0.06  -0.94  1.37259875021
0.06  -0.92  1.54561968873
0.06  -0.9  1.74045052994
0.06  -0.88  1.95984048938
0.06  -0.86  2.20688533098
0.06  -0.84  2.48507105067
0.06  -0.82  2.79832306654
0.06  -0.8  3.15106160953
0.06  -0.78  3.54826409637
0.06  -0.76  3.99553536482
0.06  -0.74  4.49918676229
0.06  -0.72  5.06632520393
0.06  -0.7  5.70495345673
0.06  -0.68  6.42408306482
0.06  -0.66  7.23386150942
0.06  -0.64  8.14571539775
0.06  -0.62  9.17251170136
0.06  -0.6  10.3287393192
0.06  -0.58  11.6307135272
0.06  -0.56  13.0968061998
0.06  -0.54  14.7477050513
0.06  -0.52  16.6067055558
0.06  -0.5  18.7000396642
0.06  -0.48  21.0572459582
0.06  -0.46  23.7115864621
0.06  -0.44  26.7005159966
0.06  -0.42  30.0662106951
0.06  -0.4  33.8561631422
0.06  -0.38  38.1238525312
0.06  -0.36  42.9294992972
0.06  -0.34  48.3409148748
0.06  -0.32  54.4344585701
0.06  -0.3  61.2961150508
0.06  -0.28  69.0227076563
0.06  -0.26  77.7232646517
0.06  -0.24  87.520557701
0.06  -0.22  98.552834272
0.06  -0.2  85.4887744024
0.06  -0.18  86.1654835418
0.06  -0.16  85.134559499
0.06  -0.14  82.4582244232
0.06  -0.12  78.305605812
0.06  -0.1  72.964561907
0.06  -0.08  66.8639693926
0.06  -0.06  60.6071561445
0.06  -0.04  55.0015289027
0.06  -0.02  51.0197686692
0.06  6.17561557e-16  49.5635292223
0.06  0.02  51.0197686692
0.06  0.04  55.0015289027
0.06  0.06  60.6071561445
0.06  0.08  66.8639693926
0.06  0.1  72.964561907
0.06  0.12  78.305605812
0.06  0.14  82.4582244232
0.06  0.16  85.134559499
0.06  0.18  86.1654835418
0.06  0.2  110.975768416
0.06  0.22  98.552834272
0.06  0.24  87.520557701
0.06  0.26  77.7232646517
0.06  0.28  69.0227076563
0.06  0.3  61.2961150508
0.06  0.32  54.4344585701
0.06  0.34  48.3409148748
0.06  0.36  42.9294992972
0.06  0.38  38.1238525312
0.06  0.4  33.8561631422
0.06  0.42  30.0662106951
0.06  0.44  26.7005159966
0.06  0.46  23.7115864621
0.06  0.48  21.0572459582
0.06  0.5  18.7000396642
0.06  0.52  16.6067055558
0.06  0.54  14.7477050513
0.06  0.56  13.0968061998
0.06  0.58  11.6307135272
0.06  0.6  10.3287393192
0.06  0.62  9.17251170136
0.06  0.64  8.14571539775
0.06  0.66  7.23386150942
0.06  0.68  6.42408306482
0.06  0.7  5.70495345673
0.06  0.72  5.06632520393
0.06  0.74  4.49918676229
0.06  0.76  3.99553536482
0.06  0.78  3.54826409637
0.06  0.8  3.15106160953
0.06  0.82  2.79832306654
0.06  0.84  2.48507105067
0.06  0.86  2.20688533098
0.06  0.88  1.95984048938
0.06  0.9  1.74045052994
0.06  0.92  1.54561968873
0.06  0.94  1.37259875021
0.06  0.96  1.21894625361
0.06  0.98  1.08249404202
0.08  -1  1.02914049668
0.08  -0.98  1.15886730473
0.08  -0.96  1.30494663684
0.08  -0.94  1.46943978664
0.08  -0.92  1.65466788112
0.08  -0.9  1.86324463356
0.08  -0.88  2.09811322509
0.08  -0.86  2.36258783522
0.08  -0.84  2.66040040756
0.08  -0.82  2.99575331043
0.08  -0.8  3.37337863558
0.08  -0.78  3.7986049717
0.08  -0.76  4.27743259498
0.08  -0.74  4.81661813768
0.08  -0.72  5.42376992953
0.08  -0.7  6.10745535718
0.08  -0.68  6.87732175674
0.08  -0.66  7.74423254526
0.08  -0.64  8.720420512
0.08  -0.62  9.81966043266
0.08  -0.6  11.0574634423
0.08  -0.58  12.4512959095
0.08  -0.56  14.0208259005
0.08  -0.54  15.788200711
0.08  -0.52  17.7783593821
0.08  -0.5  20.019384609
0.08  -0.48  22.5428990105
0.08  -0.46  25.3845113485
0.08  -0.44  28.5843189957
0.08  -0.42  32.1874737406
0.08  -0.4  36.2448189148
0.08  -0.38  40.813606832
0.08  -0.36  45.9583066632
0.08  -0.34  51.7515141468
0.08  -0.32  58.2749759714
0.08  -0.3  65.6207432857
0.08  -0.28  73.8924706117
0.08  -0.26  83.2068784916
0.08  -0.24  93.6954005056
0.08  -0.22  105.506037903
0.08  -0.2  91.5202686862
0.08  -0.18  92.2447217235
0.08  -0.16  91.1410628389
0.08  -0.14  88.2759041448
0.08  -0.12  83.8303056004
0.08  -0.1  78.1124347258
0.08  -0.08  71.5814267665
0.08  -0.06  64.8831762231
0.08  -0.04  58.8820548489
0.08  -0.02  54.6193692629
0.08  6.17561557e-16  53.0603876728
0.08  0.02  54.6193692629
0.08  0.04  58.8820548489
0.08  0.06  64.8831762231
0.08  0.08  71.5814267665
0.08  0.1  78.1124347258
0.08  0.12  83.8303056004
0.08  0.14  88.2759041448
0.08  0.16  91.1410628389
0.08  0.18  92.2447217235
0.08  0.2  118.805448014
0.08  0.22  105.506037903
0.08  0.24  93.6954005056
0.08  0.26  83.2068784916
0.08  0.28  73.8924706117
0.08  0.3  65.6207432857
0.08  0.32  58.2749759714
0.08  0.34  51.7515141468
0.08  0.36  45.9583066632
0.08  0.38  40.813606832
0.08  0.4  36.2448189148
0.08  0.42  32.1874737406
0.08  0.44  28.5843189957
0.08  0.46  25.3845113485
0.08  0.48  22.5428990105
0.08  0.5  20.019384609
0.08  0.52  17.7783593821
0.08  0.54  15.788200711
0.08  0.56  14.0208259005
0.08  0.58  12.4512959095
0.08  0.6  11.0574634423
0.08  0.62  9.81966043266
0.08  0.64  8.720420512
0.08  0.66  7.74423254526
0.08  0.68  6.87732175674
0.08  0.7  6.10745535718
0.08  0.72  5.42376992953
0.08  0.74  4.81661813768
0.08  0.76  4.27743259498
0.08  0.78  3.7986049717
0.08  0.8  3.37337863558
0.08  0.82  2.99575331043
0.08  0.84  2.66040040756
0.08  0.86  2.36258783522
0.08  0.88  2.09811322509
0.08  0.9  1.86324463356
0.08  0.92  1.65466788112
0.08  0.94  1.46943978664
0.08  0.96  1.30494663684
0.08  0.98  1.15886730473
0.1  -1  1.08030960211
0.1  -0.98  1.21648645731
0.1  -0.96  1.36982888787
0.1  -0.94  1.54250067542
0.1  -0.92  1.73693835394
0.1  -0.9  1.95588559115
0.1  -0.88  2.20243190381
0.1  -0.86  2.48005625321
0.1  -0.84  2.79267613608
0.1  -0.82  3.14470286347
0.1  -0.8  3.54110380783
0.1  -0.78  3.98747249652
0.1  -0.76  4.49010754086
0.1  -0.74  5.05610151445
0.1  -0.72  5.69344103495
0.1  -0.7  6.41111946146
0.1  -0.68  7.2192637979
0.1  -0.66  8.12927759294
0.1  -0.64  9.15400185297
0.1  -0.62  10.3078962388
0.1  -0.6  11.6072431026
0.1  -0.58  13.070377245
0.1  -0.56  14.7179446331
0.1  -0.54  16.5731937313
0.1  -0.52  18.6623035555
0.1  -0.5  21.0147530792
0.1  -0.48  23.6637372051
0.1  -0.46  26.6466351711
0.1  -0.44  30.0055380005
0.1  -0.42  33.7878424393
0.1  -0.4  38.0469197615
0.1  -0.38  42.8428688792
0.1  -0.36  48.2433643854
0.1  -0.34  54.3246114958
0.1  -0.32  61.1724213633
0.1  -0.3  68.883421941
0.1  -0.28  77.5664214782
0.1  -0.26  87.3439438895
0.1  -0.24  98.3539576634
0.1  -0.22  110.751822706
0.1  -0.2  96.0706777828
0.1  -0.18  96.831150794
0.1  -0.16  95.6726177324
0.1  -0.14  92.66500268
0.1  -0.12  87.9983679394
0.1  -0.1  81.9962031919
0.1  -0.08  75.1404719942
0.1  -0.06  68.1091828721
0.1  -0.04  61.809684344
0.1  -0.02  57.3350570369
0.1  6.17561557e-16  55.6985625186
0.1  0.02  57.3350570369
0.1  0.04  61.809684344
0.1  0.06  68.1091828721
0.1  0.08  75.1404719942
0.1  0.1  81.9962031919
0.1  0.12  87.9983679394
0.1  0.14  92.66500268
0.1  0.16  95.6726177324
0.1  0.18  96.831150794
0.1  0.2  124.712482589
0.1  0.22  110.751822706
0.1  0.24  98.3539576634
0.1  0.26  87.3439438895
0.1  0.28  77.5664214782
0.1  0.3  68.883421941
0.1  0.32  61.1724213633
0.1  0.34  54.3246114958
0.1  0.36  48.2433643854
0.1  0.38  42.8428688792
0.1  0.4  38.0469197615
0.1  0.42  33.7878424393
0.1  0.44  30.0055380005
0.1  0.46  26.6466351711
0.1  0.48  23.6637372051
0.1  0.5  21.0147530792
0.1  0.52  18.6623035555
0.1  0.54  16.5731937313
0.1  0.56  14.7179446331
0.1  0.58  13.070377245
0.1  0.6  11.6072431026
0.1  0.62  10.3078962388
0.1  0.64  9.15400185297
0.1  0.66  8.12927759294
0.1  0.68  7.2192637979
0.1  0.7  6.41111946146
0.1  0.72  5.69344103495
0.1  0.74  5.05610151445
0.1  0.76  4.49010754086
0.1  0.78  3.98747249652
0.1  0.8  3.54110380783
0.1  0.82  3.14470286347
0.1  0.84  2.79267613608
0.1  0.86  2.48005625321
0.1  0.88  2.20243190381
0.1  0.9  1.95588559115
0.1  0.92  1.73693835394
0.1  0.94  1.54250067542
0.1  0.96  1.36982888787
0.1  0.98  1.21648645731
0.12  -1  1.11399590759
0.12  -0.98  1.25441904101
0.12  -0.96  1.41254300823
0.12  -0.94  1.59059906208
0.12  -0.92  1.79109971275
0.12  -0.9  2.01687418125
0.12  -0.88  2.2711083219
0.12  -0.86  2.55738957728
0.12  -0.84  2.8797575998
0.12  -0.82  3.2427612544
0.12  -0.8  3.65152280657
0.12  -0.78  4.1118102015
0.12  -0.76  4.63011845435
0.12  -0.74  5.21376129995
0.12  -0.72  5.87097439533
0.12  -0.7  6.6110315313
0.12  -0.68  7.44437549287
0.12  -0.66  8.38276541511
0.12  -0.64  9.43944271378
0.12  -0.62  10.629317932
0.12  -0.6  11.9691811398
0.12  -0.58  13.4779388549
0.12  -0.56  15.1768808288
0.12  -0.54  17.0899804614
0.12  -0.52  19.244233085
0.12  -0.5  21.6700368889
0.12  -0.48  24.4016218621
0.12  -0.46  27.477532805
0.12  -0.44  30.9411732268
0.12  -0.42  34.8414178029
0.12  -0.4  39.2333020347
0.12  -0.38  44.1787988438
0.12  -0.36  49.7476930582
0.12  -0.34  56.0185661308
0.12  -0.32  63.0799049854
0.12  -0.3  71.031350636
0.12  -0.28  79.9851041999
0.12  -0.26  90.0675101428
0.12  -0.24  101.420839098
0.12  -0.22  114.205295418
0.12  -0.2  99.0663617913
0.12  -0.18  99.8505479362
0.12  -0.16  98.6558893986
0.12  -0.14  95.5544906391
0.12  -0.12  90.7423404989
0.12  -0.1  84.5530157421
0.12  -0.08  77.4835085537
0.12  -0.06  70.2329691789
0.12  -0.04  63.7370391544
0.12  -0.02  59.1228836397
0.12  6.17561557e-16  57.4353598108
0.12  0.02  59.1228836397
0.12  0.04  63.7370391544
0.12  0.06  70.2329691789
0.12  0.08  77.4835085537
0.12  0.1  84.5530157421
0.12  0.12  90.7423404989
0.12  0.14  95.5544906391
0.12  0.16  98.6558893986
0.12  0.18  99.8505479362
0.12  0.2  128.601277779
0.12  0.22  114.205295418
0.12  0.24  101.420839098
0.12  0.26  90.0675101428
0.12  0.28  79.9851041999
0.12  0.3  71.031350636
0.12  0.32  63.0799049854
0.12  0.34  56.0185661308
0.12  0.36  49.7476930582
0.12  0.38  44.1787988438
0.12  0.4  39.2333020347
0.12  0.42  34.8414178029
0.12  0.44  30.9411732268
0.12  0.46  27.477532805
0.12  0.48  24.4016218621
0.12  0.5  21.6700368889
0.12  0.52  19.244233085
0.12  0.54  17.0899804614
0.12  0.56  15.1768808288
0.12  0.58  13.4779388549
0.12  0.6  11.9691811398
0.12  0.62  10.629317932
0.12  0.64  9.43944271378
0.12  0.66  8.38276541511
0.12  0.68  7.44437549287
0.12  0.7  6.6110315313
0.12  0.72  5.87097439533
0.12  0.74  5.21376129995
0.12  0.76  4.63011845435
0.12  0.78  4.1118102015
0.12  0.8  3.65152280657
0.12  0.82  3.2427612544
0.12  0.84  2.8797575998
0.12  0.86  2.55738957728
0.12  0.88  2.2711083219
0.12  0.9  2.01687418125
0.12  0.92  1.79109971275
0.12  0.94  1.59059906208
0.12  0.96  1.41254300823
0.12  0.98  1.25441904101
0.14  -1  1.12965426296
0.14  -0.98  1.27205118759
0.14  -0.96  1.43239774939
0.14  -0.94  1.61295656375
0.14  -0.92  1.81627545678
0.14  -0.9  2.04522341706
0.14  -0.88  2.30303107938
0.14  -0.86  2.59333631151
0.14  -0.84  2.92023554732
0.14  -0.82  3.28834159071
0.14  -0.8  3.70284870586
0.14  -0.78  4.16960591235
0.14  -0.76  4.69519951945
0.14  -0.74  5.28704606402
0.14  -0.72  5.95349696372
0.14  -0.7  6.70395636199
0.14  -0.68  7.5490138279
0.14  -0.66  8.50059378323
0.14  -0.64  9.57212376541
0.14  -0.62  10.7787239006
0.14  -0.6  12.1374202604
0.14  -0.58  13.667385113
0.14  -0.56  15.3902074594
0.14  -0.54  17.3301976701
0.14  -0.52  19.5147305244
0.14  -0.5  21.9746314895
0.14  -0.48  24.7446116919
0.14  -0.46  27.8637577189
0.14  -0.44  31.3760831603
0.14  -0.42  35.3311496753
0.14  -0.4  39.7847663458
0.14  -0.38  44.7997771863
0.14  -0.36  50.4469479222
0.14  -0.34  56.8059645494
0.14  -0.32  63.9665577661
0.14  -0.3  72.029769143
0.14  -0.28  81.1093768992
0.14  -0.26  91.3335014016
0.14  -0.24  102.846413044
0.14  -0.22  115.810568013
0.14  -0.2  100.458841142
0.14  -0.18  101.254049828
0.14  -0.16  100.042599139
0.14  -0.14  96.8976070381
0.14  -0.12  92.0178171907
0.14  -0.1  85.7414951246
0.14  -0.08  78.5726187597
0.14  -0.06  71.2201656155
0.14  -0.04  64.63292863
0.14  -0.02  59.9539164257
0.14  6.17561557e-16  58.2426727181
0.14  0.02  59.9539164257
0.14  0.04  64.63292863
0.14  0.06  71.2201656155
0.14  0.08  78.5726187597
0.14  0.1  85.7414951246
0.14  0.12  92.0178171907
0.14  0.14  96.8976070381
0.14  0.16  100.042599139
0.14  0.18  101.254049828
0.14  0.2  130.408900676
0.14  0.22  115.810568013
0.14  0.24  102.846413044
0.14  0.26  91.3335014016
0.14  0.28  81.1093768992
0.14  0.3  72.029769143
0.14  0.32  63.9665577661
0.14  0.34  56.8059645494
0.14  0.36  50.4469479222
0.14  0.38  44.7997771863
0.14  0.4  39.7847663458
0.14  0.42  35.3311496753
0.14  0.44  31.3760831603
0.14  0.46  27.8637577189
0.14  0.48  24.7446116919
0.14  0.5  21.9746314895
0.14  0.52  19.5147305244
0.14  0.54  17.3301976701
0.14  0.56  15.3902074594
0.14  0.58  13.667385113
0.14  0.6  12.1374202604
0.14  0.62  10.7787239006
0.14  0.64  9.57212376541
0.14  0.66  8.50059378323
0.14  0.68  7.5490138279
0.14  0.7  6.70395636199
0.14  0.72  5.95349696372
0.14  0.74  5.28704606402
0.14  0.76  4.69519951945
0.14  0.78  4.16960591235
0.14  0.8  3.70284870586
0.14  0.82  3.28834159071
0.14  0.84  2.92023554732
0.14  0.86  2.59333631151
0.14  0.88  2.30303107938
0.14  0.9  2.04522341706
0.14  0.92  1.81627545678
0.14  0.94  1.61295656375
0.14  0.96  1.43239774939
0.14  0.98  1.27205118759
0.16  -1  1.1270312669
0.16  -0.98  1.26909755357
0.16  -0.96  1.42907179933
0.16  -0.94  1.6092113659
0.16  -0.92  1.81205816345
0.16  -0.9  2.04047451896
0.16  -0.88  2.29768356585
0.16  -0.86  2.58731472494
0.16  -0.84  2.91345491841
0.16  -0.82  3.28070623949
0.16  -0.8  3.69425089155
0.16  -0.78  4.15992431307
0.16  -0.76  4.68429752025
0.16  -0.74  5.27476982918
0.16  -0.72  5.93967326596
0.16  -0.7  6.68839013811
0.16  -0.68  7.53148542631
0.16  -0.66  8.48085586448
0.16  -0.64  9.54989781204
0.16  -0.62  10.753696287
0.16  -0.6  12.1092378273
0.16  -0.58  13.6356501844
0.16  -0.56  15.3544722305
0.16  -0.54  17.2899578889
0.16  -0.52  19.4694183762
0.16  -0.5  21.9236075844
0.16  -0.48  24.6871560427
0.16  -0.46  27.7990595813
0.16  -0.44  31.3032295932
0.16  -0.42  35.2491126578
0.16  -0.4  39.6923882714
0.16  -0.38  44.6957545281
0.16  -0.36  50.3298128392
0.16  -0.34  56.6740641739
0.16  -0.32  63.8180308806
0.16  -0.3  71.8625199171
0.16  -0.28  80.9210453154
0.16  -0.26  91.121429954
0.16  -0.24  102.607609238
0.16  -0.22  115.541662141
0.16  -0.2  100.22558115
0.16  -0.18  101.018943404
0.16  -0.16  99.8103056378
0.16  -0.14  96.6726160383
0.16  -0.12  91.8041567989
0.16  -0.1  85.5424080129
0.16  -0.08  78.390177391
0.16  -0.06  71.0547962451
0.16  -0.04  64.4828544674
0.16  -0.02  59.8147066763
0.16  6.17561557e-16  58.107436384
0.16  0.02  59.8147066763
0.16  0.04  64.4828544674
0.16  0.06  71.0547962451
0.16  0.08  78.390177391
0.16  0.1  85.5424080129
0.16  0.12  91.8041567989
0.16  0.14  96.6726160383
0.16  0.16  99.8103056378
0.16  0.18  101.018943404
0.16  0.2  130.106098266
0.16  0.22  115.541662141
0.16  0.24  102.607609238
0.16  0.26  91.121429954
0.16  0.28  80.9210453154
0.16  0.3  71.8625199171
0.16  0.32  63.8180308806
0.16  0.34  56.6740641739
0.16  0.36  50.3298128392
0.16  0.38  44.6957545281
0.16  0.4  39.6923882714
0.16  0.42  35.2491126578
0.16  0.44  31.3032295932
0.16  0.46  27.7990595813
0.16  0.48  24.6871560427
0.16  0.5  21.9236075844
0.16  0.52  19.4694183762
0.16  0.54  17.2899578889
0.16  0.56  15.3544722305
0.16  0.58  13.6356501844
0.16  0.6  12.1092378273
0.16  0.62  10.753696287
0.16  0.64  9.54989781204
0.16  0.66  8.48085586448
0.16  0.68  7.53148542631
0.16  0.7  6.68839013811
0.16  0.72  5.93967326596
0.16  0.74  5.27476982918
0.16  0.76  4.68429752025
0.16  0.78  4.15992431307
0.16  0.8  3.69425089155
0.16  0.82  3.28070623949
0.16  0.84  2.91345491841
0.16  0.86  2.58731472494
0.16  0.88  2.29768356585
0.16  0.9  2.04047451896
0.16  0.92  1.81205816345
0.16  0.94  1.6092113659
0.16  0.96  1.42907179933
0.16  0.98  1.26909755357
0.18  -1  1.1061693677
0.18  -0.98  1.24560593803
0.18  -0.96  1.40261898236
0.18  -0.94  1.57942407757
0.18  -0.92  1.77851608183
0.18  -0.9  2.00270433904
0.18  -0.88  2.25515232085
0.18  -0.86  2.53942226573
0.18  -0.84  2.85952544493
0.18  -0.82  3.21997876469
0.18  -0.8  3.62586850326
0.18  -0.78  4.08292208231
0.18  -0.76  4.59758888533
0.18  -0.74  5.17713126343
0.18  -0.72  5.82972701285
0.18  -0.7  6.56458477003
0.18  -0.68  7.39207395267
0.18  -0.66  8.32387108036
0.18  -0.64  9.37312453934
0.18  -0.62  10.5546401166
0.18  -0.6  11.885089921
0.18  -0.58  13.3832476398
0.18  -0.56  15.0702534503
0.18  -0.54  16.9699123239
0.18  -0.52  19.1090299331
0.18  -0.5  21.5177909004
0.18  -0.48  24.230184727
0.18  -0.46  27.2844854113
0.18  -0.44  30.7237915248
0.18  -0.42  34.5966343667
0.18  -0.4  38.9576627786
0.18  -0.38  43.8684142823
0.18  -0.36  49.3981834223
0.18  -0.34  55.6249995662
0.18  -0.32  62.6367279601
0.18  -0.3  70.5323095755
0.18  -0.28  79.4231572445
0.18  -0.26  89.4347277816
0.18  -0.24  100.708292277
0.18  -0.22  113.402929544
0.18  -0.2  98.370356692
0.18  -0.18  99.1490334235
0.18  -0.16  97.9627681328
0.18  -0.14  94.8831587002
0.18  -0.12  90.1048170191
0.18  -0.1  83.9589762614
0.18  -0.08  76.9391369215
0.18  -0.06  69.7395372632
0.18  -0.04  63.2892453376
0.18  -0.02  58.707507242
0.18  6.17561557e-16  57.0318393566
0.18  0.02  58.707507242
0.18  0.04  63.2892453376
0.18  0.06  69.7395372632
0.18  0.08  76.9391369215
0.18  0.1  83.9589762614
0.18  0.12  90.1048170191
0.18  0.14  94.8831587002
0.18  0.16  97.9627681328
0.18  0.18  99.1490334235
0.18  0.2  127.697770842
0.18  0.22  113.402929544
0.18  0.24  100.708292277
0.18  0.26  89.4347277816
0.18  0.28  79.4231572445
0.18  0.3  70.5323095755
0.18  0.32  62.6367279601
0.18  0.34  55.6249995662
0.18  0.36  49.3981834223
0.18  0.38  43.8684142823
0.18  0.4  38.9576627786
0.18  0.42  34.5966343667
0.18  0.44  30.7237915248
0.18  0.46  27.2844854113
0.18  0.48  24.230184727
0.18  0.5  21.5177909004
0.18  0.52  19.1090299331
0.18  0.54  16.9699123239
0.18  0.56  15.0702534503
0.18  0.58  13.3832476398
0.18  0.6  11.885089921
0.18  0.62  10.5546401166
0.18  0.64  9.37312453934
0.18  0.66  8.32387108036
0.18  0.68  7.39207395267
0.18  0.7  6.56458477003
0.18  0.72  5.82972701285
0.18  0.74  5.17713126343
0.18  0.76  4.59758888533
0.18  0.78  4.08292208231
0.18  0.8  3.62586850326
0.18  0.82  3.21997876469
0.18  0.84  2.85952544493
0.18  0.86  2.53942226573
0.18  0.88  2.25515232085
0.18  0.9  2.00270433904
0.18  0.92  1.77851608183
0.18  0.94  1.57942407757
0.18  0.96  1.40261898236
0.18  0.98  1.24560593803
0.2  -1  1.06740617638
0.2  -0.98  1.20195650902
0.2  -0.96  1.35346738809
0.2  -0.94  1.52407675059
0.2  -0.92  1.71619202807
0.2  -0.9  1.93252411735
0.2  -0.88  2.17612563341
0.2  -0.86  2.45043398418
0.2  -0.84  2.75931987502
0.2  -0.82  3.10714192745
0.2  -0.8  3.49880818266
0.2  -0.78  3.93984535786
0.2  -0.76  4.43647683252
0.2  -0.74  4.9957104652
0.2  -0.72  5.62543747984
0.2  -0.7  6.33454381715
0.2  -0.68  7.13303552216
0.2  -0.66  8.03217993735
0.2  -0.64  9.04466469367
0.2  -0.62  10.1847767429
0.2  -0.6  11.4686039579
0.2  -0.58  12.9142621446
0.2  -0.56  14.5421506708
0.2  -0.54  16.3752403168
0.2  -0.52  18.4393974113
0.2  -0.5  20.7637488253
0.2  -0.48  23.3810929751
0.2  -0.46  26.3283626339
0.2  -0.44  29.6471460817
0.2  -0.42  33.3842739487
0.2  -0.4  37.5924800319
0.2  -0.38  42.3311454106
0.2  -0.36  47.6671363595
0.2  -0.34  53.6757478844
0.2  -0.32  60.4417661933
0.2  -0.3  68.0606650966
0.2  -0.28  76.6399532168
0.2  -0.26  86.3006910192
0.2  -0.24  97.1791990704
0.2  -0.22  109.428981627
0.2  -0.2  94.923191124
0.2  -0.18  95.6745808992
0.2  -0.16  94.5298855794
0.2  -0.14  91.5581940598
0.2  -0.12  86.9472985024
0.2  -0.1  81.0168247655
0.2  -0.08  74.2429797401
0.2  -0.06  67.2956736881
0.2  -0.04  61.0714175825
0.2  -0.02  56.6502360847
0.2  6.17561557e-16  55.0332881719
0.2  0.02  56.6502360847
0.2  0.04  61.0714175825
0.2  0.06  67.2956736881
0.2  0.08  74.2429797401
0.2  0.1  81.0168247655
0.2  0.12  86.9472985024
0.2  0.14  91.5581940598
0.2  0.16  94.5298855794
0.2  0.18  95.6745808992
0.2  0.2  123.222892703
0.2  0.22  109.428981627
0.2  0.24  97.1791990704
0.2  0.26  86.3006910192
0.2  0.28  76.6399532168
0.2  0.3  68.0606650966
0.2  0.32  60.4417661933
0.2  0.34  53.6757478844
0.2  0.36  47.6671363595
0.2  0.38  42.3311454106
0.2  0.4  37.5924800319
0.2  0.42  33.3842739487
0.2  0.44  29.6471460817
0.2  0.46  26.3283626339
0.2  0.48  23.3810929751
0.2  0.5  20.7637488253
0.2  0.52  18.4393974113
0.2  0.54  16.3752403168
0.2  0.56  14.5421506708
0.2  0.58  12.9142621446
0.2  0.6  11.4686039579
0.2  0.62  10.1847767429
0.2  0.64  9.04466469367
0.2  0.66  8.03217993735
0.2  0.68  7.13303552216
0.2  0.7  6.33454381715
0.2  0.72  5.62543747984
0.2  0.74  4.9957104652
0.2  0.76  4.43647683252
0.2  0.78  3.93984535786
0.2  0.8  3.49880818266
0.2  0.82  3.10714192745
0.2  0.84  2.75931987502
0.2  0.86  2.45043398418
0.2  0.88  2.17612563341
0.2  0.9  1.93252411735
0.2  0.92  1.71619202807
0.2  0.94  1.52407675059
0.2  0.96  1.35346738809
0.2  0.98  1.20195650902
0.22  -1  1.01136900303
0.22  -0.98  1.13885565131
0.22  -0.96  1.28241244356
0.22  -0.94  1.4440650784
0.22  -0.92  1.62609460095
0.22  -0.9  1.83106959014
0.22  -0.88  2.06188240337
0.22  -0.86  2.32178998998
0.22  -0.84  2.6144598493
0.22  -0.82  2.94402178193
0.22  -0.8  3.31512616452
0.22  -0.78  3.73300957015
0.22  -0.76  4.20356866051
0.22  -0.74  4.73344339242
0.22  -0.72  5.33011071276
0.22  -0.7  6.0019900641
0.22  -0.68  6.75856218959
0.22  -0.66  7.61050291365
0.22  -0.64  8.56983378623
0.22  -0.62  9.65009171626
0.22  -0.6  10.866519988
0.22  -0.58  12.2362833559
0.22  -0.56  13.7787102522
0.22  -0.54  15.515565527
0.22  -0.52  17.4713575666
0.22  -0.5  19.6736841263
0.22  -0.48  22.1536217564
0.22  -0.46  24.9461643165
0.22  -0.44  28.0907167663
0.22  -0.42  31.6316512003
0.22  -0.4  35.6189329728
0.22  -0.38  40.1088257482
0.22  -0.36  45.1646854252
0.22  -0.34  50.8578541383
0.22  -0.32  57.2686669507
0.22  -0.3  64.4875854454
0.22  -0.28  72.6164742084
0.22  -0.26  81.7700382181
0.22  -0.24  92.0774414219
0.22  -0.22  103.684129341
0.22  -0.2  89.9398704034
0.22  -0.18  90.6518133775
0.22  -0.16  89.5672127915
0.22  -0.14  86.7515304806
0.22  -0.12  82.3826998085
0.22  -0.1  76.7635667703
0.22  -0.08  70.345338132
0.22  -0.06  63.7627549027
0.22  -0.04  57.8652626158
0.22  -0.02  53.6761863087
0.22  6.17561557e-16  52.1441256603
0.22  0.02  53.6761863087
0.22  0.04  57.8652626158
0.22  0.06  63.7627549027
0.22  0.08  70.345338132
0.22  0.1  76.7635667703
0.22  0.12  82.3826998085
0.22  0.14  86.7515304806
0.22  0.16  89.5672127915
0.22  0.18  90.6518133775
0.22  0.2  116.753881419
0.22  0.22  103.684129341
0.22  0.24  92.0774414219
0.22  0.26  81.7700382181
0.22  0.28  72.6164742084
0.22  0.3  64.4875854454
0.22  0.32  57.2686669507
0.22  0.34  50.8578541383
0.22  0.36  45.1646854252
0.22  0.38  40.1088257482
0.22  0.4  35.6189329728
0.22  0.42  31.6316512003
0.22  0.44  28.0907167663
0.22  0.46  24.9461643165
0.22  0.48  22.1536217564
0.22  0.5  19.6736841263
0.22  0.52  17.4713575666
0.22  0.54  15.515565527
0.22  0.56  13.7787102522
0.22  0.58  12.2362833559
0.22  0.6  10.866519988
0.22  0.62  9.65009171626
0.22  0.64  8.56983378623
0.22  0.66  7.61050291365
0.22  0.68  6.75856218959
0.22  0.7  6.0019900641
0.22  0.72  5.33011071276
0.22  0.74  4.73344339242
0.22  0.76  4.20356866051
0.22  0.78  3.73300957015
0.22  0.8  3.31512616452
0.22  0.82  2.94402178193
0.22  0.84  2.6144598493
0.22  0.86  2.32178998998
0.22  0.88  2.06188240337
0.22  0.9  1.83106959014
0.22  0.92  1.62609460095
0.22  0.94  1.4440650784
0.22  0.96  1.28241244356
0.22  0.98  1.13885565131
0.24  -1  0.938964704987
0.24  -0.98  1.05732453481
0.24  -0.96  1.19060404079
0.24  -0.94  1.34068390099
0.24  -0.92  1.50968185963
0.24  -0.9  1.69998261007
0.24  -0.88  1.91427144475
0.24  -0.86  2.15557214672
0.24  -0.84  2.42728965763
0.24  -0.82  2.73325812406
0.24  -0.8  3.07779500038
0.24  -0.78  3.4657619714
0.24  -0.76  3.90263355451
0.24  -0.74  4.39457434945
0.24  -0.72  4.94852602559
0.24  -0.7  5.57230527434
0.24  -0.68  6.27471410878
0.24  -0.66  7.06566406694
0.24  -0.64  7.95631607136
0.24  -0.62  8.95923791843
0.24  -0.6  10.0885816198
0.24  -0.58  11.3602830984
0.24  -0.56  12.7922870568
0.24  -0.54  14.4048001908
0.24  -0.52  16.2205763219
0.24  -0.5  18.2652374715
0.24  -0.48  20.5676354077
0.24  -0.46  23.160258766
0.24  -0.44  26.0796914899
0.24  -0.42  29.3671290584
0.24  -0.4  33.0689597868
0.24  -0.38  37.2374194021
0.24  -0.36  41.9313281296
0.24  -0.34  47.2169206929
0.24  -0.32  53.1687809369
0.24  -0.3  59.8708942649
0.24  -0.28  67.4178327378
0.24  -0.26  75.9160895601
0.24  -0.24  85.4855817825
0.24  -0.22  96.2613424247
0.24  -0.2  83.5010402999
0.24  -0.18  84.1620150011
0.24  -0.16  83.1550613906
0.24  -0.14  80.5409548651
0.24  -0.12  76.4848904704
0.24  -0.1  71.2680333394
0.24  -0.08  65.3092881714
0.24  -0.06  59.197954621
0.24  -0.04  53.7226660876
0.24  -0.02  49.8334873733
0.24  6.17561557e-16  48.4111075392
0.24  0.02  49.8334873733
0.24  0.04  53.7226660876
0.24  0.06  59.197954621
0.24  0.08  65.3092881714
0.24  0.1  71.2680333394
0.24  0.12  76.4848904704
0.24  0.14  80.5409548651
0.24  0.16  83.1550613906
0.24  0.18  84.1620150011
0.24  0.2  108.395425897
0.24  0.22  96.2613424247
0.24  0.24  85.4855817825
0.24  0.26  75.9160895601
0.24  0.28  67.4178327378
0.24  0.3  59.8708942649
0.24  0.32  53.1687809369
0.24  0.34  47.2169206929
0.24  0.36  41.9313281296
0.24  0.38  37.2374194021
0.24  0.4  33.0689597868
0.24  0.42  29.3671290584
0.24  0.44  26.0796914899
0.24  0.46  23.160258766
0.24  0.48  20.5676354077
0.24  0.5  18.2652374715
0.24  0.52  16.2205763219
0.24  0.54  14.4048001908
0.24  0.56  12.7922870568
0.24  0.58  11.3602830984
0.24  0.6  10.0885816198
0.24  0.62  8.95923791843
0.24  0.64  7.95631607136
0.24  0.66  7.06566406694
0.24  0.68  6.27471410878
0.24  0.7  5.57230527434
0.24  0.72  4.94852602559
0.24  0.74  4.39457434945
0.24  0.76  3.90263355451
0.24  0.78  3.4657619714
0.24  0.8  3.07779500038
0.24  0.82  2.73325812406
0.24  0.84  2.42728965763
0.24  0.86  2.15557214672
0.24  0.88  1.91427144475
0.24  0.9  1.69998261007
0.24  0.92  1.50968185963
0.24  0.94  1.34068390099
0.24  0.96  1.19060404079
0.24  0.98  1.05732453481
0.26  -1  0.851365011041
0.26  -0.98  0.958682588893
0.26  -0.96  1.07952792789
0.26  -0.94  1.21560625028
0.26  -0.92  1.36883772762
0.26  -0.9  1.54138457591
0.26  -0.88  1.73568156613
0.26  -0.86  1.95447038078
0.26  -0.84  2.20083830115
0.26  -0.82  2.4782617713
0.26  -0.8  2.79065545336
0.26  -0.78  3.14242746653
0.26  -0.76  3.53854158903
0.26  -0.74  3.98458730096
0.26  -0.72  4.48685865617
0.26  -0.7  5.05244309634
0.26  -0.68  5.68932146026
0.26  -0.66  6.40648059977
0.26  -0.64  7.21404019126
0.26  -0.62  8.12339553216
0.26  -0.6  9.14737833758
0.26  -0.58  10.3004378058
0.26  -0.56  11.5988445077
0.26  -0.54  13.0609199775
0.26  -0.52  14.7072952434
0.26  -0.5  16.5612019483
0.26  -0.48  18.6488001657
0.26  -0.46  20.9995475392
0.26  -0.44  23.6466149529
0.26  -0.42  26.6273545984
0.26  -0.4  29.9838270432
0.26  -0.38  33.7633947389
0.26  -0.36  38.0193903418
0.26  -0.34  42.8118692785
0.26  -0.32  48.2084571752
0.26  -0.3  54.285304108
0.26  -0.28  61.1281591399
0.26  -0.26  68.8335803075
0.26  -0.24  77.51029713
0.26  -0.22  87.2807448683
0.26  -0.2  75.710901293
0.26  -0.18  76.3102110763
0.26  -0.16  75.3972001109
0.26  -0.14  73.026973819
0.26  -0.12  69.3493155536
0.26  -0.1  64.6191594515
0.26  -0.08  59.2163289523
0.26  -0.06  53.6751456385
0.26  -0.04  48.7106682114
0.26  -0.02  45.1843262079
0.26  6.17561557e-16  43.894645758
0.26  0.02  45.1843262079
0.26  0.04  48.7106682114
0.26  0.06  53.6751456385
0.26  0.08  59.2163289523
0.26  0.1  64.6191594515
0.26  0.12  69.3493155536
0.26  0.14  73.026973819
0.26  0.16  75.3972001109
0.26  0.18  76.3102110763
0.26  0.2  98.2827921815
0.26  0.22  87.2807448683
0.26  0.24  77.51029713
0.26  0.26  68.8335803075
0.26  0.28  61.1281591399
0.26  0.3  54.285304108
0.26  0.32  48.2084571752
0.26  0.34  42.8118692785
0.26  0.36  38.0193903418
0.26  0.38  33.7633947389
0.26  0.4  29.9838270432
0.26  0.42  26.6273545983
0.26  0.44  23.6466149529
0.26  0.46  20.9995475392
0.26  0.48  18.6488001657
0.26  0.5  16.5612019483
0.26  0.52  14.7072952434
0.26  0.54  13.0609199775
0.26  0.56  11.5988445077
0.26  0.58  10.3004378058
0.26  0.6  9.14737833758
0.26  0.62  8.12339553216
0.26  0.64  7.21404019126
0.26  0.66  6.40648059977
0.26  0.68  5.68932146026
0.26  0.7  5.05244309634
0.26  0.72  4.48685865617
0.26  0.74  3.98458730096
0.26  0.76  3.53854158903
0.26  0.78  3.14242746653
0.26  0.8  2.79065545336
0.26  0.82  2.4782617713
0.26  0.84  2.20083830115
0.26  0.86  1.95447038078
0.26  0.88  1.73568156613
0.26  0.9  1.54138457591
0.26  0.92  1.36883772762
0.26  0.94  1.21560625028
0.26  0.96  1.07952792789
0.26  0.98  0.958682588893
0.28  -1  0.749987559175
0.28  -0.98  0.844526149821
0.28  -0.96  0.950981664971
0.28  -0.94  1.07085627521
0.28  -0.92  1.20584150503
0.28  -0.9  1.35784210162
0.28  -0.88  1.52900291227
0.28  -0.86  1.7217391499
0.28  -0.84  1.93877047355
0.28  -0.82  2.18315936496
0.28  -0.8  2.45835434252
0.28  -0.78  2.76823862261
0.28  -0.76  3.11718491479
0.28  -0.74  3.51011712416
0.28  -0.72  3.95257983152
0.28  -0.7  4.45081653174
0.28  -0.68  5.01185773435
0.28  -0.66  5.64362016951
0.28  -0.64  6.35501849931
0.28  -0.62  7.15609111059
0.28  -0.6  8.05814176443
0.28  -0.58  9.07389910109
0.28  -0.56  10.217696251
0.28  -0.54  11.5056730867
0.28  -0.52  12.9560039685
0.28  -0.5  14.5891541996
0.28  -0.48  16.4281688071
0.28  -0.46  18.4989977254
0.28  -0.44  20.8308619702
0.28  -0.42  23.45666597
0.28  -0.4  26.4134618727
0.28  -0.38  29.7429723812
0.28  -0.36  33.4921794929
0.28  -0.34  37.7139874525
0.28  -0.32  42.4679692723
0.28  -0.3  47.8212073541
0.28  -0.28  53.849240074
0.28  -0.26  60.6371276885
0.28  -0.24  68.2806526009
0.28  -0.22  76.8876709258
0.28  -0.2  66.6955222816
0.28  -0.18  67.2234684336
0.28  -0.16  66.4191754963
0.28  -0.14  64.3311871385
0.28  -0.12  61.0914510556
0.28  -0.1  56.924544754
0.28  -0.08  52.1650636781
0.28  -0.06  47.2837043379
0.28  -0.04  42.9103788432
0.28  -0.02  39.8039408316
0.28  6.17561557e-16  38.6678308434
0.28  0.02  39.8039408316
0.28  0.04  42.9103788432
0.28  0.06  47.2837043379
0.28  0.08  52.1650636781
0.28  0.1  56.924544754
0.28  0.12  61.0914510556
0.28  0.14  64.3311871385
0.28  0.16  66.4191754963
0.28  0.18  67.2234684336
0.28  0.2  86.5796344237
0.28  0.22  76.8876709258
0.28  0.24  68.2806526009
0.28  0.26  60.6371276885
0.28  0.28  53.849240074
0.28  0.3  47.8212073541
0.28  0.32  42.4679692723
0.28  0.34  37.7139874525
0.28  0.36  33.4921794929
0.28  0.38  29.7429723812
0.28  0.4  26.4134618727
0.28  0.42  23.45666597
0.28  0.44  20.8308619702
0.28  0.46  18.4989977254
0.28  0.48  16.4281688071
0.28  0.5  14.5891541996
0.28  0.52  12.9560039685
0.28  0.54  11.5056730867
0.28  0.56  10.217696251
0.28  0.58  9.07389910109
0.28  0.6  8.05814176443
0.28  0.62  7.15609111059
0.28  0.64  6.35501849931
0.28  0.66  5.64362016951
0.28  0.68  5.01185773435
0.28  0.7  4.45081653174
0.28  0.72  3.95257983152
0.28  0.74  3.51011712416
0.28  0.76  3.11718491479
0.28  0.78  2.76823862261
0.28  0.8  2.45835434252
0.28  0.82  2.18315936496
0.28  0.84  1.93877047355
0.28  0.86  1.7217391499
0.28  0.88  1.52900291227
0.28  0.9  1.35784210162
0.28  0.92  1.20584150503
0.28  0.94  1.07085627521
0.28  0.96  0.950981664971
0.28  0.98  0.844526149821
0.3  -1  0.636472954736
0.3  -0.98  0.716702627067
0.3  -0.96  0.807045534021
0.3  -0.94  0.908776484675
0.3  -0.92  1.02333098231
0.3  -0.9  1.15232548048
0.3  -0.88  1.29758019246
0.3  -0.86  1.46114477582
0.3  -0.84  1.64532725478
0.3  -0.82  1.85272658816
0.3  -0.8  2.08626934278
0.3  -0.78  2.34925098956
0.3  -0.76  2.64538240522
0.3  -0.74  2.97884223565
0.3  -0.72  3.35433585987
0.3  -0.7  3.77716178661
0.3  -0.68  4.25328642038
0.3  -0.66  4.78942825217
0.3  -0.64  5.39315266256
0.3  -0.62  6.07297867517
0.3  -0.6  6.83849916675
0.3  -0.58  7.70051623016
0.3  -0.56  8.6711936004
0.3  -0.54  9.76422829434
0.3  -0.52  10.9950438864
0.3  -0.5  12.3810081473
0.3  -0.48  13.9416781167
0.3  -0.46  15.6990760685
0.3  -0.44  17.6780002624
0.3  -0.42  19.9063748665
0.3  -0.4  22.4156439893
0.3  -0.38  25.2412153808
0.3  -0.36  28.4229600633
0.3  -0.34  32.0057749427
0.3  -0.32  36.0402163392
0.3  -0.3  40.5832133764
0.3  -0.28  45.6988712958
0.3  -0.26  51.4593760316
0.3  -0.24  57.9460128112
0.3  -0.22  65.2503131529
0.3  -0.2  56.6008003931
0.3  -0.18  57.0488390882
0.3  -0.16  56.366280163
0.3  -0.14  54.5943199441
0.3  -0.12  51.8449351416
0.3  -0.1  48.3087122624
0.3  -0.08  44.2696039514
0.3  -0.06  40.1270642995
0.3  -0.04  36.4156648695
0.3  -0.02  33.7794027665
0.3  6.17561557e-16  32.8152490652
0.3  0.02  33.7794027665
0.3  0.04  36.4156648695
0.3  0.06  40.1270642995
0.3  0.08  44.2696039514
0.3  0.1  48.3087122624
0.3  0.12  51.8449351416
0.3  0.14  54.5943199441
0.3  0.16  56.366280163
0.3  0.18  57.0488390882
0.3  0.2  73.4753464474
0.3  0.22  65.2503131529
0.3  0.24  57.9460128112
0.3  0.26  51.4593760316
0.3  0.28  45.6988712958
0.3  0.3  40.5832133764
