-0.26  0.24  2.97070537548
-0.26  0.26  2.52304504424
-0.26  0.28  2.14284336232
-0.26  0.3  1.81993487827
-0.26  0.32  1.54568598871
-0.26  0.34  1.31276410173
-0.26  0.36  1.11494158541
-0.26  0.38  0.946929259602
-0.26  0.4  0.804234979142
-0.26  0.42  0.683043527399
-0.26  0.44  0.580114608816
-0.26  0.46  0.492696213144
-0.26  0.48  0.418451034946
-0.26  0.5  0.35539398107
-0.26  0.52  0.301839095217
-0.26  0.54  0.256354480532
-0.26  0.56  0.217724014981
-0.26  0.58  0.184914835899
-0.26  0.6  0.157049724342
-0.26  0.62  0.13338365089
-0.26  0.64  0.113283855794
-0.26  0.66  0.0962129308791
-0.26  0.68  0.0817144508675
-0.26  0.7  0.0694007699336
-0.26  0.72  0.0589426572196
-0.26  0.74  0.050060494191
-0.26  0.76  0.042516798476
-0.26  0.78  0.0361098743003
-0.26  0.8  0.0306684197476
-0.26  0.82  0.0260469466604
-0.26  0.84  0.0221218907238
-0.26  0.86  0.0187883077268
-0.26  0.88  0.0159570676685
-0.26  0.9  0.0135524716904
-0.26  0.92  0.0115102281155
-0.26  0.94  0.00977573348218
-0.26  0.96  0.00830261261168
-0.26  0.98  0.00705147867475
-0.24  -1  0.00728082311265
-0.24  -0.98  0.00857264931042
-0.24  -0.96  0.0100936824123
-0.24  -0.94  0.0118845902768
-0.24  -0.92  0.0139932564031
-0.24  -0.9  0.0164760601924
-0.24  -0.88  0.0193993843638
-0.24  -0.86  0.0228413898286
-0.24  -0.84  0.0268941054786
-0.24  -0.82  0.0316658887626
-0.24  -0.8  0.0372843228389
-0.24  -0.78  0.0438996277658
-0.24  -0.76  0.0516886769355
-0.24  -0.74  0.060859726137
-0.24  -0.72  0.0716579816908
-0.24  -0.7  0.08437215653
-0.24  -0.68  0.0993421895168
-0.24  -0.66  0.116968334388
-0.24  -0.64  0.137721861335
-0.24  -0.62  0.162157657361
-0.24  -0.6  0.190929062284
-0.24  -0.58  0.224805337089
-0.24  -0.56  0.264692231656
-0.24  -0.54  0.311656201788
-0.24  -0.52  0.366952923043
-0.24  -0.5  0.432060863725
-0.24  -0.48  0.508720814688
-0.24  -0.46  0.598982432859
-0.24  -0.44  0.705259042907
-0.24  -0.42  0.830392162301
-0.24  -0.4  0.977727474955
-0.24  -0.38  1.15120428477
-0.24  -0.36  1.3554608408
-0.24  -0.34  1.59595835009
-0.24  -0.32  1.87912699398
-0.24  -0.3  2.21253785182
-0.24  -0.28  2.60510532892
-0.24  -0.26  3.06732550098
-0.24  -0.24  3.61155674763
-0.24  -0.22  4.25235017842
-0.24  -0.2  3.71519390316
-0.24  -0.18  3.71642663477
-0.24  -0.16  3.69728071187
-0.24  -0.14  3.6595647221
-0.24  -0.12  3.60691850257
-0.24  -0.1  3.54460191934
-0.24  -0.08  3.47912922255
-0.24  -0.06  3.41770873226
-0.24  -0.04  3.36747127374
-0.24  -0.02  3.33453632698
-0.24  6.17561557e-16  3.32306521948
-0.24  0.02  3.33453632698
-0.24  0.04  3.36747127374
-0.24  0.06  3.41770873226
-0.24  0.08  3.47912922255
-0.24  0.1  3.54460191934
-0.24  0.12  3.60691850257
-0.24  0.14  3.6595647221
-0.24  0.16  3.69728071187
-0.24  0.18  3.71642663477
-0.24  0.2  5.00683868577
-0.24  0.22  4.25235017842
-0.24  0.24  3.61155674763
-0.24  0.26  3.06732550098
-0.24  0.28  2.60510532892
-0.24  0.3  2.21253785182
-0.24  0.32  1.87912699398
-0.24  0.34  1.59595835009
-0.24  0.36  1.3554608408
-0.24  0.38  1.15120428477
-0.24  0.4  0.977727474954
-0.24  0.42  0.8303921623
-0.24  0.44  0.705259042907
-0.24  0.46  0.598982432859
-0.24  0.48  0.508720814688
-0.24  0.5  0.432060863724
-0.24  0.52  0.366952923043
-0.24  0.54  0.311656201788
-0.24  0.56  0.264692231656
-0.24  0.58  0.224805337089
-0.24  0.6  0.190929062284
-0.24  0.62  0.162157657361
-0.24  0.64  0.137721861335
-0.24  0.66  0.116968334388
-0.24  0.68  0.0993421895168
-0.24  0.7  0.08437215653
-0.24  0.72  0.0716579816908
-0.24  0.74  0.060859726137
-0.24  0.76  0.0516886769355
-0.24  0.78  0.0438996277658
-0.24  0.8  0.0372843228389
-0.24  0.82  0.0316658887626
-0.24  0.84  0.0268941054786
-0.24  0.86  0.0228413898286
-0.24  0.88  0.0193993843638
-0.24  0.9  0.0164760601924
-0.24  0.92  0.0139932564031
-0.24  0.94  0.0118845902768
-0.24  0.96  0.0100936824123
-0.24  0.98  0.00857264931042
-0.22  -1  0.00885146876491
-0.22  -0.98  0.0104219724102
-0.22  -0.96  0.012271128307
-0.22  -0.94  0.0144483773319
-0.22  -0.92  0.0170119325871
-0.22  -0.9  0.0200303358433
-0.22  -0.88  0.0235842901411
-0.22  -0.86  0.027768817548
-0.22  -0.84  0.0326957997634
-0.22  -0.82  0.038496969499
-0.22  -0.8  0.0453274326162
-0.22  -0.78  0.053369815191
-0.22  -0.76  0.062839146387
-0.22  -0.74  0.07398860769
-0.22  -0.72  0.0871163022201
-0.22  -0.7  0.102573225115
-0.22  -0.68  0.120772648084
-0.22  -0.66  0.142201169057
-0.22  -0.64  0.167431722347
-0.22  -0.62  0.197138897198
-0.22  -0.6  0.232116974272
-0.22  -0.58  0.273301162333
-0.22  -0.56  0.321792602919
-0.22  -0.54  0.378887811561
-0.22  -0.52  0.446113342715
-0.22  -0.5  0.525266605249
-0.22  -0.48  0.618463919752
-0.22  -0.46  0.728197102601
-0.22  -0.44  0.857400089643
-0.22  -0.42  1.00952738083
-0.22  -0.4  1.1886464032
-0.22  -0.38  1.3995462616
-0.22  -0.36  1.64786578506
-0.22  -0.34  1.94024429208
-0.22  -0.32  2.2844991061
-0.22  -0.3  2.68983456727
-0.22  -0.28  3.16708812884
-0.22  -0.26  3.72902011814
-0.22  -0.24  4.39065490944
-0.22  -0.22  5.16968263057
-0.22  -0.2  4.51664904924
-0.22  -0.18  4.51814771019
-0.22  -0.16  4.49487155914
-0.22  -0.14  4.44901933883
-0.22  -0.12  4.38501608528
-0.22  -0.1  4.30925634198
-0.22  -0.08  4.22965963683
-0.22  -0.06  4.1549892949
-0.22  -0.04  4.09391442905
-0.22  -0.02  4.05387463574
-0.22  6.17561557e-16  4.0399289392
-0.22  0.02  4.05387463574
-0.22  0.04  4.09391442905
-0.22  0.06  4.1549892949
-0.22  0.08  4.22965963683
-0.22  0.1  4.30925634198
-0.22  0.12  4.38501608528
-0.22  0.14  4.44901933883
-0.22  0.16  4.49487155914
-0.22  0.18  4.51814771019
-0.22  0.2  6.08693214384
-0.22  0.22  5.16968263057
-0.22  0.24  4.39065490944
-0.22  0.26  3.72902011814
-0.22  0.28  3.16708812884
-0.22  0.3  2.68983456727
-0.22  0.32  2.2844991061
-0.22  0.34  1.94024429208
-0.22  0.36  1.64786578506
-0.22  0.38  1.3995462616
-0.22  0.4  1.1886464032
-0.22  0.42  1.00952738083
-0.22  0.44  0.857400089642
-0.22  0.46  0.7281971026
-0.22  0.48  0.618463919752
-0.22  0.5  0.525266605248
-0.22  0.52  0.446113342715
-0.22  0.54  0.378887811561
-0.22  0.56  0.321792602919
-0.22  0.58  0.273301162333
-0.22  0.6  0.232116974272
-0.22  0.62  0.197138897198
-0.22  0.64  0.167431722347
-0.22  0.66  0.142201169057
-0.22  0.68  0.120772648084
-0.22  0.7  0.102573225115
-0.22  0.72  0.0871163022201
-0.22  0.74  0.07398860769
-0.22  0.76  0.062839146387
-0.22  0.78  0.053369815191
-0.22  0.8  0.0453274326162
-0.22  0.82  0.038496969499
-0.22  0.84  0.0326957997634
-0.22  0.86  0.027768817548
-0.22  0.88  0.0235842901411
-0.22  0.9  0.0200303358433
-0.22  0.92  0.0170119325871
-0.22  0.94  0.0144483773319
-0.22  0.96  0.012271128307
-0.22  0.98  0.0104219724102
-0.2  -1  0.0107609398119
-0.2  -0.98  0.0126702382176
-0.2  -0.96  0.0149183007524
-0.2  -0.94  0.0175652338587
-0.2  -0.92  0.0206818085807
-0.2  -0.9  0.0243513527694
-0.2  -0.88  0.0286719790189
-0.2  -0.86  0.033759207903
-0.2  -0.84  0.0397490566481
-0.2  -0.82  0.0468016758259
-0.2  -0.8  0.0551056312986
-0.2  -0.78  0.0648829459036
-0.2  -0.76  0.0763950356783
-0.2  -0.74  0.0899496993395
-0.2  -0.72  0.105909347897
-0.2  -0.7  0.124700694437
-0.2  -0.68  0.146826163145
-0.2  -0.66  0.172877322627
-0.2  -0.64  0.203550702672
-0.2  -0.62  0.239666417367
-0.2  -0.6  0.282190092492
-0.2  -0.58  0.332258683445
-0.2  -0.56  0.391210874025
-0.2  -0.54  0.460622868808
-0.2  -0.52  0.542350536135
-0.2  -0.5  0.638579028452
-0.2  -0.48  0.751881206727
-0.2  -0.46  0.885286431031
-0.2  -0.44  1.04236155653
-0.2  -0.42  1.22730630047
-0.2  -0.4  1.44506553004
-0.2  -0.38  1.70146147323
-0.2  -0.36  2.00334938777
-0.2  -0.34  2.35880085011
-0.2  -0.32  2.77731956514
-0.2  -0.3  3.27009546676
-0.2  -0.28  3.85030390306
-0.2  -0.26  4.53345790562
-0.2  -0.24  5.33782296137
-0.2  -0.22  6.2849053769
-0.2  -0.2  5.49099701542
-0.2  -0.18  5.49281897297
-0.2  -0.16  5.46452160593
-0.2  -0.14  5.40877797783
-0.2  -0.12  5.33096770954
-0.2  -0.1  5.23886479879
-0.2  -0.08  5.14209720279
-0.2  -0.06  5.05131870303
-0.2  -0.04  4.9770685449
-0.2  -0.02  4.9283912217
-0.2  6.17561557e-16  4.91143710876
-0.2  0.02  4.9283912217
-0.2  0.04  4.9770685449
-0.2  0.06  5.05131870303
-0.2  0.08  5.14209720279
-0.2  0.1  5.23886479879
-0.2  0.12  5.33096770954
-0.2  0.14  5.40877797783
-0.2  0.16  5.46452160593
-0.2  0.18  5.49281897297
-0.2  0.2  7.40002729248
-0.2  0.22  6.2849053769
-0.2  0.24  5.33782296137
-0.2  0.26  4.53345790562
-0.2  0.28  3.85030390306
-0.2  0.3  3.27009546676
-0.2  0.32  2.77731956514
-0.2  0.34  2.35880085011
-0.2  0.36  2.00334938777
-0.2  0.38  1.70146147323
-0.2  0.4  1.44506553004
-0.2  0.42  1.22730630047
-0.2  0.44  1.04236155653
-0.2  0.46  0.885286431031
-0.2  0.48  0.751881206727
-0.2  0.5  0.638579028452
-0.2  0.52  0.542350536135
-0.2  0.54  0.460622868808
-0.2  0.56  0.391210874024
-0.2  0.58  0.332258683445
-0.2  0.6  0.282190092492
-0.2  0.62  0.239666417367
-0.2  0.64  0.203550702672
-0.2  0.66  0.172877322627
-0.2  0.68  0.146826163145
-0.2  0.7  0.124700694437
-0.2  0.72  0.105909347897
-0.2  0.74  0.0899496993395
-0.2  0.76  0.0763950356783
-0.2  0.78  0.0648829459036
-0.2  0.8  0.0551056312985
-0.2  0.82  0.0468016758259
-0.2  0.84  0.0397490566481
-0.2  0.86  0.033759207903
-0.2  0.88  0.0286719790189
-0.2  0.9  0.0243513527694
-0.2  0.92  0.0206818085807
-0.2  0.94  0.0175652338587
-0.2  0.96  0.0149183007524
-0.2  0.98  0.0126702382176
-0.18  -1  0.0130823289005
-0.18  -0.98  0.0154035081051
-0.18  -0.96  0.0181365308691
-0.18  -0.94  0.0213544700156
-0.18  -0.92  0.025143363576
-0.18  -0.9  0.0296045151883
-0.18  -0.88  0.0348572026524
-0.18  -0.86  0.0410418670606
-0.18  -0.84  0.0483238677704
-0.18  -0.82  0.0568979036174
-0.18  -0.8  0.0669932185775
-0.18  -0.78  0.0788797310627
-0.18  -0.76  0.0928752507289
-0.18  -0.74  0.109353975752
-0.18  -0.72  0.128756497764
-0.18  -0.7  0.151601581949
-0.18  -0.68  0.178500037268
-0.18  -0.66  0.210171047658
-0.18  -0.64  0.247461400847
-0.18  -0.62  0.291368128919
-0.18  -0.6  0.343065165959
-0.18  -0.58  0.403934735521
-0.18  -0.56  0.475604307143
-0.18  -0.54  0.559990109988
-0.18  -0.52  0.659348367067
-0.18  -0.5  0.776335619862
-0.18  -0.48  0.914079756271
-0.18  -0.46  1.07626364094
-0.18  -0.44  1.26722358401
-0.18  -0.42  1.49206528101
-0.18  -0.4  1.75680032388
-0.18  -0.38  2.0685069328
-0.18  -0.36  2.43551920665
-0.18  -0.34  2.86764995171
-0.18  -0.32  3.37645304668
-0.18  -0.3  3.97553235869
-0.18  -0.28  4.68090546989
-0.18  -0.26  5.51143193946
-0.18  -0.24  6.48931755162
-0.18  -0.22  7.64070803167
-0.18  -0.2  6.67553486992
-0.18  -0.18  6.67774986678
-0.18  -0.16  6.64334808876
-0.18  -0.14  6.57557924239
-0.18  -0.12  6.48098345993
-0.18  -0.1  6.36901177416
-0.18  -0.08  6.25136912027
-0.18  -0.06  6.14100755226
-0.18  -0.04  6.05073987987
-0.18  -0.02  5.9915617074
-0.18  6.17561557e-16  5.97095019153
-0.18  0.02  5.9915617074
-0.18  0.04  6.05073987987
-0.18  0.06  6.14100755226
-0.18  0.08  6.25136912027
-0.18  0.1  6.36901177416
-0.18  0.12  6.48098345993
-0.18  0.14  6.57557924239
-0.18  0.16  6.64334808876
-0.18  0.18  6.67774986678
-0.18  0.2  8.99638810412
-0.18  0.22  7.64070803167
-0.18  0.24  6.48931755162
-0.18  0.26  5.51143193945
-0.18  0.28  4.68090546989
-0.18  0.3  3.97553235869
-0.18  0.32  3.37645304668
-0.18  0.34  2.86764995171
-0.18  0.36  2.43551920665
-0.18  0.38  2.0685069328
-0.18  0.4  1.75680032388
-0.18  0.42  1.49206528101
-0.18  0.44  1.26722358401
-0.18  0.46  1.07626364094
-0.18  0.48  0.914079756271
-0.18  0.5  0.776335619862
-0.18  0.52  0.659348367067
-0.18  0.54  0.559990109988
-0.18  0.56  0.475604307143
-0.18  0.58  0.403934735521
-0.18  0.6  0.343065165959
-0.18  0.62  0.291368128919
-0.18  0.64  0.247461400847
-0.18  0.66  0.210171047658
-0.18  0.68  0.178500037268
-0.18  0.7  0.151601581949
-0.18  0.72  0.128756497764
-0.18  0.74  0.109353975752
-0.18  0.76  0.0928752507289
-0.18  0.78  0.0788797310627
-0.18  0.8  0.0669932185774
-0.18  0.82  0.0568979036173
-0.18  0.84  0.0483238677704
-0.18  0.86  0.0410418670606
-0.18  0.88  0.0348572026524
-0.18  0.9  0.0296045151882
-0.18  0.92  0.025143363576
-0.18  0.94  0.0213544700156
-0.18  0.96  0.0181365308691
-0.18  0.98  0.0154035081051
-0.16  -1  0.0159044964894
-0.16  -0.98  0.0187264089173
-0.16  -0.96  0.0220490092957
-0.16  -0.94  0.0259611339831
-0.16  -0.92  0.0305673814477
-0.16  -0.9  0.0359909089171
-0.16  -0.88  0.0423767252323
-0.16  -0.86  0.0498955679488
-0.16  -0.84  0.0587484683464
-0.16  -0.82  0.0691721264018
-0.16  -0.8  0.0814452394357
-0.16  -0.78  0.0958959536419
-0.16  -0.76  0.112910637732
-0.16  -0.74  0.132944213273
-0.16  -0.72  0.156532317926
-0.16  -0.7  0.184305626791
-0.16  -0.68  0.217006714759
-0.16  -0.66  0.255509910741
-0.16  -0.64  0.300844674596
-0.16  -0.62  0.354223121798
-0.16  -0.6  0.417072431761
-0.16  -0.58  0.491073006336
-0.16  -0.56  0.578203398708
-0.16  -0.54  0.680793213971
-0.16  -0.52  0.801585395771
-0.16  -0.5  0.943809564382
-0.16  -0.48  1.11126836706
-0.16  -0.46  1.30843914942
-0.16  -0.44  1.54059366619
-0.16  -0.42  1.81393903213
-0.16  -0.4  2.13578368165
-0.16  -0.38  2.51473277436
-0.16  -0.36  2.96091827125
-0.16  -0.34  3.48626983289
-0.16  -0.32  4.10483378272
-0.16  -0.3  4.83314866361
-0.16  -0.28  5.69068742876
-0.16  -0.26  6.70037809011
-0.16  -0.24  7.88921674446
-0.16  -0.22  9.28898936806
-0.16  -0.2  8.11560554019
-0.16  -0.18  8.11829836423
-0.16  -0.16  8.07647530948
-0.16  -0.14  7.99408712101
-0.16  -0.12  7.87908479218
-0.16  -0.1  7.74295816696
-0.16  -0.08  7.59993721175
-0.16  -0.06  7.46576804475
-0.16  -0.04  7.35602750164
-0.16  -0.02  7.28408319849
-0.16  6.17561557e-16  7.25902529143
-0.16  0.02  7.28408319849
-0.16  0.04  7.35602750164
-0.16  0.06  7.46576804475
-0.16  0.08  7.59993721175
-0.16  0.1  7.74295816696
-0.16  0.12  7.87908479218
-0.16  0.14  7.99408712101
-0.16  0.16  8.07647530948
-0.16  0.18  8.11829836423
-0.16  0.2  10.9371216782
-0.16  0.22  9.28898936806
-0.16  0.24  7.88921674446
-0.16  0.26  6.70037809011
-0.16  0.28  5.69068742876
-0.16  0.3  4.8331486636
-0.16  0.32  4.10483378272
-0.16  0.34  3.48626983289
-0.16  0.36  2.96091827125
-0.16  0.38  2.51473277436
-0.16  0.4  2.13578368165
-0.16  0.42  1.81393903213
-0.16  0.44  1.54059366619
-0.16  0.46  1.30843914942
-0.16  0.48  1.11126836706
-0.16  0.5  0.943809564382
-0.16  0.52  0.80158539577
-0.16  0.54  0.680793213971
-0.16  0.56  0.578203398708
-0.16  0.58  0.491073006336
-0.16  0.6  0.417072431761
-0.16  0.62  0.354223121797
-0.16  0.64  0.300844674596
-0.16  0.66  0.255509910741
-0.16  0.68  0.217006714759
-0.16  0.7  0.184305626791
-0.16  0.72  0.156532317926
-0.16  0.74  0.132944213273
-0.16  0.76  0.112910637732
-0.16  0.78  0.0958959536419
-0.16  0.8  0.0814452394357
-0.16  0.82  0.0691721264018
-0.16  0.84  0.0587484683464
-0.16  0.86  0.0498955679488
-0.16  0.88  0.0423767252323
-0.16  0.9  0.0359909089171
-0.16  0.92  0.0305673814477
-0.16  0.94  0.0259611339831
-0.16  0.96  0.0220490092957
-0.16  0.98  0.0187264089173
-0.14  -1  0.0193354723386
-0.14  -0.98  0.0227661379827
-0.14  -0.96  0.0268055018037
-0.14  -0.94  0.0315615642624
-0.14  -0.92  0.0371614881893
-0.14  -0.9  0.0437549987373
-0.14  -0.88  0.051518386582
-0.14  -0.86  0.0606592214057
-0.14  -0.84  0.0714219016873
-0.14  -0.82  0.0840941891837
-0.14  -0.8  0.0990149028155
-0.14  -0.78  0.116582977667
-0.14  -0.76  0.137268131315
-0.14  -0.74  0.161623422661
-0.14  -0.72  0.190300039074
-0.14  -0.7  0.224064707176
-0.14  -0.68  0.263820192819
-0.14  -0.66  0.310629438328
-0.14  -0.64  0.365743982387
-0.14  -0.62  0.43063742243
-0.14  -0.6  0.507044814208
-0.14  -0.58  0.597009061972
-0.14  -0.56  0.702935539601
-0.14  -0.54  0.827656403073
-0.14  -0.52  0.974506313818
-0.14  -0.5  1.14741159755
-0.14  -0.48  1.35099522242
-0.14  -0.46  1.59070040333
-0.14  -0.44  1.87293613712
-0.14  -0.42  2.20524855994
-0.14  -0.4  2.59652270824
-0.14  -0.38  3.05722007799
-0.14  -0.36  3.59965833367
-0.14  -0.34  4.23834064561
-0.14  -0.32  4.99034346128
-0.14  -0.3  5.87577307815
-0.14  -0.28  6.91830322578
-0.14  -0.26  8.14580803023
-0.14  -0.24  9.59110728454
-0.14  -0.22  11.2928439514
-0.14  -0.2  9.86633349497
-0.14  -0.18  9.86960722481
-0.14  -0.16  9.81876194853
-0.14  -0.14  9.71860068027
-0.14  -0.12  9.57878963065
-0.14  -0.1  9.41329727455
-0.14  -0.08  9.23942331852
-0.14  -0.06  9.07631069066
-0.14  -0.04  8.94289651831
-0.14  -0.02  8.85543212833
-0.14  6.17561557e-16  8.82496863838
-0.14  0.02  8.85543212833
-0.14  0.04  8.94289651831
-0.14  0.06  9.07631069066
-0.14  0.08  9.23942331852
-0.14  0.1  9.41329727455
-0.14  0.12  9.57878963065
-0.14  0.14  9.71860068027
-0.14  0.16  9.81876194853
-0.14  0.18  9.86960722481
-0.14  0.2  13.29651736
-0.14  0.22  11.2928439514
-0.14  0.24  9.59110728453
-0.14  0.26  8.14580803023
-0.14  0.28  6.91830322577
-0.14  0.3  5.87577307815
-0.14  0.32  4.99034346127
-0.14  0.34  4.23834064561
-0.14  0.36  3.59965833367
-0.14  0.38  3.05722007799
-0.14  0.4  2.59652270824
-0.14  0.42  2.20524855994
-0.14  0.44  1.87293613712
-0.14  0.46  1.59070040333
-0.14  0.48  1.35099522242
-0.14  0.5  1.14741159755
-0.14  0.52  0.974506313818
-0.14  0.54  0.827656403073
-0.14  0.56  0.702935539601
-0.14  0.58  0.597009061972
-0.14  0.6  0.507044814208
-0.14  0.62  0.43063742243
-0.14  0.64  0.365743982387
-0.14  0.66  0.310629438328
-0.14  0.68  0.263820192819
-0.14  0.7  0.224064707176
-0.14  0.72  0.190300039073
-0.14  0.74  0.161623422661
-0.14  0.76  0.137268131315
-0.14  0.78  0.116582977667
-0.14  0.8  0.0990149028155
-0.14  0.82  0.0840941891837
-0.14  0.84  0.0714219016873
-0.14  0.86  0.0606592214057
-0.14  0.88  0.051518386582
-0.14  0.9  0.0437549987373
-0.14  0.92  0.0371614881893
-0.14  0.94  0.0315615642623
-0.14  0.96  0.0268055018037
-0.14  0.98  0.0227661379827
-0.12  -1  0.0235065907813
-0.12  -0.98  0.0276773321002
-0.12  -0.96  0.0325880821814
-0.12  -0.94  0.038370139738
-0.12  -0.92  0.0451780996291
-0.12  -0.9  0.0531939862622
-0.12  -0.88  0.0626321203789
-0.12  -0.86  0.0737448493486
-0.12  -0.84  0.0868292941792
-0.12  -0.82  0.102235293641
-0.12  -0.8  0.120374757905
-0.12  -0.78  0.141732681783
-0.12  -0.76  0.166880112036
-0.12  -0.74  0.196489415445
-0.12  -0.72  0.231352255886
-0.12  -0.7  0.27240076104
-0.12  -0.68  0.320732444692
-0.12  -0.66  0.377639550951
-0.12  -0.64  0.444643604983
-0.12  -0.62  0.523536094019
-0.12  -0.6  0.61642636635
-0.12  -0.58  0.725798028966
-0.12  -0.56  0.85457535175
-0.12  -0.54  1.00620145367
-0.12  -0.52  1.18473036146
-0.12  -0.5  1.39493540209
-0.12  -0.48  1.64243682724
-0.12  -0.46  1.93385208191
-0.12  -0.44  2.27697273508
-0.12  -0.42  2.68097280283
-0.12  -0.4  3.156654034
-0.12  -0.38  3.71673471654
-0.12  -0.36  4.37618972633
-0.12  -0.34  5.15265091037
-0.12  -0.32  6.0668785095
-0.12  -0.3  7.14331622486
-0.12  -0.28  8.41074476905
-0.12  -0.26  9.90305137605
-0.12  -0.24  11.660135844
-0.12  -0.22  13.7289773362
-0.12  -0.2  11.994734854
-0.12  -0.18  11.9987148047
-0.12  -0.16  11.9369010004
-0.12  -0.14  11.815132579
-0.12  -0.12  11.645160981
-0.12  -0.1  11.4439680118
-0.12  -0.08  11.2325853333
-0.12  -0.06  11.0342854559
-0.12  -0.04  10.8720906929
-0.12  -0.02  10.7657581665
-0.12  6.17561557e-16  10.7287229816
-0.12  0.02  10.7657581665
-0.12  0.04  10.8720906929
-0.12  0.06  11.0342854559
-0.12  0.08  11.2325853333
-0.12  0.1  11.4439680118
-0.12  0.12  11.645160981
-0.12  0.14  11.815132579
-0.12  0.16  11.9369010004
-0.12  0.18  11.9987148047
-0.12  0.2  16.1648904627
-0.12  0.22  13.7289773362
-0.12  0.24  11.660135844
-0.12  0.26  9.90305137605
-0.12  0.28  8.41074476905
-0.12  0.3  7.14331622485
-0.12  0.32  6.0668785095
-0.12  0.34  5.15265091037
-0.12  0.36  4.37618972633
-0.12  0.38  3.71673471654
-0.12  0.4  3.156654034
-0.12  0.42  2.68097280282
-0.12  0.44  2.27697273508
-0.12  0.46  1.93385208191
-0.12  0.48  1.64243682723
-0.12  0.5  1.39493540209
-0.12  0.52  1.18473036146
-0.12  0.54  1.00620145367
-0.12  0.56  0.85457535175
-0.12  0.58  0.725798028966
-0.12  0.6  0.61642636635
-0.12  0.62  0.523536094018
-0.12  0.64  0.444643604983
-0.12  0.66  0.377639550951
-0.12  0.68  0.320732444692
-0.12  0.7  0.27240076104
-0.12  0.72  0.231352255886
-0.12  0.74  0.196489415445
-0.12  0.76  0.166880112035
-0.12  0.78  0.141732681783
-0.12  0.8  0.120374757905
-0.12  0.82  0.102235293641
-0.12  0.84  0.0868292941792
-0.12  0.86  0.0737448493486
-0.12  0.88  0.0626321203789
-0.12  0.9  0.0531939862622
-0.12  0.92  0.0451780996291
-0.12  0.94  0.038370139738
-0.12  0.96  0.0325880821813
-0.12  0.98  0.0276773321002
-0.1  -1  0.0285775180705
-0.1  -0.98  0.0336479868815
-0.1  -0.96  0.0396181018373
-0.1  -0.94  0.0466474858874
-0.1  -0.92  0.0549240836562
-0.1  -0.9  0.0646691865186
-0.1  -0.88  0.0761433492664
-0.1  -0.86  0.0896533565618
-0.1  -0.84  0.105560425437
-0.1  -0.82  0.124289863156
-0.1  -0.8  0.146342438649
-0.1  -0.78  0.172307771574
-0.1  -0.76  0.202880096977
-0.1  -0.74  0.238876827048
-0.1  -0.72  0.281260406273
-0.1  -0.7  0.331164044309
-0.1  -0.68  0.389922014607
-0.1  -0.66  0.459105328879
-0.1  -0.64  0.540563741232
-0.1  -0.62  0.636475205043
-0.1  -0.6  0.749404104892
-0.1  -0.58  0.882369820503
-0.1  -0.56  1.0389274559
-0.1  -0.54  1.2232628922
-0.1  -0.52  1.44030470553
-0.1  -0.5  1.69585594233
-0.1  -0.48  1.99674927541
-0.1  -0.46  2.3510296891
-0.1  -0.44  2.76816957798
-0.1  -0.42  3.25932201025
-0.1  -0.4  3.83761892732
-0.1  -0.38  4.51852225249
-0.1  -0.36  5.32023729633
-0.1  -0.34  6.26419951206
-0.1  -0.32  7.37564761518
-0.1  -0.3  8.68429839098
-0.1  -0.28  10.2251412321
-0.1  -0.26  12.0393736499
-0.1  -0.24  14.1755027723
-0.1  -0.22  16.6906422785
-0.1  -0.2  14.5822826981
-0.1  -0.18  14.5871212183
-0.1  -0.16  14.5119727152
-0.1  -0.14  14.3639359668
-0.1  -0.12  14.1572974774
-0.1  -0.1  13.9127024288
-0.1  -0.08  13.6557195098
-0.1  -0.06  13.4146416614
-0.1  -0.04  13.217457654
-0.1  -0.02  13.0881866881
-0.1  6.17561557e-16  13.0431621384
-0.1  0.02  13.0881866881
-0.1  0.04  13.217457654
-0.1  0.06  13.4146416614
-0.1  0.08  13.6557195098
-0.1  0.1  13.9127024288
-0.1  0.12  14.1572974774
-0.1  0.14  14.3639359668
-0.1  0.16  14.5119727152
-0.1  0.18  14.5871212183
-0.1  0.2  19.6520394473
-0.1  0.22  16.6906422784
-0.1  0.24  14.1755027723
-0.1  0.26  12.0393736499
-0.1  0.28  10.2251412321
-0.1  0.3  8.68429839097
-0.1  0.32  7.37564761518
-0.1  0.34  6.26419951206
-0.1  0.36  5.32023729633
-0.1  0.38  4.51852225249
-0.1  0.4  3.83761892732
-0.1  0.42  3.25932201025
-0.1  0.44  2.76816957798
-0.1  0.46  2.3510296891
-0.1  0.48  1.99674927541
-0.1  0.5  1.69585594233
-0.1  0.52  1.44030470553
-0.1  0.54  1.2232628922
-0.1  0.56  1.0389274559
-0.1  0.58  0.882369820503
-0.1  0.6  0.749404104892
-0.1  0.62  0.636475205043
-0.1  0.64  0.540563741232
-0.1  0.66  0.459105328878
-0.1  0.68  0.389922014607
-0.1  0.7  0.331164044309
-0.1  0.72  0.281260406273
-0.1  0.74  0.238876827048
-0.1  0.76  0.202880096977
-0.1  0.78  0.172307771574
-0.1  0.8  0.146342438649
-0.1  0.82  0.124289863156
-0.1  0.84  0.105560425437
-0.1  0.86  0.0896533565618
-0.1  0.88  0.0761433492664
-0.1  0.9  0.0646691865185
-0.1  0.92  0.0549240836562
-0.1  0.94  0.0466474858874
-0.1  0.96  0.0396181018373
-0.1  0.98  0.0336479868815
-0.08  -1  0.0347423642446
-0.08  -0.98  0.0409066530357
-0.08  -0.96  0.0481646629113
-0.08  -0.94  0.0567104512642
-0.08  -0.92  0.0667725068171
-0.08  -0.9  0.0786198587254
-0.08  -0.88  0.0925692696086
-0.08  -0.86  0.108993704832
-0.08  -0.84  0.128332304482
-0.08  -0.82  0.15110212465
-0.08  -0.8  0.177911961963
-0.08  -0.78  0.209478630979
-0.08  -0.76  0.246646129652
-0.08  -0.74  0.290408205303
-0.08  -0.72  0.341934924446
-0.08  -0.7  0.402603956848
-0.08  -0.68  0.474037410282
-0.08  -0.66  0.558145200824
-0.08  -0.64  0.657176118266
-0.08  -0.62  0.773777952013
-0.08  -0.6  0.911068285015
-0.08  -0.58  1.07271784858
-0.08  -0.56  1.2630486667
-0.08  -0.54  1.487149614
-0.08  -0.52  1.75101247698
-0.08  -0.5  2.06169215638
-0.08  -0.48  2.42749529404
-0.08  -0.46  2.85820236758
-0.08  -0.44  3.36532919099
-0.08  -0.42  3.96243481295
-0.08  -0.4  4.66548404503
-0.08  -0.38  5.49327431289
-0.08  -0.36  6.46793824293
-0.08  -0.34  7.61553542233
-0.08  -0.32  8.96674915413
-0.08  -0.3  10.5577068366
-0.08  -0.28  12.4309459016
-0.08  -0.26  14.6365511375
-0.08  -0.24  17.2334938062
-0.08  -0.22  20.2912083576
-0.08  -0.2  17.7280257776
-0.08  -0.18  17.733908081
-0.08  -0.16  17.6425482694
-0.08  -0.14  17.4625764951
-0.08  -0.12  17.2113611988
-0.08  -0.1  16.9140012164
-0.08  -0.08  16.6015810072
-0.08  -0.06  16.3084969681
-0.08  -0.04  16.0687757092
-0.08  -0.02  15.9116179402
-0.08  6.17561557e-16  15.8568805309
-0.08  0.02  15.9116179402
-0.08  0.04  16.0687757092
-0.08  0.06  16.3084969681
-0.08  0.08  16.6015810072
-0.08  0.1  16.9140012164
-0.08  0.12  17.2113611988
-0.08  0.14  17.4625764951
-0.08  0.16  17.6425482694
-0.08  0.18  17.733908081
-0.08  0.2  23.8914488985
-0.08  0.22  20.2912083576
-0.08  0.24  17.2334938062
-0.08  0.26  14.6365511375
-0.08  0.28  12.4309459016
-0.08  0.3  10.5577068366
-0.08  0.32  8.96674915413
-0.08  0.34  7.61553542233
-0.08  0.36  6.46793824293
-0.08  0.38  5.49327431289
-0.08  0.4  4.66548404503
-0.08  0.42  3.96243481295
-0.08  0.44  3.36532919099
-0.08  0.46  2.85820236758
-0.08  0.48  2.42749529404
-0.08  0.5  2.06169215638
-0.08  0.52  1.75101247698
-0.08  0.54  1.487149614
-0.08  0.56  1.2630486667
-0.08  0.58  1.07271784858
-0.08  0.6  0.911068285015
-0.08  0.62  0.773777952013
-0.08  0.64  0.657176118266
-0.08  0.66  0.558145200823
-0.08  0.68  0.474037410282
-0.08  0.7  0.402603956848
-0.08  0.72  0.341934924446
-0.08  0.74  0.290408205303
-0.08  0.76  0.246646129651
-0.08  0.78  0.209478630979
-0.08  0.8  0.177911961963
-0.08  0.82  0.15110212465
-0.08  0.84  0.128332304482
-0.08  0.86  0.108993704832
-0.08  0.88  0.0925692696085
-0.08  0.9  0.0786198587253
-0.08  0.92  0.0667725068171
-0.08  0.94  0.0567104512642
-0.08  0.96  0.0481646629113
-0.08  0.98  0.0409066530357
-0.06  -1  0.0422371134653
-0.06  -0.98  0.0497311850625
-0.06  -0.96  0.0585549192359
-0.06  -0.94  0.0689442361451
-0.06  -0.92  0.0811769149314
-0.06  -0.9  0.0955800206985
-0.06  -0.88  0.112538649251
-0.06  -0.86  0.132506223399
-0.06  -0.84  0.156016616126
-0.06  -0.82  0.183698424746
-0.06  -0.8  0.216291777709
-0.06  -0.78  0.254668123417
-0.06  -0.76  0.299853530132
-0.06  -0.74  0.353056119966
-0.06  -0.72  0.415698370437
-0.06  -0.7  0.489455147245
-0.06  -0.68  0.576298485157
-0.06  -0.66  0.678550314289
-0.06  -0.64  0.798944541554
-0.06  -0.62  0.940700147119
-0.06  -0.6  1.10760725027
-0.06  -0.58  1.30412844583
-0.06  -0.56  1.53551812053
-0.06  -0.54  1.80796293955
-0.06  -0.52  2.12874725936
-0.06  -0.5  2.50644788957
-0.06  -0.48  2.95116341102
-0.06  -0.46  3.47478418153
-0.06  -0.44  4.09131024841
-0.06  -0.42  4.81722566764
-0.06  -0.4  5.67193923803
-0.06  -0.38  6.67830343428
-0.06  -0.36  7.86322541351
-0.06  -0.34  9.25838643184
-0.06  -0.32  10.9010889061
-0.06  -0.3  12.8352537684
-0.06  -0.28  15.11259478
-0.06  -0.26  17.7940012022
-0.06  -0.24  20.9511657921
-0.06  -0.22  24.6685016517
-0.06  -0.2  21.5523799996
-0.06  -0.18  21.5595312549
-0.06  -0.16  21.4484629724
-0.06  -0.14  21.2296670321
-0.06  -0.12  20.9242586581
-0.06  -0.1  20.5627510983
-0.06  -0.08  20.1829344649
-0.06  -0.06  19.8266252706
-0.06  -0.04  19.5351904695
-0.06  -0.02  19.3441300547
-0.06  6.17561557e-16  19.2775844923
-0.06  0.02  19.3441300547
-0.06  0.04  19.5351904695
-0.06  0.06  19.8266252706
-0.06  0.08  20.1829344649
-0.06  0.1  20.5627510983
-0.06  0.12  20.9242586581
-0.06  0.14  21.2296670321
-0.06  0.16  21.4484629724
-0.06  0.18  21.5595312549
-0.06  0.2  29.045399181
-0.06  0.22  24.6685016517
-0.06  0.24  20.9511657921
-0.06  0.26  17.7940012022
-0.06  0.28  15.11259478
-0.06  0.3  12.8352537684
-0.06  0.32  10.9010889061
-0.06  0.34  9.25838643184
-0.06  0.36  7.86322541351
-0.06  0.38  6.67830343428
-0.06  0.4  5.67193923803
-0.06  0.42  4.81722566764
-0.06  0.44  4.09131024841
-0.06  0.46  3.47478418153
-0.06  0.48  2.95116341102
-0.06  0.5  2.50644788957
-0.06  0.52  2.12874725936
-0.06  0.54  1.80796293955
-0.06  0.56  1.53551812053
-0.06  0.58  1.30412844583
-0.06  0.6  1.10760725027
-0.06  0.62  0.940700147119
-0.06  0.64  0.798944541554
-0.06  0.66  0.678550314289
-0.06  0.68  0.576298485156
-0.06  0.7  0.489455147245
-0.06  0.72  0.415698370437
-0.06  0.74  0.353056119966
-0.06  0.76  0.299853530132
-0.06  0.78  0.254668123417
-0.06  0.8  0.216291777709
-0.06  0.82  0.183698424746
-0.06  0.84  0.156016616126
-0.06  0.86  0.132506223399
-0.06  0.88  0.112538649251
-0.06  0.9  0.0955800206984
-0.06  0.92  0.0811769149314
-0.06  0.94  0.0689442361451
-0.06  0.96  0.0585549192359
-0.06  0.98  0.0497311850625
-0.04  -1  0.0513486572567
-0.04  -0.98  0.0604593772451
-0.04  -0.96  0.0711865994585
-0.04  -0.94  0.0838171376116
-0.04  -0.92  0.0986886943729
-0.04  -0.9  0.11619889052
-0.04  -0.88  0.136815896125
-0.04  -0.86  0.161090948019
-0.04  -0.84  0.189673088204
-0.04  -0.82  0.223326517297
-0.04  -0.8  0.262951026948
-0.04  -0.78  0.30960605758
-0.04  -0.76  0.364539024633
-0.04  -0.74  0.429218670718
-0.04  -0.72  0.505374335376
-0.04  -0.7  0.595042192432
-0.04  -0.68  0.700619691167
-0.04  -0.66  0.824929656911
-0.04  -0.64  0.971295764922
-0.04  -0.62  1.14363140548
-0.04  -0.6  1.34654431619
-0.04  -0.58  1.58545977908
-0.04  -0.56  1.86676567628
-0.04  -0.54  2.19798328292
-0.04  -0.52  2.58796836334
-0.04  -0.5  3.04714794772
-0.04  -0.48  3.58779911949
-0.04  -0.46  4.22437726776
-0.04  -0.44  4.97390258094
-0.04  -0.42  5.85641511555
-0.04  -0.4  6.89551060712
-0.04  -0.38  8.11897134933
-0.04  -0.36  9.55950900911
-0.04  -0.34  11.2556392384
-0.04  -0.32  13.2527114672
-0.04  -0.3  15.6041214108
-0.04  -0.28  18.3727387113
-0.04  -0.26  21.6325878829
-0.04  -0.24  25.470827505
-0.04  -0.22  29.9900805813
-0.04  -0.2  26.2017378288
-0.04  -0.18  26.2104317789
-0.04  -0.16  26.0754034424
-0.04  -0.14  25.8094080458
-0.04  -0.12  25.4381158662
-0.04  -0.1  24.9986225804
-0.04  -0.08  24.5368705208
-0.04  -0.06  24.1036970107
-0.04  -0.04  23.749392834
-0.04  -0.02  23.5171161714
-0.04  6.17561557e-16  23.4362151582
-0.04  0.02  23.5171161714
-0.04  0.04  23.749392834
-0.04  0.06  24.1036970107
-0.04  0.08  24.5368705208
-0.04  0.1  24.9986225804
-0.04  0.12  25.4381158662
-0.04  0.14  25.8094080458
-0.04  0.16  26.0754034424
-0.04  0.18  26.2104317789
-0.04  0.2  35.3111783705
-0.04  0.22  29.9900805813
-0.04  0.24  25.470827505
-0.04  0.26  21.6325878829
-0.04  0.28  18.3727387113
-0.04  0.3  15.6041214108
-0.04  0.32  13.2527114672
-0.04  0.34  11.2556392384
-0.04  0.36  9.55950900911
-0.04  0.38  8.11897134933
-0.04  0.4  6.89551060712
-0.04  0.42  5.85641511555
-0.04  0.44  4.97390258094
-0.04  0.46  4.22437726776
-0.04  0.48  3.58779911949
-0.04  0.5  3.04714794772
-0.04  0.52  2.58796836334
-0.04  0.54  2.19798328292
-0.04  0.56  1.86676567628
-0.04  0.58  1.58545977908
-0.04  0.6  1.34654431619
-0.04  0.62  1.14363140548
-0.04  0.64  0.971295764922
-0.04  0.66  0.824929656911
-0.04  0.68  0.700619691167
-0.04  0.7  0.595042192432
-0.04  0.72  0.505374335376
-0.04  0.74  0.429218670717
-0.04  0.76  0.364539024633
-0.04  0.78  0.30960605758
-0.04  0.8  0.262951026948
-0.04  0.82  0.223326517297
-0.04  0.84  0.189673088204
-0.04  0.86  0.161090948019
-0.04  0.88  0.136815896125
-0.04  0.9  0.11619889052
-0.04  0.92  0.0986886943728
-0.04  0.94  0.0838171376116
-0.04  0.96  0.0711865994584
-0.04  0.98  0.060459377245
-0.02  -1  0.062425776426
-0.02  -0.98  0.0735018940785
-0.02  -0.96  0.0865432316975
-0.02  -0.94  0.101898475496
-0.02  -0.92  0.11997817859
-0.02  -0.9  0.141265737958
-0.02  -0.88  0.166330319026
-0.02  -0.86  0.195842073435
-0.02  -0.84  0.230590056894
-0.02  -0.82  0.271503326154
-0.02  -0.8  0.319675779197
-0.02  -0.78  0.376395402785
-0.02  -0.76  0.443178709358
-0.02  -0.74  0.521811284025
-0.02  -0.72  0.614395525747
-0.02  -0.7  0.723406859173
-0.02  -0.68  0.851759920066
-0.02  -0.66  1.00288648391
-0.02  -0.64  1.18082722127
-0.02  -0.62  1.39033973323
-0.02  -0.6  1.63702575532
-0.02  -0.58  1.92748093112
-0.02  -0.56  2.26947115997
-0.02  -0.54  2.67214023381
-0.02  -0.52  3.1462543147
-0.02  -0.5  3.70448978968
-0.02  -0.48  4.36177219932
-0.02  -0.46  5.13567530184
-0.02  -0.44  6.04689094265
-0.02  -0.42  7.11978229214
-0.02  -0.4  8.38303524377
-0.02  -0.38  9.8704253887
-0.02  -0.36  11.6217210737
-0.02  -0.34  13.6837466872
-0.02  -0.32  16.1116346033
-0.02  -0.3  18.9702992553
-0.02  -0.28  22.3361727531
-0.02  -0.26  26.2992484486
-0.02  -0.24  30.9654870869
-0.02  -0.22  36.4596498796
-0.02  -0.2  31.8540720451
-0.02  -0.18  31.8646414857
-0.02  -0.16  31.7004843452
-0.02  -0.14  31.3771074538
-0.02  -0.12  30.9257187744
-0.02  -0.1  30.3914163979
-0.02  -0.08  29.830053504
-0.02  -0.06  29.3034342283
-0.02  -0.04  28.8726982654
-0.02  -0.02  28.5903140361
-0.02  6.17561557e-16  28.4919607619
-0.02  0.02  28.5903140361
-0.02  0.04  28.8726982654
-0.02  0.06  29.3034342283
-0.02  0.08  29.830053504
-0.02  0.1  30.3914163979
-0.02  0.12  30.9257187744
-0.02  0.14  31.3771074538
-0.02  0.16  31.7004843452
-0.02  0.18  31.8646414857
-0.02  0.2  42.928634244
-0.02  0.22  36.4596498796
-0.02  0.24  30.9654870869
-0.02  0.26  26.2992484486
-0.02  0.28  22.3361727531
-0.02  0.3  18.9702992553
-0.02  0.32  16.1116346033
-0.02  0.34  13.6837466872
-0.02  0.36  11.6217210737
-0.02  0.38  9.8704253887
-0.02  0.4  8.38303524377
-0.02  0.42  7.11978229214
-0.02  0.44  6.04689094264
-0.02  0.46  5.13567530184
-0.02  0.48  4.36177219932
-0.02  0.5  3.70448978968
-0.02  0.52  3.14625431469
-0.02  0.54  2.67214023381
-0.02  0.56  2.26947115997
-0.02  0.58  1.92748093112
-0.02  0.6  1.63702575532
-0.02  0.62  1.39033973323
-0.02  0.64  1.18082722127
-0.02  0.66  1.00288648391
-0.02  0.68  0.851759920065
-0.02  0.7  0.723406859173
-0.02  0.72  0.614395525747
-0.02  0.74  0.521811284025
-0.02  0.76  0.443178709358
-0.02  0.78  0.376395402785
-0.02  0.8  0.319675779197
-0.02  0.82  0.271503326154
-0.02  0.84  0.230590056894
-0.02  0.86  0.195842073435
-0.02  0.88  0.166330319026
-0.02  0.9  0.141265737958
-0.02  0.92  0.11997817859
-0.02  0.94  0.101898475496
-0.02  0.96  0.0865432316975
-0.02  0.98  0.0735018940785
2.8449465e-16  -1  0.0758924920452
2.8449465e-16  -0.98  0.0893579900969
2.8449465e-16  -0.96  0.105212652516
2.8449465e-16  -0.94  0.123880385375
2.8449465e-16  -0.92  0.145860307801
2.8449465e-16  -0.9  0.171740096929
2.8449465e-16  -0.88  0.202211700619
2.8449465e-16  -0.86  0.238089838064
2.8449465e-16  -0.84  0.280333782942
2.8449465e-16  -0.82  0.330073011504
2.8449465e-16  -0.8  0.388637401387
2.8449465e-16  -0.78  0.457592788543
2.8449465e-16  -0.76  0.538782832993
2.8449465e-16  -0.74  0.634378312762
2.8449465e-16  -0.72  0.746935163965
2.8449465e-16  -0.7  0.879462818863
2.8449465e-16  -0.68  1.03550466905
2.8449465e-16  -0.66  1.2192328051
2.8449465e-16  -0.64  1.43555956574
2.8449465e-16  -0.62  1.69026887907
2.8449465e-16  -0.6  1.99017090738
2.8449465e-16  -0.58  2.34328413049
2.8449465e-16  -0.56  2.7590497358
2.8449465e-16  -0.54  3.24858404731
2.8449465e-16  -0.52  3.82497574273
2.8449465e-16  -0.5  4.50363580545
2.8449465e-16  -0.48  5.30270956794
2.8449465e-16  -0.46  6.24356186349
2.8449465e-16  -0.44  7.35134825768
2.8449465e-16  -0.42  8.65568763267
2.8449465e-16  -0.4  10.1914541072
2.8449465e-16  -0.38  11.9997094659
2.8449465e-16  -0.36  14.1288010279
2.8449465e-16  -0.34  16.6356543093
2.8449465e-16  -0.32  19.5872950402
2.8449465e-16  -0.3  23.0626412318
2.8449465e-16  -0.28  27.1546132069
2.8449465e-16  -0.26  31.9726180105
2.8449465e-16  -0.24  37.6454746255
2.8449465e-16  -0.22  44.3248582057
2.8449465e-16  -0.2  38.7257483639
2.8449465e-16  -0.18  38.7385978827
2.8449465e-16  -0.16  38.5390281666
2.8449465e-16  -0.14  38.1458912356
2.8449465e-16  -0.12  37.5971273479
2.8449465e-16  -0.1  36.9475633187
2.8449465e-16  -0.08  36.265101179
2.8449465e-16  -0.06  35.624877677
2.8449465e-16  -0.04  35.1012217851
2.8449465e-16  -0.02  34.7579206024
2.8449465e-16  6.17561557e-16  34.6383502021
2.8449465e-16  0.02  34.7579206024
2.8449465e-16  0.04  35.1012217851
2.8449465e-16  0.06  35.624877677
2.8449465e-16  0.08  36.265101179
2.8449465e-16  0.1  36.9475633187
2.8449465e-16  0.12  37.5971273479
2.8449465e-16  0.14  38.1458912356
2.8449465e-16  0.16  38.5390281666
2.8449465e-16  0.18  38.7385978827
2.8449465e-16  0.2  52.1893554138
2.8449465e-16  0.22  44.3248582057
2.8449465e-16  0.24  37.6454746255
2.8449465e-16  0.26  31.9726180105
2.8449465e-16  0.28  27.1546132069
2.8449465e-16  0.3  23.0626412318
2.8449465e-16  0.32  19.5872950402
2.8449465e-16  0.34  16.6356543093
2.8449465e-16  0.36  14.1288010279
2.8449465e-16  0.38  11.9997094659
2.8449465e-16  0.4  10.1914541072
2.8449465e-16  0.42  8.65568763267
2.8449465e-16  0.44  7.35134825767
2.8449465e-16  0.46  6.24356186349
2.8449465e-16  0.48  5.30270956794
2.8449465e-16  0.5  4.50363580545
2.8449465e-16  0.52  3.82497574273
2.8449465e-16  0.54  3.24858404731
2.8449465e-16  0.56  2.7590497358
2.8449465e-16  0.58  2.34328413049
2.8449465e-16  0.6  1.99017090738
2.8449465e-16  0.62  1.69026887907
2.8449465e-16  0.64  1.43555956574
2.8449465e-16  0.66  1.2192328051
2.8449465e-16  0.68  1.03550466905
2.8449465e-16  0.7  0.879462818862
2.8449465e-16  0.72  0.746935163965
2.8449465e-16  0.74  0.634378312762
2.8449465e-16  0.76  0.538782832993
2.8449465e-16  0.78  0.457592788543
2.8449465e-16  0.8  0.388637401387
2.8449465e-16  0.82  0.330073011504
2.8449465e-16  0.84  0.280333782942
2.8449465e-16  0.86  0.238089838064
2.8449465e-16  0.88  0.202211700618
2.8449465e-16  0.9  0.171740096929
2.8449465e-16  0.92  0.145860307801
2.8449465e-16  0.94  0.123880385375
2.8449465e-16  0.96  0.105212652516
2.8449465e-16  0.98  0.0893579900969
0.02  -1  0.0900108180841
0.02  -0.98  0.105981310855
0.02  -0.96  0.12478542568
0.02  -0.94  0.146925928134
0.02  -0.92  0.172994788778
0.02  -0.9  0.203689010676
0.02  -0.88  0.239829265166
0.02  -0.86  0.282381834147
0.02  -0.84  0.332484445552
0.02  -0.82  0.391476692784
0.02  -0.8  0.460935851416
0.02  -0.78  0.542719050807
0.02  -0.76  0.639012928163
0.02  -0.74  0.752392092653
0.02  -0.72  0.885887962728
0.02  -0.7  1.04306981715
0.02  -0.68  1.22814022677
0.02  -0.66  1.44604741871
0.02  -0.64  1.70261757703
0.02  -0.62  2.00471061744
0.02  -0.6  2.36040360085
0.02  -0.58  2.77920668969
0.02  -0.56  3.27231742115
0.02  -0.54  3.85292009569
0.02  -0.52  4.53653828563
0.02  -0.5  5.34144988887
0.02  -0.48  6.28917582504
0.02  -0.46  7.40505544023
0.02  -0.44  8.71892400503
0.02  -0.42  10.2659104201
0.02  -0.4  12.0873764576
0.02  -0.38  14.2320226506
0.02  -0.36  16.7571903992
0.02  -0.34  19.7303951075
0.02  -0.32  23.2311313426
0.02  -0.3  27.352998281
0.02  -0.28  32.2062022691
0.02  -0.26  37.9205034103
0.02  -0.24  44.6486849607
0.02  -0.22  52.5706382942
0.02  -0.2  45.9299226737
0.02  -0.18  45.9451625963
0.02  -0.16  45.7084668056
0.02  -0.14  45.2421943744
0.02  -0.12  44.5913436098
0.02  -0.1  43.8209407928
0.02  -0.08  43.0115198098
0.02  -0.06  42.2521951439
0.02  -0.04  41.6311232308
0.02  -0.02  41.2239575222
0.02  6.17561557e-16  41.0821433682
0.02  0.02  41.2239575222
0.02  0.04  41.6311232308
0.02  0.06  42.2521951439
0.02  0.08  43.0115198098
0.02  0.1  43.8209407928
0.02  0.12  44.5913436098
0.02  0.14  45.2421943744
0.02  0.16  45.7084668056
0.02  0.18  45.9451625963
0.02  0.2  61.8981726583
0.02  0.22  52.5706382942
0.02  0.24  44.6486849607
0.02  0.26  37.9205034103
0.02  0.28  32.2062022691
0.02  0.3  27.352998281
0.02  0.32  23.2311313426
0.02  0.34  19.7303951075
0.02  0.36  16.7571903992
0.02  0.38  14.2320226506
0.02  0.4  12.0873764576
0.02  0.42  10.2659104201
0.02  0.44  8.71892400503
0.02  0.46  7.40505544022
0.02  0.48  6.28917582504
0.02  0.5  5.34144988887
0.02  0.52  4.53653828563
0.02  0.54  3.85292009569
0.02  0.56  3.27231742115
0.02  0.58  2.77920668969
0.02  0.6  2.36040360084
0.02  0.62  2.00471061744
0.02  0.64  1.70261757703
0.02  0.66  1.44604741871
0.02  0.68  1.22814022677
0.02  0.7  1.04306981715
0.02  0.72  0.885887962728
0.02  0.74  0.752392092653
0.02  0.76  0.639012928163
0.02  0.78  0.542719050807
0.02  0.8  0.460935851416
0.02  0.82  0.391476692784
0.02  0.84  0.332484445552
0.02  0.86  0.282381834147
0.02  0.88  0.239829265166
0.02  0.9  0.203689010676
0.02  0.92  0.172994788778
0.02  0.94  0.146925928134
0.02  0.96  0.12478542568
0.02  0.98  0.105981310855
0.04  -1  0.102555845849
0.04  -0.98  0.12075218524
0.04  -0.96  0.142177075519
0.04  -0.94  0.167403353927
0.04  -0.92  0.197105495409
0.04  -0.9  0.23207764605
0.04  -0.88  0.273254856161
0.04  -0.86  0.321738080707
0.04  -0.84  0.37882361555
0.04  -0.82  0.446037756496
0.04  -0.8  0.525177607873
0.04  -0.78  0.618359131697
0.04  -0.76  0.728073722149
0.04  -0.74  0.857254817971
0.04  -0.72  1.00935633381
0.04  -0.7  1.18844500754
0.04  -0.68  1.3993091326
0.04  -0.66  1.6475865826
0.04  -0.64  1.93991555111
0.04  -0.62  2.28411203709
0.04  -0.6  2.68937882115
0.04  -0.58  3.16655152032
0.04  -0.56  3.72838829993
0.04  -0.54  4.38991098862
0.04  -0.52  5.16880671692
0.04  -0.5  6.08590081807
0.04  -0.48  7.16571363486
0.04  -0.46  8.43711611999
0.04  -0.44  9.93410175867
0.04  -0.42  11.6966954523
0.04  -0.4  13.7720236644
0.04  -0.38  16.2155744403
0.04  -0.36  19.0926809912
0.04  -0.34  22.4802685083
0.04  -0.32  26.4689109107
0.04  -0.3  31.165252521
0.04  -0.28  36.6948594135
0.04  -0.26  43.2055766745
0.04  -0.24  50.8714813358
0.04  -0.22  59.8975366721
0.04  -0.2  52.3312882811
0.04  -0.18  52.3486522289
0.04  -0.16  52.0789675672
0.04  -0.14  51.5477096074
0.04  -0.12  50.8061481807
0.04  -0.1  49.9283724396
0.04  -0.08  49.0061404755
0.04  -0.06  48.1409868746
0.04  -0.04  47.4333546506
0.04  -0.02  46.9694412618
0.04  6.17561557e-16  46.8078621225
0.04  0.02  46.9694412618
0.04  0.04  47.4333546506
0.04  0.06  48.1409868746
0.04  0.08  49.0061404755
0.04  0.1  49.9283724396
0.04  0.12  50.8061481807
0.04  0.14  51.5477096074
0.04  0.16  52.0789675672
0.04  0.18  52.3486522289
0.04  0.2  70.5250723034
0.04  0.22  59.8975366721
0.04  0.24  50.8714813358
0.04  0.26  43.2055766744
0.04  0.28  36.6948594135
0.04  0.3  31.165252521
0.04  0.32  26.4689109107
0.04  0.34  22.4802685083
0.04  0.36  19.0926809912
0.04  0.38  16.2155744403
0.04  0.4  13.7720236644
0.04  0.42  11.6966954523
0.04  0.44  9.93410175867
0.04  0.46  8.43711611998
0.04  0.48  7.16571363486
0.04  0.5  6.08590081807
0.04  0.52  5.16880671692
0.04  0.54  4.38991098862
0.04  0.56  3.72838829993
0.04  0.58  3.16655152032
0.04  0.6  2.68937882115
0.04  0.62  2.28411203709
0.04  0.64  1.93991555111
0.04  0.66  1.6475865826
0.04  0.68  1.3993091326
0.04  0.7  1.18844500754
0.04  0.72  1.00935633381
0.04  0.74  0.857254817971
0.04  0.76  0.728073722149
0.04  0.78  0.618359131697
0.04  0.8  0.525177607873
0.04  0.82  0.446037756496
0.04  0.84  0.378823615549
0.04  0.86  0.321738080707
0.04  0.88  0.273254856161
0.04  0.9  0.23207764605
0.04  0.92  0.197105495408
0.04  0.94  0.167403353927
0.04  0.96  0.142177075519
0.04  0.98  0.12075218524
0.06  -1  0.113308300913
0.06  -0.98  0.133412433273
0.06  -0.96  0.157083613542
0.06  -0.94  0.184954738012
0.06  -0.92  0.21777099687
0.06  -0.9  0.256409798351
0.06  -0.88  0.301904227999
0.06  -0.86  0.355470670269
0.06  -0.84  0.418541331002
0.06  -0.82  0.492802530302
0.06  -0.8  0.580239789678
0.06  -0.78  0.683190918925
0.06  -0.76  0.804408522139
0.06  -0.74  0.947133594089
0.06  -0.72  1.11518217468
0.06  -0.7  1.31304737842
0.06  -0.68  1.54601952677
0.06  -0.66  1.82032759552
0.06  -0.64  2.14330575885
0.06  -0.62  2.52358948313
0.06  -0.6  2.97134641339
0.06  -0.58  3.49854822562
0.06  -0.56  4.11929071339
0.06  -0.54  4.85017066713
0.06  -0.52  5.71072962242
0.06  -0.5  6.72397634199
0.06  -0.48  7.91700200095
0.06  -0.46  9.3217045235
0.06  -0.44  10.9756414376
0.06  -0.42  12.9230340507
0.06  -0.4  15.2159497943
0.06  -0.38  17.9156943512
0.06  -0.36  21.0944507852
0.06  -0.34  24.8372094994
0.06  -0.32  29.2440406247
0.06  -0.3  34.4327695944
0.06  -0.28  40.5421274425
0.06  -0.26  47.7354600552
0.06  -0.24  56.2050955494
0.06  -0.22  66.1774865491
0.06  -0.2  57.8179557746
0.06  -0.18  57.8371402434
0.06  -0.16  57.5391805265
0.06  -0.14  56.9522228911
0.06  -0.12  56.1329125477
0.06  -0.1  55.1631065168
0.06  -0.08  54.1441832557
0.06  -0.06  53.1883227317
0.06  -0.04  52.4064988941
0.06  -0.02  51.893946563
0.06  6.17561557e-16  51.7154266787
0.06  0.02  51.893946563
0.06  0.04  52.4064988941
0.06  0.06  53.1883227317
0.06  0.08  54.1441832557
0.06  0.1  55.1631065168
0.06  0.12  56.1329125477
0.06  0.14  56.9522228911
0.06  0.16  57.5391805265
0.06  0.18  57.8371402434
0.06  0.2  77.9192648485
0.06  0.22  66.177486549
0.06  0.24  56.2050955494
0.06  0.26  47.7354600552
0.06  0.28  40.5421274425
0.06  0.3  34.4327695944
0.06  0.32  29.2440406247
0.06  0.34  24.8372094994
0.06  0.36  21.0944507852
0.06  0.38  17.9156943512
0.06  0.4  15.2159497943
0.06  0.42  12.9230340507
0.06  0.44  10.9756414376
0.06  0.46  9.3217045235
0.06  0.48  7.91700200095
0.06  0.5  6.72397634198
0.06  0.52  5.71072962242
0.06  0.54  4.85017066713
0.06  0.56  4.11929071339
0.06  0.58  3.49854822561
0.06  0.6  2.97134641339
0.06  0.62  2.52358948313
0.06  0.64  2.14330575885
0.06  0.66  1.82032759552
0.06  0.68  1.54601952677
0.06  0.7  1.31304737842
0.06  0.72  1.11518217468
0.06  0.74  0.947133594089
0.06  0.76  0.804408522139
0.06  0.78  0.683190918925
0.06  0.8  0.580239789678
0.06  0.82  0.492802530302
0.06  0.84  0.418541331002
0.06  0.86  0.355470670269
0.06  0.88  0.301904227999
0.06  0.9  0.256409798351
0.06  0.92  0.21777099687
0.06  0.94  0.184954738012
0.06  0.96  0.157083613542
0.06  0.98  0.133412433273
0.08  -1  0.122080241212
0.08  -0.98  0.143740766593
0.08  -0.96  0.169244488507
0.08  -0.94  0.199273299906
0.08  -0.92  0.234630081049
0.08  -0.9  0.276260166109
0.08  -0.88  0.32527661857
0.08  -0.86  0.382989991205
0.08  -0.84  0.45094336632
0.08  -0.82  0.530953613144
0.08  -0.8  0.625159965454
0.08  -0.78  0.736081218268
0.08  -0.76  0.866683072857
0.08  -0.74  1.02045743069
0.08  -0.72  1.20151575642
0.08  -0.7  1.41469900606
0.08  -0.68  1.66570705964
0.08  -0.66  1.96125111889
0.08  -0.64  2.30923314463
0.08  -0.62  2.71895713145
0.08  -0.6  3.20137786859
0.08  -0.58  3.76939383816
0.08  -0.56  4.43819208178
0.08  -0.54  5.22565425649
0.08  -0.52  6.15283473657
0.08  -0.5  7.24452354432
0.08  -0.48  8.52990916077
0.08  -0.46  10.0433589381
0.08  -0.44  11.8253379793
0.08  -0.42  13.9234910539
0.08  -0.4  16.3939164755
0.08  -0.38  19.3026660028
0.08  -0.36  22.7275108649
0.08  -0.34  26.7600211307
0.08  -0.32  31.5080140176
0.08  -0.3  37.0984366
0.08  -0.28  43.6807599932
0.08  -0.26  51.430975762
0.08  -0.24  60.5563014069
0.08  -0.22  71.3007207379
0.08  -0.2  62.2940237428
0.08  -0.18  62.3146934074
0.08  -0.16  61.9936666704
0.08  -0.14  61.3612687866
0.08  -0.12  60.4785302446
0.08  -0.1  59.4336451548
0.08  -0.08  58.3358403471
0.08  -0.06  57.3059803775
0.08  -0.04  56.463630418
0.08  -0.02  55.9113980422
0.08  6.17561557e-16  55.7190577603
0.08  0.02  55.9113980422
0.08  0.04  56.463630418
0.08  0.06  57.3059803775
0.08  0.08  58.3358403471
0.08  0.1  59.4336451548
0.08  0.12  60.4785302446
0.08  0.14  61.3612687866
0.08  0.16  61.9936666704
0.08  0.18  62.3146934074
0.08  0.2  83.9515072691
0.08  0.22  71.3007207379
0.08  0.24  60.5563014069
0.08  0.26  51.430975762
0.08  0.28  43.6807599932
0.08  0.3  37.0984366
0.08  0.32  31.5080140175
0.08  0.34  26.7600211307
0.08  0.36  22.7275108649
0.08  0.38  19.3026660028
0.08  0.4  16.3939164755
0.08  0.42  13.9234910539
0.08  0.44  11.8253379793
0.08  0.46  10.0433589381
0.08  0.48  8.52990916076
0.08  0.5  7.24452354432
0.08  0.52  6.15283473657
