0.16  6.17561557e-16  67.8989604715
0.16  0.02  67.385748803
0.16  0.04  65.8758782609
0.16  0.06  63.4599636973
0.16  0.08  60.2935730754
0.16  0.1  56.6042487091
0.16  0.12  52.700393891
0.16  0.14  48.9766016885
0.16  0.16  45.8997337583
0.16  0.18  43.9470060574
0.16  0.2  60.3227765459
0.16  0.22  46.517227886
0.16  0.24  35.8712349481
0.16  0.26  27.6616977231
0.16  0.28  21.3310058054
0.16  0.3  16.4491642279
0.16  0.32  12.6845872279
0.16  0.34  9.78157618907
0.16  0.36  7.54295201126
0.16  0.38  5.81666225814
0.16  0.4  4.48545341065
0.16  0.42  3.45890674174
0.16  0.44  2.66729687119
0.16  0.46  2.05685585945
0.16  0.48  1.58612116718
0.16  0.5  1.22311942542
0.16  0.52  0.943194731774
0.16  0.54  0.727333965561
0.16  0.56  0.560875373492
0.16  0.58  0.432512710096
0.16  0.6  0.333527291865
0.16  0.62  0.257195804475
0.16  0.64  0.198333640014
0.16  0.66  0.152942746642
0.16  0.68  0.117940071834
0.16  0.7  0.0909481544538
0.16  0.72  0.070133642196
0.16  0.74  0.0540827661344
0.16  0.76  0.0417053143279
0.16  0.78  0.0321605821504
0.16  0.8  0.024800269724
0.16  0.82  0.0191244479191
0.16  0.84  0.0147476020333
0.16  0.86  0.0113724467579
0.16  0.88  0.00876973388412
0.16  0.9  0.0067626812449
0.16  0.92  0.00521496526855
0.16  0.94  0.00402146157232
0.16  0.96  0.00310110467564
0.16  0.98  0.0023913818487
0.18  -1  0.00180202907529
0.18  -0.98  0.00233684168593
0.18  -0.96  0.003030377889
0.18  -0.94  0.0039297442379
0.18  -0.92  0.00509602773678
0.18  -0.9  0.00660844500861
0.18  -0.88  0.00856972286799
0.18  -0.86  0.0111130757597
0.18  -0.84  0.0144112539859
0.18  -0.82  0.0186882772996
0.18  -0.8  0.0242346508337
0.18  -0.78  0.0314270968703
0.18  -0.76  0.0407541426724
0.18  -0.74  0.0528493023654
0.18  -0.72  0.0685341066541
0.18  -0.7  0.0888739030538
0.18  -0.68  0.115250216711
0.18  -0.66  0.14945458673
0.18  -0.64  0.193810251574
0.18  -0.62  0.251329948694
0.18  -0.6  0.325920546502
0.18  -0.58  0.422648407737
0.18  -0.56  0.548083508327
0.18  -0.54  0.710745685068
0.18  -0.52  0.921683322283
0.18  -0.5  1.19522378316
0.18  -0.48  1.54994655681
0.18  -0.46  2.00994521929
0.18  -0.44  2.60646392408
0.18  -0.42  3.38001957581
0.18  -0.4  4.38315383049
0.18  -0.38  5.68400184403
0.18  -0.36  7.3709201667
0.18  -0.34  9.55848812064
0.18  -0.32  12.3952902875
0.18  -0.3  16.0740087107
0.18  -0.28  20.8445102968
0.18  -0.26  27.0308183438
0.18  -0.24  35.0531209384
0.18  -0.22  45.4563110851
0.18  -0.2  42.4855725116
0.18  -0.18  42.9447082165
0.18  -0.16  44.8529001246
0.18  -0.14  47.8595940347
0.18  -0.12  51.4984578378
0.18  -0.1  55.3132775746
0.18  -0.08  58.9184596482
0.18  -0.06  62.0126345092
0.18  -0.04  64.3734493933
0.18  -0.02  65.8488843703
0.18  6.17561557e-16  66.3503912381
0.18  0.02  65.8488843703
0.18  0.04  64.3734493933
0.18  0.06  62.0126345092
0.18  0.08  58.9184596482
0.18  0.1  55.3132775746
0.18  0.12  51.4984578378
0.18  0.14  47.8595940347
0.18  0.16  44.8529001246
0.18  0.18  42.9447082165
0.18  0.2  58.9469970762
0.18  0.22  45.4563110852
0.18  0.24  35.0531209384
0.18  0.26  27.0308183438
0.18  0.28  20.8445102969
0.18  0.3  16.0740087107
0.18  0.32  12.3952902875
0.18  0.34  9.55848812064
0.18  0.36  7.3709201667
0.18  0.38  5.68400184403
0.18  0.4  4.38315383049
0.18  0.42  3.38001957581
0.18  0.44  2.60646392408
0.18  0.46  2.00994521929
0.18  0.48  1.54994655681
0.18  0.5  1.19522378316
0.18  0.52  0.921683322283
0.18  0.54  0.710745685069
0.18  0.56  0.548083508327
0.18  0.58  0.422648407737
0.18  0.6  0.325920546502
0.18  0.62  0.251329948694
0.18  0.64  0.193810251574
0.18  0.66  0.14945458673
0.18  0.68  0.115250216711
0.18  0.7  0.0888739030538
0.18  0.72  0.0685341066542
0.18  0.74  0.0528493023654
0.18  0.76  0.0407541426724
0.18  0.78  0.0314270968703
0.18  0.8  0.0242346508337
0.18  0.82  0.0186882772996
0.18  0.84  0.0144112539859
0.18  0.86  0.0111130757597
0.18  0.88  0.00856972286799
0.18  0.9  0.00660844500861
0.18  0.92  0.00509602773678
0.18  0.94  0.0039297442379
0.18  0.96  0.003030377889
0.18  0.98  0.00233684168593
0.2  -1  0.00172239803931
0.2  -0.98  0.00223357746733
0.2  -0.96  0.00289646654761
0.2  -0.94  0.00375609021141
0.2  -0.92  0.00487083604948
0.2  -0.9  0.00631642012986
0.2  -0.88  0.00819102980507
0.2  -0.86  0.01062199282
0.2  -0.84  0.0137744257015
0.2  -0.82  0.0178624488474
0.2  -0.8  0.0231637300706
0.2  -0.78  0.0300383444268
0.2  -0.76  0.0389532313299
0.2  -0.74  0.0505139101369
0.2  -0.72  0.0655056083977
0.2  -0.7  0.0849465962925
0.2  -0.68  0.110157349854
0.2  -0.66  0.142850240699
0.2  -0.64  0.185245844192
0.2  -0.62  0.240223765969
0.2  -0.6  0.31151823129
0.2  -0.58  0.403971722093
0.2  -0.56  0.523863889361
0.2  -0.54  0.679338081277
0.2  -0.52  0.880954457915
0.2  -0.5  1.14240726129
0.2  -0.48  1.48145495935
0.2  -0.46  1.92112644147
0.2  -0.44  2.49128519286
0.2  -0.42  3.2306576903
0.2  -0.4  4.18946379233
0.2  -0.38  5.43282778611
0.2  -0.36  7.04520177679
0.2  -0.34  9.13610186625
0.2  -0.32  11.8475467354
0.2  -0.3  15.3637038752
0.2  -0.28  19.923398661
0.2  -0.26  25.8363359143
0.2  -0.24  33.5041357568
0.2  -0.22  43.4476125614
0.2  -0.2  40.6081498887
0.2  -0.18  41.046996547
0.2  -0.16  42.8708661206
0.2  -0.14  45.7446952761
0.2  -0.12  49.2227589575
0.2  -0.1  52.8690031415
0.2  -0.08  56.3148734774
0.2  -0.06  59.272317831
0.2  -0.04  61.5288091293
0.2  -0.02  62.9390451496
0.2  6.17561557e-16  63.4183906039
0.2  0.02  62.9390451496
0.2  0.04  61.5288091293
0.2  0.06  59.272317831
0.2  0.08  56.3148734774
0.2  0.1  52.8690031415
0.2  0.12  49.2227589575
0.2  0.14  45.7446952761
0.2  0.16  42.8708661206
0.2  0.18  41.046996547
0.2  0.2  56.3421498464
0.2  0.22  43.4476125614
0.2  0.24  33.5041357568
0.2  0.26  25.8363359143
0.2  0.28  19.923398661
0.2  0.3  15.3637038752
0.2  0.32  11.8475467354
0.2  0.34  9.13610186626
0.2  0.36  7.04520177679
0.2  0.38  5.43282778611
0.2  0.4  4.18946379233
0.2  0.42  3.2306576903
0.2  0.44  2.49128519286
0.2  0.46  1.92112644147
0.2  0.48  1.48145495935
0.2  0.5  1.14240726129
0.2  0.52  0.880954457915
0.2  0.54  0.679338081278
0.2  0.56  0.523863889362
0.2  0.58  0.403971722093
0.2  0.6  0.31151823129
0.2  0.62  0.240223765969
0.2  0.64  0.185245844192
0.2  0.66  0.142850240699
0.2  0.68  0.110157349854
0.2  0.7  0.0849465962926
0.2  0.72  0.0655056083978
0.2  0.74  0.0505139101369
0.2  0.76  0.0389532313299
0.2  0.78  0.0300383444268
0.2  0.8  0.0231637300706
0.2  0.82  0.0178624488474
0.2  0.84  0.0137744257015
0.2  0.86  0.01062199282
0.2  0.88  0.00819102980507
0.2  0.9  0.00631642012986
0.2  0.92  0.00487083604948
0.2  0.94  0.00375609021141
0.2  0.96  0.00289646654761
0.2  0.98  0.00223357746733
0.22  -1  0.00160685433594
0.22  -0.98  0.00208374229192
0.22  -0.96  0.00270216275489
0.22  -0.94  0.00350412024667
0.22  -0.92  0.00454408554069
0.22  -0.9  0.00589269544067
0.22  -0.88  0.00764155059264
0.22  -0.86  0.00990943720881
0.22  -0.84  0.0128503952967
0.22  -0.82  0.0166641814063
0.22  -0.8  0.0216098365482
0.22  -0.78  0.0280232808474
0.22  -0.76  0.0363401300005
0.22  -0.74  0.047125283283
0.22  -0.72  0.0611112927905
0.22  -0.7  0.0792481200399
0.22  -0.68  0.102767659512
0.22  -0.66  0.133267411723
0.22  -0.64  0.172818989084
0.22  -0.62  0.224108824518
0.22  -0.6  0.290620640089
0.22  -0.58  0.376872069304
0.22  -0.56  0.488721505047
0.22  -0.54  0.633766014913
0.22  -0.52  0.821857351295
0.22  -0.5  1.06577110477
0.22  -0.48  1.3820744512
0.22  -0.46  1.79225143196
0.22  -0.44  2.32416219877
0.22  -0.42  3.01393533846
0.22  -0.4  3.90842180861
0.22  -0.38  5.06837716095
0.22  -0.36  6.57258819635
0.22  -0.34  8.52322434321
0.22  -0.32  11.052777237
0.22  -0.3  14.3330598528
0.22  -0.28  18.586876433
0.22  -0.26  24.1031558566
0.22  -0.24  31.2565763453
0.22  -0.22  40.5330144583
0.22  -0.2  37.8840315849
0.22  -0.18  38.2934390736
0.22  -0.16  39.9949579244
0.22  -0.14  42.6760018723
0.22  -0.12  45.920746455
0.22  -0.1  49.32238948
0.22  -0.08  52.5371003448
0.22  -0.06  55.2961503288
0.22  -0.04  57.4012693221
0.22  -0.02  58.7169024175
0.22  6.17561557e-16  59.1640919196
0.22  0.02  58.7169024175
0.22  0.04  57.4012693221
0.22  0.06  55.2961503288
0.22  0.08  52.5371003448
0.22  0.1  49.32238948
0.22  0.12  45.920746455
0.22  0.14  42.6760018723
0.22  0.16  39.9949579244
0.22  0.18  38.2934390736
0.22  0.2  52.5625469319
0.22  0.22  40.5330144583
0.22  0.24  31.2565763453
0.22  0.26  24.1031558566
0.22  0.28  18.586876433
0.22  0.3  14.3330598528
0.22  0.32  11.052777237
0.22  0.34  8.52322434321
0.22  0.36  6.57258819635
0.22  0.38  5.06837716095
0.22  0.4  3.90842180862
0.22  0.42  3.01393533846
0.22  0.44  2.32416219877
0.22  0.46  1.79225143196
0.22  0.48  1.3820744512
0.22  0.5  1.06577110477
0.22  0.52  0.821857351295
0.22  0.54  0.633766014913
0.22  0.56  0.488721505047
0.22  0.58  0.376872069305
0.22  0.6  0.290620640089
0.22  0.62  0.224108824518
0.22  0.64  0.172818989084
0.22  0.66  0.133267411723
0.22  0.68  0.102767659512
0.22  0.7  0.0792481200399
0.22  0.72  0.0611112927905
0.22  0.74  0.047125283283
0.22  0.76  0.0363401300005
0.22  0.78  0.0280232808474
0.22  0.8  0.0216098365482
0.22  0.82  0.0166641814063
0.22  0.84  0.0128503952967
0.22  0.86  0.00990943720881
0.22  0.88  0.00764155059265
0.22  0.9  0.00589269544067
0.22  0.92  0.00454408554069
0.22  0.94  0.00350412024667
0.22  0.96  0.00270216275489
0.22  0.98  0.00208374229192
0.24  -1  0.00145780709621
0.24  -0.98  0.00189046028124
0.24  -0.96  0.00245151782031
0.24  -0.94  0.00317908801521
0.24  -0.92  0.0041225890853
0.24  -0.9  0.00534610576521
0.24  -0.88  0.00693274208549
0.24  -0.86  0.008990265987
0.24  -0.84  0.0116584291642
0.24  -0.82  0.0151184593173
0.24  -0.8  0.0196053695493
0.24  -0.78  0.0254239209894
0.24  -0.76  0.0329693228609
0.24  -0.74  0.0427540759884
0.24  -0.72  0.0554427830178
0.24  -0.7  0.0718972897366
0.24  -0.68  0.0932352235965
0.24  -0.66  0.120905905507
0.24  -0.64  0.156788791001
0.24  -0.62  0.203321127124
0.24  -0.6  0.263663495783
0.24  -0.58  0.341914487647
0.24  -0.56  0.443389087731
0.24  -0.54  0.57497968124
0.24  -0.52  0.745624200025
0.24  -0.5  0.9669132072
0.24  -0.48  1.25387715451
0.24  -0.46  1.62600728471
0.24  -0.44  2.10857952108
0.24  -0.42  2.73437126544
0.24  -0.4  3.54588771375
0.24  -0.38  4.59824890549
0.24  -0.36  5.96293360189
0.24  -0.34  7.73263428565
0.24  -0.32  10.0275530448
0.24  -0.3  13.0035659715
0.24  -0.28  16.8628106197
0.24  -0.26  21.8674156474
0.24  -0.24  28.3573051896
0.24  -0.22  36.7732872773
0.24  -0.2  34.3700165238
0.24  -0.18  34.7414485378
0.24  -0.16  36.2851393376
0.24  -0.14  38.7174972715
0.24  -0.12  41.6612685718
0.24  -0.1  44.7473848612
0.24  -0.08  47.6639082859
0.24  -0.06  50.1670366377
0.24  -0.04  52.0768907783
0.24  -0.02  53.2704894883
0.24  6.17561557e-16  53.6761989636
0.24  0.02  53.2704894883
0.24  0.04  52.0768907783
0.24  0.06  50.1670366377
0.24  0.08  47.6639082859
0.24  0.1  44.7473848612
0.24  0.12  41.6612685718
0.24  0.14  38.7174972715
0.24  0.16  36.2851393376
0.24  0.18  34.7414485378
0.24  0.2  47.68699452
0.24  0.22  36.7732872773
0.24  0.24  28.3573051896
0.24  0.26  21.8674156474
0.24  0.28  16.8628106197
0.24  0.3  13.0035659715
0.24  0.32  10.0275530448
0.24  0.34  7.73263428566
0.24  0.36  5.96293360189
0.24  0.38  4.59824890549
0.24  0.4  3.54588771375
0.24  0.42  2.73437126544
0.24  0.44  2.10857952108
0.24  0.46  1.62600728471
0.24  0.48  1.25387715451
0.24  0.5  0.966913207201
0.24  0.52  0.745624200025
0.24  0.54  0.57497968124
0.24  0.56  0.443389087731
0.24  0.58  0.341914487647
0.24  0.6  0.263663495783
0.24  0.62  0.203321127124
0.24  0.64  0.156788791001
0.24  0.66  0.120905905507
0.24  0.68  0.0932352235965
0.24  0.7  0.0718972897366
0.24  0.72  0.0554427830178
0.24  0.74  0.0427540759884
0.24  0.76  0.0329693228609
0.24  0.78  0.0254239209894
0.24  0.8  0.0196053695493
0.24  0.82  0.0151184593173
0.24  0.84  0.0116584291642
0.24  0.86  0.00899026598701
0.24  0.88  0.00693274208549
0.24  0.9  0.00534610576521
0.24  0.92  0.0041225890853
0.24  0.94  0.00317908801521
0.24  0.96  0.00245151782031
0.24  0.98  0.00189046028124
0.26  -1  0.00127836401291
0.26  -0.98  0.00165776144021
0.26  -0.96  0.00214975778801
0.26  -0.94  0.00278777056517
0.26  -0.92  0.00361513504794
0.26  -0.9  0.00468804771029
0.26  -0.88  0.00607938321599
0.26  -0.86  0.00788364423121
0.26  -0.84  0.0102233802601
0.26  -0.82  0.0132575114856
0.26  -0.8  0.0171921229885
0.26  -0.78  0.0222944625145
0.26  -0.76  0.0289110925477
0.26  -0.74  0.037491429621
0.26  -0.72  0.0486182697077
0.26  -0.7  0.0630473730467
0.26  -0.68  0.0817587970939
0.26  -0.66  0.106023464249
0.26  -0.64  0.137489485793
0.26  -0.62  0.178294105341
0.26  -0.6  0.231208865289
0.26  -0.58  0.299827856261
0.26  -0.56  0.388811835903
0.26  -0.54  0.504204798125
0.26  -0.52  0.653844494887
0.26  -0.5  0.847894794107
0.26  -0.48  1.09953603264
0.26  -0.46  1.4258602547
0.26  -0.44  1.84903214225
0.26  -0.42  2.39779449061
0.26  -0.4  3.10942048426
0.26  -0.38  4.03224537626
0.26  -0.36  5.22894952825
0.26  -0.34  6.78081580303
0.26  -0.32  8.79325048104
0.26  -0.3  11.4029426943
0.26  -0.28  14.7871486624
0.26  -0.26  19.1757313376
0.26  -0.24  24.8667732182
0.26  -0.22  32.2468227887
0.26  -0.2  30.1393732829
0.26  -0.18  30.4650853206
0.26  -0.16  31.8187615173
0.26  -0.14  33.9517178304
0.26  -0.12  36.5331370747
0.26  -0.1  39.2393799063
0.26  -0.08  41.796905246
0.26  -0.06  43.9919207683
0.26  -0.04  45.6666888563
0.26  -0.02  46.7133661846
0.26  6.17561557e-16  47.0691364331
0.26  0.02  46.7133661846
0.26  0.04  45.6666888563
0.26  0.06  43.9919207683
0.26  0.08  41.796905246
0.26  0.1  39.2393799063
0.26  0.12  36.5331370747
0.26  0.14  33.9517178304
0.26  0.16  31.8187615173
0.26  0.18  30.4650853206
0.26  0.2  41.81714977
0.26  0.22  32.2468227887
0.26  0.24  24.8667732182
0.26  0.26  19.1757313376
0.26  0.28  14.7871486624
0.26  0.3  11.4029426943
0.26  0.32  8.79325048104
0.26  0.34  6.78081580303
0.26  0.36  5.22894952825
0.26  0.38  4.03224537626
0.26  0.4  3.10942048427
0.26  0.42  2.39779449061
0.26  0.44  1.84903214226
0.26  0.46  1.4258602547
0.26  0.48  1.09953603264
0.26  0.5  0.847894794108
0.26  0.52  0.653844494887
0.26  0.54  0.504204798125
0.26  0.56  0.388811835904
0.26  0.58  0.299827856262
0.26  0.6  0.231208865289
0.26  0.62  0.178294105341
0.26  0.64  0.137489485793
0.26  0.66  0.106023464249
0.26  0.68  0.0817587970939
0.26  0.7  0.0630473730467
0.26  0.72  0.0486182697077
0.26  0.74  0.037491429621
0.26  0.76  0.0289110925477
0.26  0.78  0.0222944625145
0.26  0.8  0.0171921229885
0.26  0.82  0.0132575114856
0.26  0.84  0.0102233802601
0.26  0.86  0.00788364423121
0.26  0.88  0.00607938321599
0.26  0.9  0.0046880477103
0.26  0.92  0.00361513504794
0.26  0.94  0.00278777056517
0.26  0.96  0.00214975778801
0.26  0.98  0.00165776144021
0.28  -1  0.00107226654394
0.28  -0.98  0.00139049762996
0.28  -0.96  0.00180317447173
0.28  -0.94  0.0023383270172
0.28  -0.92  0.00303230404219
0.28  -0.9  0.00393224204169
0.28  -0.88  0.00509926684768
0.28  -0.86  0.00661264543438
0.28  -0.84  0.00857516991109
0.28  -0.82  0.0111201393956
0.28  -0.8  0.014420413993
0.28  -0.78  0.0187001558461
0.28  -0.76  0.0242500547376
0.28  -0.74  0.0314470723997
0.28  -0.72  0.0407800466106
0.28  -0.7  0.0528828941667
0.28  -0.68  0.06857766795
0.28  -0.66  0.0889303926262
0.28  -0.64  0.11532347146
0.28  -0.62  0.149549582285
0.28  -0.6  0.193933440247
0.28  -0.58  0.251489697742
0.28  -0.56  0.326127706441
0.28  -0.54  0.422917049341
0.28  -0.52  0.548431878344
0.28  -0.5  0.71119744558
0.28  -0.48  0.922269157888
0.28  -0.46  1.19598348515
0.28  -0.44  1.55093172585
0.28  -0.42  2.01122277032
0.28  -0.4  2.60812063125
0.28  -0.38  3.38216796644
0.28  -0.36  4.38593982815
0.28  -0.34  5.68761468
0.28  -0.32  7.375605233
0.28  -0.3  9.56456363762
0.28  -0.28  12.4031689181
0.28  -0.26  16.0842255893
0.28  -0.24  20.8577593771
0.28  -0.22  27.0479995333
0.28  -0.2  25.2803124151
0.28  -0.18  25.5535132542
0.28  -0.16  26.6889501739
0.28  -0.14  28.4780318995
0.28  -0.12  30.6432754949
0.28  -0.1  32.9132186557
0.28  -0.08  35.0584205147
0.28  -0.06  36.8995562822
0.28  -0.04  38.3043187532
0.28  -0.02  39.1822510714
0.28  6.17561557e-16  39.4806641455
0.28  0.02  39.1822510714
0.28  0.04  38.3043187532
0.28  0.06  36.8995562822
0.28  0.08  35.0584205147
0.28  0.1  32.9132186557
0.28  0.12  30.6432754949
0.28  0.14  28.4780318995
0.28  0.16  26.6889501739
0.28  0.18  25.5535132542
0.28  0.2  35.0754012226
0.28  0.22  27.0479995334
0.28  0.24  20.8577593771
0.28  0.26  16.0842255893
0.28  0.28  12.4031689181
0.28  0.3  9.56456363762
0.28  0.32  7.375605233
0.28  0.34  5.68761468
0.28  0.36  4.38593982815
0.28  0.38  3.38216796644
0.28  0.4  2.60812063125
0.28  0.42  2.01122277032
0.28  0.44  1.55093172585
0.28  0.46  1.19598348515
0.28  0.48  0.922269157888
0.28  0.5  0.71119744558
0.28  0.52  0.548431878344
0.28  0.54  0.422917049341
0.28  0.56  0.326127706441
0.28  0.58  0.251489697742
0.28  0.6  0.193933440248
0.28  0.62  0.149549582285
0.28  0.64  0.11532347146
0.28  0.66  0.0889303926262
0.28  0.68  0.06857766795
0.28  0.7  0.0528828941667
0.28  0.72  0.0407800466106
0.28  0.74  0.0314470723997
0.28  0.76  0.0242500547376
0.28  0.78  0.0187001558461
0.28  0.8  0.014420413993
0.28  0.82  0.0111201393956
0.28  0.84  0.0085751699111
0.28  0.86  0.00661264543439
0.28  0.88  0.00509926684768
0.28  0.9  0.00393224204169
0.28  0.92  0.00303230404219
0.28  0.94  0.0023383270172
0.28  0.96  0.00180317447173
0.28  0.98  0.00139049762996
0.3  -1  0.000843811901496
0.3  -0.98  0.00109424140461
0.3  -0.96  0.00141899426809
0.3  -0.94  0.00184012844368
0.3  -0.92  0.00238624832064
0.3  -0.9  0.00309444760083
0.3  -0.88  0.00401282878711
0.3  -0.86  0.00520377041459
0.3  -0.84  0.00674816394229
0.3  -0.82  0.00875090808471
0.3  -0.8  0.0113480337707
0.3  -0.78  0.0147159436727
0.3  -0.76  0.0190833938774
0.3  -0.74  0.0247470315175
0.3  -0.72  0.0320915437193
0.3  -0.7  0.0416157864252
0.3  -0.68  0.0539666678216
0.3  -0.66  0.0699830878123
0.3  -0.64  0.0907529180036
0.3  -0.62  0.117686892414
0.3  -0.6  0.152614427731
0.3  -0.58  0.197907881447
0.3  -0.56  0.256643687764
0.3  -0.54  0.332811315989
0.3  -0.52  0.431584244348
0.3  -0.5  0.559671354371
0.3  -0.48  0.725772613356
0.3  -0.46  0.941169995897
0.3  -0.44  1.22049378121
0.3  -0.42  1.58271627493
0.3  -0.4  2.05244045114
0.3  -0.38  2.66157104227
0.3  -0.36  3.45148158092
0.3  -0.34  4.47582458413
0.3  -0.32  5.80417575417
0.3  -0.3  7.52675971815
0.3  -0.28  9.76057828951
0.3  -0.26  12.6573574969
0.3  -0.24  16.4138531603
0.3  -0.22  21.2852149933
0.3  -0.2  19.8941472248
0.3  -0.18  20.1091405218
0.3  -0.16  21.0026638642
0.3  -0.14  22.4105679542
0.3  -0.12  24.1144897316
0.3  -0.1  25.900804026
0.3  -0.08  27.5889541133
0.3  -0.06  29.0378217308
0.3  -0.04  30.1432887423
0.3  -0.02  30.834170821
0.3  6.17561557e-16  31.0690046922
0.3  0.02  30.834170821
0.3  0.04  30.1432887423
0.3  0.06  29.0378217308
0.3  0.08  27.5889541133
0.3  0.1  25.900804026
0.3  0.12  24.1144897316
0.3  0.14  22.4105679542
0.3  0.16  21.0026638642
0.3  0.18  20.1091405218
0.3  0.2  27.6023169506
0.3  0.22  21.2852149933
0.3  0.24  16.4138531603
0.3  0.26  12.6573574969
0.3  0.28  9.76057828951
0.3  0.3  7.52675971815
0.3  0.32  5.80417575418
0.3  0.34  4.47582458413
0.3  0.36  3.45148158092
0.3  0.38  2.66157104227
0.3  0.4  2.05244045114
0.3  0.42  1.58271627493
0.3  0.44  1.22049378121
0.3  0.46  0.941169995897
0.3  0.48  0.725772613356
0.3  0.5  0.559671354372
0.3  0.52  0.431584244349
0.3  0.54  0.332811315989
0.3  0.56  0.256643687764
0.3  0.58  0.197907881447
0.3  0.6  0.152614427732
0.3  0.62  0.117686892414
0.3  0.64  0.0907529180037
0.3  0.66  0.0699830878123
0.3  0.68  0.0539666678217
0.3  0.7  0.0416157864252
0.3  0.72  0.0320915437193
0.3  0.74  0.0247470315175
0.3  0.76  0.0190833938774
0.3  0.78  0.0147159436727
0.3  0.8  0.0113480337707
0.3  0.82  0.00875090808471
0.3  0.84  0.00674816394229
0.3  0.86  0.00520377041459
0.3  0.88  0.00401282878711
0.3  0.9  0.00309444760083
0.3  0.92  0.00238624832064
0.3  0.94  0.00184012844368
0.3  0.96  0.00141899426809
0.3  0.98  0.00109424140461
0.32  -1  0.000636371206594
0.32  -0.98  0.000825235721047
0.32  -0.96  0.00107015211913
0.32  -0.94  0.00138775567862
0.32  -0.92  0.0017996187543
0.32  -0.9  0.00233371602129
0.32  -0.88  0.00302632457848
0.32  -0.86  0.00392448797143
0.32  -0.84  0.00508921149682
0.32  -0.82  0.00659960582066
0.32  -0.8  0.00855826035435
0.32  -0.78  0.0110982113604
0.32  -0.76  0.0143919780773
0.32  -0.74  0.018663280618
0.32  -0.72  0.0242022355479
0.32  -0.7  0.0313850612604
0.32  -0.68  0.0406996315845
0.32  -0.66  0.0527786132826
0.32  -0.64  0.0684424382134
0.32  -0.62  0.0887550289266
0.32  -0.6  0.115096062697
0.32  -0.58  0.149254682338
0.32  -0.56  0.193551018844
0.32  -0.54  0.250993779951
0.32  -0.52  0.325484608402
0.32  -0.5  0.422083090374
0.32  -0.48  0.547350414062
0.32  -0.46  0.709795020474
0.32  -0.44  0.920450516063
0.32  -0.42  1.19362510032
0.32  -0.4  1.54787341117
0.32  -0.38  2.00725679811
0.32  -0.36  2.60297762367
0.32  -0.34  3.37549859875
0.32  -0.32  4.37729110175
0.32  -0.3  5.67639915375
0.32  -0.28  7.36106112291
0.32  -0.26  9.5457030747
0.32  -0.24  12.3787108501
0.32  -0.22  16.0525087687
0.32  -0.2  15.0034177655
0.32  -0.18  15.1655576257
0.32  -0.16  15.8394193318
0.32  -0.14  16.9012076557
0.32  -0.12  18.1862413883
0.32  -0.1  19.533412459
0.32  -0.08  20.8065517761
0.32  -0.06  21.899233252
0.32  -0.04  22.7329349036
0.32  -0.02  23.2539721885
0.32  6.17561557e-16  23.4310750638
0.32  0.02  23.2539721885
0.32  0.04  22.7329349036
0.32  0.06  21.899233252
0.32  0.08  20.8065517761
0.32  0.1  19.533412459
0.32  0.12  18.1862413883
0.32  0.14  16.9012076557
0.32  0.16  15.8394193318
0.32  0.18  15.1655576257
0.32  0.2  20.8166295255
0.32  0.22  16.0525087687
0.32  0.24  12.3787108501
0.32  0.26  9.54570307471
0.32  0.28  7.36106112291
0.32  0.3  5.67639915376
0.32  0.32  4.37729110175
0.32  0.34  3.37549859875
0.32  0.36  2.60297762368
0.32  0.38  2.00725679811
0.32  0.4  1.54787341117
0.32  0.42  1.19362510032
0.32  0.44  0.920450516063
0.32  0.46  0.709795020475
0.32  0.48  0.547350414062
0.32  0.5  0.422083090374
0.32  0.52  0.325484608402
0.32  0.54  0.250993779951
0.32  0.56  0.193551018844
0.32  0.58  0.149254682338
0.32  0.6  0.115096062697
0.32  0.62  0.0887550289266
0.32  0.64  0.0684424382135
0.32  0.66  0.0527786132826
0.32  0.68  0.0406996315845
0.32  0.7  0.0313850612605
0.32  0.72  0.0242022355479
0.32  0.74  0.018663280618
0.32  0.76  0.0143919780773
0.32  0.78  0.0110982113604
0.32  0.8  0.00855826035435
0.32  0.82  0.00659960582067
0.32  0.84  0.00508921149682
0.32  0.86  0.00392448797143
0.32  0.88  0.00302632457848
0.32  0.9  0.00233371602129
0.32  0.92  0.00179961875431
0.32  0.94  0.00138775567862
0.32  0.96  0.00107015211913
0.32  0.98  0.000825235721047
0.34  -1  0.000479927234807
0.34  -0.98  0.000622361749812
0.34  -0.96  0.000807068487758
0.34  -0.94  0.00104659314961
0.34  -0.92  0.00135720479417
0.34  -0.9  0.00176000086949
0.34  -0.88  0.00228234019944
0.34  -0.86  0.00295970125714
0.34  -0.84  0.00383809194336
0.34  -0.82  0.00497717454766
0.34  -0.8  0.00645431814648
0.34  -0.78  0.00836985368648
0.34  -0.76  0.0108538886902
0.34  -0.74  0.0140751444544
0.34  -0.72  0.0182524159835
0.34  -0.7  0.023669433043
0.34  -0.68  0.0306941317294
0.34  -0.66  0.0398036455251
0.34  -0.64  0.0516167132875
0.34  -0.62  0.0669357053973
0.34  -0.6  0.0868011225759
0.34  -0.58  0.112562269057
0.34  -0.56  0.145968900392
0.34  -0.54  0.189290070823
0.34  -0.52  0.245468252592
0.34  -0.5  0.318319195342
0.34  -0.48  0.412791100491
0.34  -0.46  0.53530071431
0.34  -0.44  0.69416916789
0.34  -0.42  0.900187167264
0.34  -0.4  1.16734792265
0.34  -0.38  1.51379759908
0.34  -0.36  1.96306784507
0.34  -0.34  2.54567411568
0.34  -0.32  3.30118835145
0.34  -0.3  4.28092679444
0.34  -0.28  5.55143550393
0.34  -0.26  7.19901031577
0.34  -0.24  9.33555825154
0.34  -0.22  12.1061984974
0.34  -0.2  11.3150135113
0.34  -0.18  11.4372932971
0.34  -0.16  11.9454944568
0.34  -0.14  12.7462552847
0.34  -0.12  13.7153794053
0.34  -0.1  14.7313651697
0.34  -0.08  15.6915189693
0.34  -0.06  16.5155782508
0.34  -0.04  17.1443246871
0.34  -0.02  17.5372714149
0.34  6.17561557e-16  17.6708357439
0.34  0.02  17.5372714149
0.34  0.04  17.1443246871
0.34  0.06  16.5155782508
0.34  0.08  15.6915189693
0.34  0.1  14.7313651697
0.34  0.12  13.7153794053
0.34  0.14  12.7462552847
0.34  0.16  11.9454944568
0.34  0.18  11.4372932971
0.34  0.2  15.6991192289
0.34  0.22  12.1061984974
0.34  0.24  9.33555825154
0.34  0.26  7.19901031577
0.34  0.28  5.55143550393
0.34  0.3  4.28092679444
0.34  0.32  3.30118835145
0.34  0.34  2.54567411568
0.34  0.36  1.96306784507
0.34  0.38  1.51379759908
0.34  0.4  1.16734792265
0.34  0.42  0.900187167264
0.34  0.44  0.69416916789
0.34  0.46  0.53530071431
0.34  0.48  0.412791100492
0.34  0.5  0.318319195342
0.34  0.52  0.245468252592
0.34  0.54  0.189290070823
0.34  0.56  0.145968900392
0.34  0.58  0.112562269057
0.34  0.6  0.086801122576
0.34  0.62  0.0669357053973
0.34  0.64  0.0516167132875
0.34  0.66  0.0398036455251
0.34  0.68  0.0306941317294
0.34  0.7  0.023669433043
0.34  0.72  0.0182524159835
0.34  0.74  0.0140751444544
0.34  0.76  0.0108538886902
0.34  0.78  0.00836985368648
0.34  0.8  0.00645431814648
0.34  0.82  0.00497717454766
0.34  0.84  0.00383809194336
0.34  0.86  0.00295970125714
0.34  0.88  0.00228234019944
0.34  0.9  0.00176000086949
0.34  0.92  0.00135720479417
0.34  0.94  0.00104659314961
0.34  0.96  0.000807068487758
0.34  0.98  0.000622361749812
0.36  -1  0.000361943073984
0.36  -0.98  0.000469361829294
0.36  -0.96  0.0006086607056
0.36  -0.94  0.00078930119882
0.36  -0.92  0.00102355282134
0.36  -0.9  0.00132732647518
0.36  -0.88  0.00172125515651
0.36  -0.86  0.00223209539569
0.36  -0.84  0.00289454462148
0.36  -0.82  0.00375359788919
0.36  -0.8  0.00486760404699
0.36  -0.78  0.00631222892215
0.36  -0.76  0.0081855947158
0.36  -0.74  0.0106149446856
0.36  -0.72  0.0137652857966
0.36  -0.7  0.017850596369
0.36  -0.68  0.0231483599714
0.36  -0.66  0.0300184127348
0.36  -0.64  0.0389273842393
0.36  -0.62  0.0504803920547
0.36  -0.6  0.0654621426996
0.36  -0.58  0.0848902306896
0.36  -0.56  0.110084255867
0.36  -0.54  0.142755453617
0.36  -0.52  0.185122925862
0.36  -0.5  0.2400643675
0.36  -0.48  0.311311525976
0.36  -0.46  0.403703670038
0.36  -0.44  0.523516283863
0.36  -0.42  0.67888731218
0.36  -0.4  0.880369907958
0.36  -0.38  1.14164922651
0.36  -0.36  1.48047195231
0.36  -0.34  1.9198516941
0.36  -0.32  2.48963212143
0.36  -0.3  3.22851401443
0.36  -0.28  4.1866839087
0.36  -0.26  5.42922287871
0.36  -0.24  7.04052699213
0.36  -0.22  9.13003968233
0.36  -0.2  8.53335771641
0.36  -0.18  8.62557653278
0.36  -0.16  9.00884273777
0.36  -0.14  9.61274644348
0.36  -0.12  10.3436234136
0.36  -0.1  11.1098416735
0.36  -0.08  11.8339535648
0.36  -0.06  12.4554280882
0.36  -0.04  12.9296050079
0.36  -0.02  13.2259506543
0.36  6.17561557e-16  13.3266798489
0.36  0.02  13.2259506543
0.36  0.04  12.9296050079
0.36  0.06  12.4554280882
0.36  0.08  11.8339535648
0.36  0.1  11.1098416735
0.36  0.12  10.3436234136
0.36  0.14  9.61274644348
0.36  0.16  9.00884273777
0.36  0.18  8.62557653278
0.36  0.2  11.8396853949
0.36  0.22  9.13003968234
0.36  0.24  7.04052699213
0.36  0.26  5.42922287871
0.36  0.28  4.1866839087
0.36  0.3  3.22851401443
0.36  0.32  2.48963212143
0.36  0.34  1.9198516941
0.36  0.36  1.48047195232
0.36  0.38  1.14164922651
0.36  0.4  0.880369907959
0.36  0.42  0.67888731218
0.36  0.44  0.523516283863
0.36  0.46  0.403703670038
0.36  0.48  0.311311525976
0.36  0.5  0.2400643675
0.36  0.52  0.185122925862
0.36  0.54  0.142755453617
0.36  0.56  0.110084255867
0.36  0.58  0.0848902306897
0.36  0.6  0.0654621426996
0.36  0.62  0.0504803920547
0.36  0.64  0.0389273842393
0.36  0.66  0.0300184127348
0.36  0.68  0.0231483599714
0.36  0.7  0.017850596369
0.36  0.72  0.0137652857966
0.36  0.74  0.0106149446856
0.36  0.76  0.00818559471581
0.36  0.78  0.00631222892215
0.36  0.8  0.00486760404699
0.36  0.82  0.00375359788919
0.36  0.84  0.00289454462148
0.36  0.86  0.00223209539569
0.36  0.88  0.00172125515651
0.36  0.9  0.00132732647518
0.36  0.92  0.00102355282134
0.36  0.94  0.00078930119882
0.36  0.96  0.0006086607056
0.36  0.98  0.000469361829294
0.38  -1  0.000272963856401
0.38  -0.98  0.000353975042432
0.38  -0.96  0.000459029016944
0.38  -0.94  0.000595261284379
0.38  -0.92  0.000771925049619
0.38  -0.9  0.00100101971666
0.38  -0.88  0.00129810591539
0.38  -0.86  0.00168336241486
0.38  -0.84  0.00218295671114
0.38  -0.82  0.00283082238302
0.38  -0.8  0.00367096393771
0.38  -0.78  0.00476044569692
0.38  -0.76  0.00617326773509
0.38  -0.74  0.00800539213244
0.38  -0.72  0.0103812609374
0.38  -0.7  0.0134622485528
0.38  -0.68  0.0174576226521
0.38  -0.66  0.0226387581145
0.38  -0.64  0.0293575694227
0.38  -0.62  0.0380704134941
0.38  -0.6  0.0493690864778
0.38  -0.58  0.0640210198935
0.38  -0.56  0.0830214063215
0.38  -0.54  0.107660795143
0.38  -0.52  0.139612749584
0.38  -0.5  0.181047518926
0.38  -0.48  0.234779446771
0.38  -0.46  0.304458127639
0.38  -0.44  0.39481629572
0.38  -0.42  0.511991282924
0.38  -0.4  0.663941880392
0.38  -0.38  0.860988917666
0.38  -0.36  1.11651627685
0.38  -0.34  1.44787995629
0.38  -0.32  1.87758692936
0.38  -0.3  2.43482386919
0.38  -0.28  3.15743957378
0.38  -0.26  4.09451574227
0.38  -0.24  5.3097007154
0.38  -0.22  6.88553261526
0.38  -0.2  6.43553751335
0.38  -0.18  6.50508547699
0.38  -0.16  6.79413043699
0.38  -0.14  7.2495719035
0.38  -0.12  7.80077183152
0.38  -0.1  8.37862483129
0.38  -0.08  8.92472279128
0.38  -0.06  9.39341550773
0.38  -0.04  9.75102191034
0.38  -0.02  9.97451465345
0.38  6.17561557e-16  10.0504808243
0.38  0.02  9.97451465345
0.38  0.04  9.75102191034
0.38  0.06  9.39341550773
0.38  0.08  8.92472279128
0.38  0.1  8.37862483129
0.38  0.12  7.80077183152
0.38  0.14  7.2495719035
0.38  0.16  6.79413043699
0.38  0.18  6.50508547699
0.38  0.2  8.92904552198
0.38  0.22  6.88553261527
0.38  0.24  5.3097007154
0.38  0.26  4.09451574227
0.38  0.28  3.15743957378
0.38  0.3  2.43482386919
0.38  0.32  1.87758692936
0.38  0.34  1.44787995629
0.38  0.36  1.11651627685
0.38  0.38  0.860988917666
0.38  0.4  0.663941880393
0.38  0.42  0.511991282924
0.38  0.44  0.39481629572
0.38  0.46  0.304458127639
0.38  0.48  0.234779446771
0.38  0.5  0.181047518926
0.38  0.52  0.139612749584
0.38  0.54  0.107660795143
0.38  0.56  0.0830214063215
0.38  0.58  0.0640210198935
0.38  0.6  0.0493690864779
0.38  0.62  0.0380704134941
0.38  0.64  0.0293575694227
0.38  0.66  0.0226387581145
0.38  0.68  0.0174576226521
0.38  0.7  0.0134622485528
0.38  0.72  0.0103812609374
0.38  0.74  0.00800539213244
0.38  0.76  0.00617326773509
0.38  0.78  0.00476044569692
0.38  0.8  0.00367096393771
0.38  0.82  0.00283082238302
0.38  0.84  0.00218295671114
0.38  0.86  0.00168336241486
0.38  0.88  0.00129810591539
0.38  0.9  0.00100101971666
0.38  0.92  0.000771925049619
0.38  0.94  0.000595261284379
0.38  0.96  0.000459029016944
0.38  0.98  0.000353975042432
0.4  -1  0.000205859076349
0.4  -0.98  0.000266954666623
0.4  -0.96  0.000346182423898
0.4  -0.94  0.000448923677312
0.4  -0.92  0.00058215684604
0.4  -0.9  0.000754931429371
0.4  -0.88  0.000978982669239
0.4  -0.86  0.0012695286345
0.4  -0.84  0.00164630386671
0.4  -0.82  0.00213489979501
0.4  -0.8  0.00276850296406
0.4  -0.78  0.00359014913952
0.4  -0.76  0.00465564639494
0.4  -0.74  0.0060373657228
0.4  -0.72  0.00782915663665
0.4  -0.7  0.0101527216431
0.4  -0.68  0.0131658825524
0.4  -0.66  0.017073300094
0.4  -0.64  0.0221403749379
0.4  -0.62  0.028711274311
0.4  -0.6  0.037232308616
0.4  -0.58  0.0482822458474
0.4  -0.56  0.0626116228276
0.4  -0.54  0.081193723372
0.4  -0.52  0.105290685935
0.4  -0.5  0.136539230918
0.4  -0.48  0.177061830439
0.4  -0.46  0.22961087145
0.4  -0.44  0.297755604116
0.4  -0.42  0.386124573382
0.4  -0.4  0.500720000257
0.4  -0.38  0.649325466289
0.4  -0.36  0.842034592098
0.4  -0.34  1.091936619
0.4  -0.32  1.41600545999
0.4  -0.3  1.83625260645
0.4  -0.28  2.38122219863
0.4  -0.26  3.08792980842
0.4  -0.24  4.00437662105
0.4  -0.22  5.19280978456
0.4  -0.2  4.85344039968
0.4  -0.18  4.90589085868
0.4  -0.16  5.12387769867
0.4  -0.14  5.46735452693
0.4  -0.12  5.88304878609
0.4  -0.1  6.31884378975
0.4  -0.08  6.73069033648
0.4  -0.06  7.08416075916
0.4  -0.04  7.35385406108
0.4  -0.02  7.52240388403
0.4  6.17561557e-16  7.57969471357
0.4  0.02  7.52240388403
0.4  0.04  7.35385406108
0.4  0.06  7.08416075916
0.4  0.08  6.73069033648
0.4  0.1  6.31884378975
0.4  0.12  5.88304878609
0.4  0.14  5.46735452693
0.4  0.16  5.12387769867
0.4  0.18  4.90589085868
0.4  0.2  6.73395037742
0.4  0.22  5.19280978456
0.4  0.24  4.00437662105
0.4  0.26  3.08792980842
0.4  0.28  2.38122219863
0.4  0.3  1.83625260645
0.4  0.32  1.41600545999
0.4  0.34  1.091936619
0.4  0.36  0.842034592098
0.4  0.38  0.649325466289
0.4  0.4  0.500720000257
0.4  0.42  0.386124573382
0.4  0.44  0.297755604117
0.4  0.46  0.229610871451
0.4  0.48  0.177061830439
0.4  0.5  0.136539230918
0.4  0.52  0.105290685935
0.4  0.54  0.081193723372
0.4  0.56  0.0626116228277
0.4  0.58  0.0482822458474
0.4  0.6  0.037232308616
0.4  0.62  0.028711274311
0.4  0.64  0.0221403749379
0.4  0.66  0.017073300094
0.4  0.68  0.0131658825524
0.4  0.7  0.0101527216431
0.4  0.72  0.00782915663665
0.4  0.74  0.0060373657228
0.4  0.76  0.00465564639494
0.4  0.78  0.00359014913952
0.4  0.8  0.00276850296407
0.4  0.82  0.00213489979501
0.4  0.84  0.00164630386671
0.4  0.86  0.0012695286345
0.4  0.88  0.000978982669239
0.4  0.9  0.000754931429371
0.4  0.92  0.000582156846041
0.4  0.94  0.000448923677312
0.4  0.96  0.000346182423899
0.4  0.98  0.000266954666624
0.42  -1  0.000155251174548
0.42  -0.98  0.00020132717138
0.42  -0.96  0.000261077766748
0.42  -0.94  0.000338561356735
0.42  -0.92  0.000439040802678
0.42  -0.9  0.000569340896654
0.42  -0.88  0.000738311916855
0.42  -0.86  0.000957430758573
0.42  -0.84  0.00124158047098
0.42  -0.82  0.00161006114763
0.42  -0.8  0.00208790083261
0.42  -0.78  0.00270755548212
0.42  -0.76  0.00351111344669
0.42  -0.74  0.00455315420754
0.42  -0.72  0.00590445553878
0.42  -0.7  0.00765680089459
0.42  -0.68  0.00992921354971
0.42  -0.66  0.0128760409305
0.42  -0.64  0.0166974382427
0.42  -0.62  0.0216529634671
0.42  -0.6  0.0280792071269
0.42  -0.58  0.0364126542805
0.42  -0.56  0.0472193315773
0.42  -0.54  0.0612332530728
0.42  -0.52  0.0794062761293
0.42  -0.5  0.10297275373
0.42  -0.48  0.133533374533
0.42  -0.46  0.173163885284
0.42  -0.44  0.224556080242
0.42  -0.42  0.29120063396
0.42  -0.4  0.377624195824
0.42  -0.38  0.489696850355
0.42  -0.36  0.635030826677
0.42  -0.34  0.823497538402
0.42  -0.32  1.06789807245
0.42  -0.3  1.38483266793
0.42  -0.28  1.79582824208
0.42  -0.26  2.32880054735
0.42  -0.24  3.01995027266
0.42  -0.22  3.91622187641
0.42  -0.2  3.6602822475
0.42  -0.18  3.6998384114
0.42  -0.16  3.86423588926
0.42  -0.14  4.12327319751
0.42  -0.12  4.43677417659
0.42  -0.1  4.76543438133
0.42  -0.08  5.07603356037
0.42  -0.06  5.34260766176
0.42  -0.04  5.5460002089
0.42  -0.02  5.67311414746
0.42  6.17561557e-16  5.71632073681
0.42  0.02  5.67311414746
0.42  0.04  5.5460002089
0.42  0.06  5.34260766176
0.42  0.08  5.07603356037
0.42  0.1  4.76543438133
0.42  0.12  4.43677417659
0.42  0.14  4.12327319751
0.42  0.16  3.86423588926
0.42  0.18  3.6998384114
0.42  0.2  5.07849216067
0.42  0.22  3.91622187641
0.42  0.24  3.01995027266
0.42  0.26  2.32880054735
0.42  0.28  1.79582824208
0.42  0.3  1.38483266793
0.42  0.32  1.06789807245
0.42  0.34  0.823497538402
0.42  0.36  0.635030826678
0.42  0.38  0.489696850355
0.42  0.4  0.377624195824
0.42  0.42  0.29120063396
0.42  0.44  0.224556080242
0.42  0.46  0.173163885284
0.42  0.48  0.133533374533
0.42  0.5  0.10297275373
0.42  0.52  0.0794062761293
0.42  0.54  0.0612332530728
0.42  0.56  0.0472193315774
0.42  0.58  0.0364126542805
0.42  0.6  0.0280792071269
0.42  0.62  0.0216529634671
0.42  0.64  0.0166974382427
0.42  0.66  0.0128760409305
0.42  0.68  0.00992921354971
0.42  0.7  0.00765680089459
0.42  0.72  0.00590445553878
0.42  0.74  0.00455315420754
0.42  0.76  0.00351111344669
0.42  0.78  0.00270755548212
0.42  0.8  0.00208790083261
0.42  0.82  0.00161006114763
0.42  0.84  0.00124158047098
0.42  0.86  0.000957430758573
0.42  0.88  0.000738311916855
0.42  0.9  0.000569340896654
0.42  0.92  0.000439040802678
0.42  0.94  0.000338561356735
0.42  0.96  0.000261077766748
0.42  0.98  0.00020132717138
0.44  -1  0.000117084597997
0.44  -0.98  0.000151833382232
0.44  -0.96  0.000196895034481
0.44  -0.94  0.000255330244465
0.44  -0.92  0.000331108064308
0.44  -0.9  0.000429375495563
0.44  -0.88  0.00055680708525
0.44  -0.86  0.000722058276238
0.44  -0.84  0.000936353304573
0.44  -0.82  0.00121424757507
0.44  -0.8  0.00157461629747
0.44  -0.78  0.00204193653351
0.44  -0.76  0.00264794973453
0.44  -0.74  0.00343381769293
0.44  -0.72  0.00445291834452
0.44  -0.7  0.00577447131914
0.44  -0.68  0.00748823949503
0.44  -0.66  0.00971062589731
0.44  -0.64  0.0125925800557
0.44  -0.62  0.0163298508393
0.44  -0.6  0.0211762821642
0.44  -0.58  0.0274610546482
0.44  -0.56  0.0356110443064
0.44  -0.54  0.0461798169385
0.44  -0.52  0.059885227575
0.44  -0.5  0.0776581788205
0.44  -0.48  0.100705849872
0.44  -0.46  0.13059369087
0.44  -0.44  0.169351751828
0.44  -0.42  0.219612568234
0.44  -0.4  0.284789968842
0.44  -0.38  0.369310950667
0.44  -0.36  0.478916370675
0.44  -0.34  0.621050877821
0.44  -0.32  0.805368570506
0.44  -0.3  1.04438872486
0.44  -0.28  1.35434613238
0.44  -0.26  1.75629380387
0.44  -0.24  2.27753293768
0.44  -0.22  2.9534672791
0.44  -0.2  2.76044723497
0.44  -0.18  2.79027900637
0.44  -0.16  2.91426140239
0.44  -0.14  3.1096175998
0.44  -0.12  3.34604824978
0.44  -0.1  3.59391141772
0.44  -0.08  3.82815363922
0.44  -0.06  4.0291938026
0.44  -0.04  4.18258481357
0.44  -0.02  4.27844936622
0.44  6.17561557e-16  4.31103415123
0.44  0.02  4.27844936622
0.44  0.04  4.18258481357
0.44  0.06  4.0291938026
0.44  0.08  3.82815363922
0.44  0.1  3.59391141772
0.44  0.12  3.34604824978
0.44  0.14  3.1096175998
0.44  0.16  2.91426140239
0.44  0.18  2.79027900637
0.44  0.2  3.83000782311
0.44  0.22  2.9534672791
0.44  0.24  2.27753293768
0.44  0.26  1.75629380387
0.44  0.28  1.35434613238
0.44  0.3  1.04438872486
0.44  0.32  0.805368570506
0.44  0.34  0.621050877822
0.44  0.36  0.478916370675
0.44  0.38  0.369310950667
0.44  0.4  0.284789968842
0.44  0.42  0.219612568234
0.44  0.44  0.169351751828
0.44  0.46  0.130593690871
0.44  0.48  0.100705849872
0.44  0.5  0.0776581788205
0.44  0.52  0.059885227575
0.44  0.54  0.0461798169385
0.44  0.56  0.0356110443064
0.44  0.58  0.0274610546482
0.44  0.6  0.0211762821642
0.44  0.62  0.0163298508393
0.44  0.64  0.0125925800557
0.44  0.66  0.00971062589731
0.44  0.68  0.00748823949503
0.44  0.7  0.00577447131914
0.44  0.72  0.00445291834452
0.44  0.74  0.00343381769293
0.44  0.76  0.00264794973453
0.44  0.78  0.00204193653351
0.44  0.8  0.00157461629747
0.44  0.82  0.00121424757507
0.44  0.84  0.000936353304573
0.44  0.86  0.000722058276238
0.44  0.88  0.000556807085251
0.44  0.9  0.000429375495563
0.44  0.92  0.000331108064308
0.44  0.94  0.000255330244465
0.44  0.96  0.000196895034481
0.44  0.98  0.000151833382232
0.46  -1  0.0000883008011254
0.46  -0.98  0.00011450702755
0.46  -0.96  0.000148490831242
0.46  -0.94  0.000192560469297
0.46  -0.92  0.000249709251579
0.46  -0.9  0.000323818853122
0.46  -0.88  0.000419922966306
0.46  -0.86  0.000544549200676
0.46  -0.84  0.000706162452998
0.46  -0.82  0.000915739862265
0.46  -0.8  0.0011875164019
0.46  -0.78  0.00153995175147
0.46  -0.76  0.00199698412001
0.46  -0.74  0.00258965618356
0.46  -0.72  0.00335822357417
0.46  -0.7  0.00435488913381
0.46  -0.68  0.00564734864994
0.46  -0.66  0.00732338890705
0.46  -0.64  0.00949685036437
0.46  -0.62  0.0123153594583
0.46  -0.6  0.0159703557251
0.46  -0.58  0.0207100948089
0.46  -0.56  0.0268565105483
0.46  -0.54  0.0348270814542
0.46  -0.52  0.0451631867973
0.46  -0.5  0.0585668783177
0.46  -0.48  0.0759485651726
0.46  -0.46  0.0984888509933
0.46  -0.44  0.127718723164
0.46  -0.42  0.165623540961
0.46  -0.4  0.21477788566
0.46  -0.38  0.278520431944
0.46  -0.36  0.361180718267
0.46  -0.34  0.46837321893
0.46  -0.32  0.60737869193
0.46  -0.3  0.787638704564
0.46  -0.28  1.02139692612
0.46  -0.26  1.32453074568
0.46  -0.24  1.71762970046
0.46  -0.22  2.22739396387
0.46  -0.2  2.08182550464
0.46  -0.18  2.10432350488
0.46  -0.16  2.1978263659
0.46  -0.14  2.34515666409
0.46  -0.12  2.5234637699
0.46  -0.1  2.71039285086
0.46  -0.08  2.8870495262
0.46  -0.06  3.0386664578
0.46  -0.04  3.15434819037
0.46  -0.02  3.22664563122
0.46  6.17561557e-16  3.2512198508
0.46  0.02  3.22664563122
0.46  0.04  3.15434819037
0.46  0.06  3.0386664578
0.46  0.08  2.8870495262
0.46  0.1  2.71039285086
0.46  0.12  2.5234637699
0.46  0.14  2.34515666409
0.46  0.16  2.1978263659
0.46  0.18  2.10432350488
0.46  0.2  2.88844788197
0.46  0.22  2.22739396387
0.46  0.24  1.71762970046
0.46  0.26  1.32453074568
0.46  0.28  1.02139692612
0.46  0.3  0.787638704565
0.46  0.32  0.607378691931
0.46  0.34  0.468373218931
0.46  0.36  0.361180718267
0.46  0.38  0.278520431944
0.46  0.4  0.21477788566
0.46  0.42  0.165623540961
0.46  0.44  0.127718723164
0.46  0.46  0.0984888509933
0.46  0.48  0.0759485651726
0.46  0.5  0.0585668783177
0.46  0.52  0.0451631867973
0.46  0.54  0.0348270814542
0.46  0.56  0.0268565105483
0.46  0.58  0.0207100948089
0.46  0.6  0.0159703557251
0.46  0.62  0.0123153594583
0.46  0.64  0.00949685036438
0.46  0.66  0.00732338890705
0.46  0.68  0.00564734864994
0.46  0.7  0.00435488913381
0.46  0.72  0.00335822357417
0.46  0.74  0.00258965618356
0.46  0.76  0.00199698412001
0.46  0.78  0.00153995175147
0.46  0.8  0.0011875164019
0.46  0.82  0.000915739862266
0.46  0.84  0.000706162452998
0.46  0.86  0.000544549200676
0.46  0.88  0.000419922966307
0.46  0.9  0.000323818853122
0.46  0.92  0.00024970925158
0.46  0.94  0.000192560469297
0.46  0.96  0.000148490831242
0.46  0.98  0.00011450702755
0.48  -1  0.0000665931438698
0.48  -0.98  0.0000863568944175
0.48  -0.96  0.000111986201283
0.48  -0.94  0.000145221865171
0.48  -0.92  0.000188321327826
0.48  -0.9  0.000244212002597
0.48  -0.88  0.000316690110997
0.48  -0.86  0.000410678530689
0.48  -0.84  0.000532561168513
0.48  -0.82  0.000690616569929
0.48  -0.8  0.00089558021662
0.48  -0.78  0.00116137370478
0.48  -0.76  0.00150605033153
0.48  -0.74  0.00195302131586
0.48  -0.72  0.00253264594173
0.48  -0.7  0.0032842936296
0.48  -0.68  0.00425901799684
0.48  -0.66  0.0055230245353
0.48  -0.64  0.00716216743863
0.48  -0.62  0.00928778101402
0.48  -0.6  0.0120442417611
0.48  -0.58  0.0156187747516
0.48  -0.56  0.0202541703812
0.48  -0.54  0.0262652752442
0.48  -0.52  0.0340603772297
0.48  -0.5  0.0441689373608
0.48  -0.48  0.0572775519903
0.48  -0.46  0.0742765879831
0.48  -0.44  0.0963206584554
0.48  -0.42  0.124907046718
0.48  -0.4  0.16197740516
0.48  -0.38  0.210049636682
0.48  -0.36  0.272388916386
0.48  -0.34  0.353229469671
0.48  -0.32  0.458062170441
0.48  -0.3  0.594007493726
0.48  -0.28  0.770299154508
0.48  -0.26  0.998911282606
0.48  -0.24  1.29537173276
0.48  -0.22  1.67981677177
0.48  -0.2  1.57003451357
0.48  -0.18  1.58700165936
0.48  -0.16  1.6575180012
0.48  -0.14  1.76862897209
0.48  -0.12  1.90310148648
0.48  -0.1  2.04407637032
0.48  -0.08  2.17730419212
0.48  -0.06  2.29164798074
0.48  -0.04  2.37889079351
0.48  -0.02  2.43341480483
0.48  6.17561557e-16  2.45194775718
0.48  0.02  2.43341480483
0.48  0.04  2.37889079351
0.48  0.06  2.29164798074
0.48  0.08  2.17730419212
0.48  0.1  2.04407637032
0.48  0.12  1.90310148648
0.48  0.14  1.76862897209
0.48  0.16  1.6575180012
0.48  0.18  1.58700165936
0.48  0.2  2.17835877946
0.48  0.22  1.67981677177
0.48  0.24  1.29537173276
0.48  0.26  0.998911282606
0.48  0.28  0.770299154508
0.48  0.3  0.594007493726
0.48  0.32  0.458062170441
0.48  0.34  0.353229469671
0.48  0.36  0.272388916386
0.48  0.38  0.210049636682
0.48  0.4  0.16197740516
0.48  0.42  0.124907046718
0.48  0.44  0.0963206584554
0.48  0.46  0.0742765879832
0.48  0.48  0.0572775519903
0.48  0.5  0.0441689373608
0.48  0.52  0.0340603772297
0.48  0.54  0.0262652752443
0.48  0.56  0.0202541703812
0.48  0.58  0.0156187747516
0.48  0.6  0.0120442417611
0.48  0.62  0.00928778101403
0.48  0.64  0.00716216743863
0.48  0.66  0.0055230245353
0.48  0.68  0.00425901799684
0.48  0.7  0.0032842936296
0.48  0.72  0.00253264594173
0.48  0.74  0.00195302131586
0.48  0.76  0.00150605033153
0.48  0.78  0.00116137370478
0.48  0.8  0.00089558021662
0.48  0.82  0.000690616569929
0.48  0.84  0.000532561168513
0.48  0.86  0.000410678530689
0.48  0.88  0.000316690110997
0.48  0.9  0.000244212002597
0.48  0.92  0.000188321327826
0.48  0.94  0.000145221865171
0.48  0.96  0.000111986201283
0.48  0.98  0.0000863568944175
0.5  -1  0.0000502220450318
0.5  -0.98  0.0000651271225267
0.5  -0.96  0.0000844557820359
0.5  -0.94  0.000109520869993
0.5  -0.92  0.000142024864077
0.5  -0.9  0.000184175509354
0.5  -0.88  0.000238835773345
0.5  -0.86  0.000309718305269
0.5  -0.84  0.000401637607612
0.5  -0.82  0.000520837048067
0.5  -0.8  0.000675412923238
0.5  -0.78  0.000875864377485
0.5  -0.76  0.00113580652865
0.5  -0.74  0.00147289523776
0.5  -0.72  0.0019100263352
0.5  -0.7  0.00247689075749
0.5  -0.68  0.0032119912231
0.5  -0.66  0.00416525742449
0.5  -0.64  0.00540143736616
0.5  -0.62  0.00700449519614
0.5  -0.6  0.00908331424153
0.5  -0.58  0.0117790926113
0.5  -0.56  0.0152749336922
0.5  -0.54  0.0198082829468
0.5  -0.52  0.0256870557482
0.5  -0.5  0.033310551691
0.5  -0.48  0.0431965759267
0.5  -0.46  0.0560166096647
0.5  -0.44  0.0726414187007
0.5  -0.42  0.0942001978062
0.5  -0.4  0.122157268201
0.5  -0.38  0.158411537575
0.5  -0.36  0.205425478209
0.5  -0.34  0.266392383682
0.5  -0.32  0.345453264622
0.5  -0.3  0.447978115547
0.5  -0.28  0.580930657085
0.5  -0.26  0.753341327688
0.5  -0.24  0.976920651512
0.5  -0.22  1.2668546438
0.5  -0.2  1.18406099277
0.5  -0.18  1.19685697612
0.5  -0.16  1.25003774953
0.5  -0.14  1.33383346572
0.5  -0.12  1.43524757956
0.5  -0.1  1.54156553593
0.5  -0.08  1.64204094941
0.5  -0.06  1.72827473517
0.5  -0.04  1.79406998401
0.5  -0.02  1.8351899431
0.5  6.17561557e-16  1.84916679888
0.5  0.02  1.8351899431
0.5  0.04  1.79406998401
0.5  0.06  1.72827473517
0.5  0.08  1.64204094941
0.5  0.1  1.54156553593
0.5  0.12  1.43524757956
0.5  0.14  1.33383346572
0.5  0.16  1.25003774953
0.5  0.18  1.19685697612
0.5  0.2  1.64283627953
0.5  0.22  1.2668546438
0.5  0.24  0.976920651512
0.5  0.26  0.753341327688
0.5  0.28  0.580930657085
0.5  0.3  0.447978115547
0.5  0.32  0.345453264622
0.5  0.34  0.266392383682
0.5  0.36  0.205425478209
0.5  0.38  0.158411537575
0.5  0.4  0.122157268201
0.5  0.42  0.0942001978062
0.5  0.44  0.0726414187007
0.5  0.46  0.0560166096647
0.5  0.48  0.0431965759267
0.5  0.5  0.033310551691
0.5  0.52  0.0256870557482
0.5  0.54  0.0198082829468
0.5  0.56  0.0152749336922
0.5  0.58  0.0117790926113
0.5  0.6  0.00908331424154
0.5  0.62  0.00700449519614
0.5  0.64  0.00540143736616
0.5  0.66  0.00416525742449
0.5  0.68  0.0032119912231
0.5  0.7  0.0024768907575
0.5  0.72  0.0019100263352
0.5  0.74  0.00147289523776
0.5  0.76  0.00113580652865
0.5  0.78  0.000875864377485
0.5  0.8  0.000675412923238
0.5  0.82  0.000520837048068
0.5  0.84  0.000401637607612
0.5  0.86  0.000309718305269
0.5  0.88  0.000238835773345
0.5  0.9  0.000184175509354
0.5  0.92  0.000142024864077
0.5  0.94  0.000109520869994
0.5  0.96  0.0000844557820359
0.5  0.98  0.0000651271225267
0.52  -1  0.000037875577884
0.52  -0.98  0.000049116426861
0.52  -0.96  0.0000636933750552
