0.12  0.5  4.11306806782
0.12  0.52  3.31304913227
0.12  0.54  2.66863916956
0.12  0.56  2.14957120555
0.12  0.58  1.73146539271
0.12  0.6  1.39468392507
0.12  0.62  1.12340867974
0.12  0.64  0.904898263343
0.12  0.66  0.72888956777
0.12  0.68  0.587115727288
0.12  0.7  0.472917836214
0.12  0.72  0.380932190051
0.12  0.74  0.306838360293
0.12  0.76  0.247156270345
0.12  0.78  0.19908274152
0.12  0.8  0.160359831923
0.12  0.82  0.129168784285
0.12  0.84  0.104044601654
0.12  0.86  0.0838072386707
0.12  0.88  0.0675061766004
0.12  0.9  0.0543757788885
0.12  0.92  0.0437993303521
0.12  0.94  0.0352800709894
0.12  0.96  0.0284178639037
0.12  0.98  0.0228904014703
0.14  -1  0.0156252540621
0.14  -0.98  0.0193983641559
0.14  -0.96  0.024082586461
0.14  -0.94  0.0298979319077
0.14  -0.92  0.0371175385917
0.14  -0.9  0.0460805006635
0.14  -0.88  0.0572077950737
0.14  -0.86  0.0710220542328
0.14  -0.84  0.0881721132748
0.14  -0.82  0.109463484876
0.14  -0.8  0.135896192981
0.14  -0.78  0.168711742438
0.14  -0.76  0.209451430626
0.14  -0.74  0.260028739893
0.14  -0.72  0.322819210965
0.14  -0.7  0.400772018551
0.14  -0.68  0.497548489674
0.14  -0.66  0.617694070739
0.14  -0.64  0.766851820364
0.14  -0.62  0.952027455424
0.14  -0.6  1.18191839911
0.14  -0.58  1.46732228593
0.14  -0.56  1.82164411045
0.14  -0.54  2.26152583995
0.14  -0.52  2.80762806269
0.14  -0.5  3.485600385
0.14  -0.48  4.32728615494
0.14  -0.46  5.37221809687
0.14  -0.44  6.66947510448
0.14  -0.42  8.27998740319
0.14  -0.4  10.2793983519
0.14  -0.38  12.7616172986
0.14  -0.36  15.8432303625
0.14  -0.34  19.6689763095
0.14  -0.32  24.4185447168
0.14  -0.3  30.3150157235
0.14  -0.28  37.6353377718
0.14  -0.26  46.7233354625
0.14  -0.24  58.0058584827
0.14  -0.22  72.012830099
0.14  -0.2  89.0041336104
0.14  -0.18  81.7010757453
0.14  -0.16  73.9090677034
0.14  -0.14  65.6750001517
0.14  -0.12  57.0485445753
0.14  -0.1  48.0819855658
0.14  -0.08  38.830230566
0.14  -0.06  29.3514441879
0.14  -0.04  19.710521325
0.14  -0.02  10.0049089108
0.14  6.17561557e-16  1.78597054549
0.14  0.02  10.0049089108
0.14  0.04  19.710521325
0.14  0.06  29.3514441879
0.14  0.08  38.830230566
0.14  0.1  48.0819855658
0.14  0.12  57.0485445753
0.14  0.14  65.6750001517
0.14  0.16  73.9090677034
0.14  0.18  81.7010757453
0.14  0.2  89.4021368619
0.14  0.22  72.012830099
0.14  0.24  58.0058584827
0.14  0.26  46.7233354625
0.14  0.28  37.6353377718
0.14  0.3  30.3150157235
0.14  0.32  24.4185447168
0.14  0.34  19.6689763095
0.14  0.36  15.8432303625
0.14  0.38  12.7616172986
0.14  0.4  10.2793983519
0.14  0.42  8.27998740319
0.14  0.44  6.66947510448
0.14  0.46  5.37221809687
0.14  0.48  4.32728615494
0.14  0.5  3.485600385
0.14  0.52  2.80762806269
0.14  0.54  2.26152583995
0.14  0.56  1.82164411045
0.14  0.58  1.46732228593
0.14  0.6  1.18191839911
0.14  0.62  0.952027455424
0.14  0.64  0.766851820364
0.14  0.66  0.617694070739
0.14  0.68  0.497548489674
0.14  0.7  0.400772018551
0.14  0.72  0.322819210965
0.14  0.74  0.260028739893
0.14  0.76  0.209451430626
0.14  0.78  0.168711742438
0.14  0.8  0.135896192981
0.14  0.82  0.109463484876
0.14  0.84  0.0881721132748
0.14  0.86  0.0710220542328
0.14  0.88  0.0572077950737
0.14  0.9  0.0460805006635
0.14  0.92  0.0371175385917
0.14  0.94  0.0298979319077
0.14  0.96  0.024082586461
0.14  0.98  0.0193983641559
0.16  -1  0.0170566073263
0.16  -0.98  0.0211753536209
0.16  -0.96  0.0262886746697
0.16  -0.94  0.0326367355304
0.16  -0.92  0.0405176951469
0.16  -0.9  0.0503017104296
0.16  -0.88  0.062448321973
0.16  -0.86  0.077528037992
0.16  -0.84  0.0962491302407
0.16  -0.82  0.11949090048
0.16  -0.8  0.148344979967
0.16  -0.78  0.184166601751
0.16  -0.76  0.228638253941
0.16  -0.74  0.283848703663
0.16  -0.72  0.352391103336
0.16  -0.7  0.43748478717
0.16  -0.68  0.543126478487
0.16  -0.66  0.674278009853
0.16  -0.64  0.837099372944
0.16  -0.62  1.03923804417
0.16  -0.6  1.2901881752
0.16  -0.58  1.60173651915
0.16  -0.56  1.98851603673
0.16  -0.54  2.46869318458
0.16  -0.52  3.06482116665
0.16  -0.5  3.80489922451
0.16  -0.48  4.72368771992
0.16  -0.46  5.86434077717
0.16  -0.44  7.28043316788
0.16  -0.42  9.03847663804
0.16  -0.4  11.2210438655
0.16  -0.38  13.9306467752
0.16  -0.36  17.2945513718
0.16  -0.34  21.4707552332
0.16  -0.32  26.6554084216
0.16  -0.3  33.092026359
0.16  -0.28  41.0829273827
0.16  -0.26  51.0034321871
0.16  -0.24  63.319492076
0.16  -0.22  78.6095739998
0.16  -0.2  89.0568843386
0.16  -0.18  81.8153044013
0.16  -0.16  74.0962857665
0.16  -0.14  65.9505529373
0.16  -0.12  57.4342351935
0.16  -0.1  48.6112471921
0.16  -0.08  39.559472
0.16  -0.06  30.388910702
0.16  -0.04  21.3074229258
0.16  -0.02  12.9517536604
0.16  6.17561557e-16  8.45938545322
0.16  0.02  12.9517536604
0.16  0.04  21.3074229258
0.16  0.06  30.388910702
0.16  0.08  39.559472
0.16  0.1  48.6112471921
0.16  0.12  57.4342351935
0.16  0.14  65.9505529373
0.16  0.16  74.0962857665
0.16  0.18  81.8153044013
0.16  0.2  97.5918302853
0.16  0.22  78.6095739998
0.16  0.24  63.319492076
0.16  0.26  51.0034321871
0.16  0.28  41.0829273827
0.16  0.3  33.092026359
0.16  0.32  26.6554084216
0.16  0.34  21.4707552332
0.16  0.36  17.2945513718
0.16  0.38  13.9306467752
0.16  0.4  11.2210438655
0.16  0.42  9.03847663804
0.16  0.44  7.28043316788
0.16  0.46  5.86434077717
0.16  0.48  4.72368771992
0.16  0.5  3.80489922451
0.16  0.52  3.06482116665
0.16  0.54  2.46869318458
0.16  0.56  1.98851603673
0.16  0.58  1.60173651915
0.16  0.6  1.2901881752
0.16  0.62  1.03923804417
0.16  0.64  0.837099372944
0.16  0.66  0.674278009853
0.16  0.68  0.543126478487
0.16  0.7  0.43748478717
0.16  0.72  0.352391103336
0.16  0.74  0.283848703663
0.16  0.76  0.228638253941
0.16  0.78  0.184166601751
0.16  0.8  0.148344979967
0.16  0.82  0.11949090048
0.16  0.84  0.0962491302407
0.16  0.86  0.077528037992
0.16  0.88  0.062448321973
0.16  0.9  0.0503017104296
0.16  0.92  0.0405176951469
0.16  0.94  0.0326367355304
0.16  0.96  0.0262886746697
0.16  0.98  0.0211753536209
0.18  -1  0.0217647920281
0.18  -0.98  0.0270204477868
0.18  -0.96  0.0335452136485
0.18  -0.94  0.0416455481272
0.18  -0.92  0.0517019118432
0.18  -0.9  0.0641866371906
0.18  -0.88  0.0796861130847
0.18  -0.86  0.0989283267745
0.18  -0.84  0.122817056317
0.18  -0.82  0.152474319683
0.18  -0.8  0.189293074269
0.18  -0.78  0.235002642023
0.18  -0.76  0.291749933119
0.18  -0.74  0.36220028312
0.18  -0.72  0.449662639816
0.18  -0.7  0.558244979557
0.18  -0.68  0.693047252778
0.18  -0.66  0.86040092105
0.18  -0.64  1.06816633639
0.18  -0.62  1.32610193025
0.18  -0.6  1.6463225525
0.18  -0.58  2.04386848781
0.18  -0.56  2.53741187541
0.18  -0.54  3.15013371156
0.18  -0.52  3.91081262641
0.18  -0.5  4.85517657321
0.18  -0.48  6.02758091705
0.18  -0.46  7.48309174006
0.18  -0.44  9.29007221317
0.18  -0.42  11.5333935122
0.18  -0.4  14.3184210903
0.18  -0.38  17.7759635359
0.18  -0.36  22.0684164573
0.18  -0.34  27.3973899613
0.18  -0.32  34.0131779797
0.18  -0.3  42.2265142013
0.18  -0.28  52.4231667695
0.18  -0.26  65.0820572365
0.18  -0.24  80.7977547933
0.18  -0.22  100.308402298
0.18  -0.2  89.2626956974
0.18  -0.18  82.2601035015
0.18  -0.16  74.8233024999
0.18  -0.14  67.01634514
0.18  -0.12  58.9170237152
0.18  -0.1  50.6261867477
0.18  -0.08  42.2884118237
0.18  -0.06  34.1416427626
0.18  -0.04  26.6446504588
0.18  -0.02  20.7863467018
0.18  6.17561557e-16  18.4039589527
0.18  0.02  20.7863467017
0.18  0.04  26.6446504588
0.18  0.06  34.1416427626
0.18  0.08  42.2884118237
0.18  0.1  50.6261867477
0.18  0.12  58.9170237152
0.18  0.14  67.01634514
0.18  0.16  74.8233024999
0.18  0.18  82.2601035015
0.18  0.2  124.530385742
0.18  0.22  100.308402298
0.18  0.24  80.7977547933
0.18  0.26  65.0820572365
0.18  0.28  52.4231667695
0.18  0.3  42.2265142013
0.18  0.32  34.0131779797
0.18  0.34  27.3973899613
0.18  0.36  22.0684164573
0.18  0.38  17.7759635359
0.18  0.4  14.3184210903
0.18  0.42  11.5333935122
0.18  0.44  9.29007221317
0.18  0.46  7.48309174006
0.18  0.48  6.02758091705
0.18  0.5  4.85517657321
0.18  0.52  3.91081262641
0.18  0.54  3.15013371156
0.18  0.56  2.53741187541
0.18  0.58  2.04386848781
0.18  0.6  1.6463225525
0.18  0.62  1.32610193025
0.18  0.64  1.06816633639
0.18  0.66  0.86040092105
0.18  0.68  0.693047252778
0.18  0.7  0.558244979557
0.18  0.72  0.449662639816
0.18  0.74  0.36220028312
0.18  0.76  0.291749933119
0.18  0.78  0.235002642023
0.18  0.8  0.189293074269
0.18  0.82  0.152474319683
0.18  0.84  0.122817056317
0.18  0.86  0.0989283267745
0.18  0.88  0.0796861130847
0.18  0.9  0.0641866371906
0.18  0.92  0.0517019118432
0.18  0.94  0.0416455481272
0.18  0.96  0.0335452136485
0.18  0.98  0.0270204477868
0.2  -1  0.0276896926696
0.2  -0.98  0.0343760645195
0.2  -0.96  0.0426770288117
0.2  -0.94  0.0529824694493
0.2  -0.92  0.0657764175978
0.2  -0.9  0.0816597859059
0.2  -0.88  0.101378592476
0.2  -0.86  0.125859000222
0.2  -0.84  0.156250817357
0.2  -0.82  0.193981502171
0.2  -0.8  0.240823208613
0.2  -0.78  0.298976021722
0.2  -0.76  0.371171292333
0.2  -0.74  0.460799924552
0.2  -0.72  0.572071641457
0.2  -0.7  0.710212709514
0.2  -0.68  0.881711408505
0.2  -0.66  1.09462277635
0.2  -0.64  1.35894694222
0.2  -0.62  1.68709881766
0.2  -0.6  2.09449120648
0.2  -0.58  2.60025872112
0.2  -0.56  3.22815650687
0.2  -0.54  4.00767598554
0.2  -0.52  4.97543002358
0.2  -0.5  6.17687258373
0.2  -0.48  7.66843362981
0.2  -0.46  9.52016955793
0.2  -0.44  11.8190536408
0.2  -0.42  14.6730610326
0.2  -0.4  18.2162402008
0.2  -0.38  22.6150089824
0.2  -0.36  28.0759709818
0.2  -0.34  34.8556194334
0.2  -0.32  43.2723843057
0.2  -0.3  53.7215884826
0.2  -0.28  66.694015488
0.2  -0.26  82.7989608564
0.2  -0.24  102.792849834
0.2  -0.22  127.614765545
0.2  -0.2  89.5916465067
0.2  -0.18  82.9681879491
0.2  -0.16  75.974272361
0.2  -0.14  68.6904267712
0.2  -0.12  61.2191990891
0.2  -0.1  53.6988232702
0.2  -0.08  46.3289985662
0.2  -0.06  39.4191475511
0.2  -0.04  33.469717161
0.2  -0.02  29.2542629034
0.2  6.17561557e-16  27.6941600039
0.2  0.02  29.2542629034
0.2  0.04  33.469717161
0.2  0.06  39.4191475511
0.2  0.08  46.3289985662
0.2  0.1  53.6988232702
0.2  0.12  61.2191990891
0.2  0.14  68.6904267712
0.2  0.16  75.974272361
0.2  0.18  82.9681879491
0.2  0.2  158.430556321
0.2  0.22  127.614765545
0.2  0.24  102.792849834
0.2  0.26  82.7989608564
0.2  0.28  66.694015488
0.2  0.3  53.7215884826
0.2  0.32  43.2723843057
0.2  0.34  34.8556194334
0.2  0.36  28.0759709818
0.2  0.38  22.6150089824
0.2  0.4  18.2162402008
0.2  0.42  14.6730610326
0.2  0.44  11.8190536408
0.2  0.46  9.52016955793
0.2  0.48  7.66843362981
0.2  0.5  6.17687258373
0.2  0.52  4.97543002358
0.2  0.54  4.00767598554
0.2  0.56  3.22815650687
0.2  0.58  2.60025872112
0.2  0.6  2.09449120648
0.2  0.62  1.68709881766
0.2  0.64  1.35894694222
0.2  0.66  1.09462277635
0.2  0.68  0.881711408505
0.2  0.7  0.710212709514
0.2  0.72  0.572071641457
0.2  0.74  0.460799924552
0.2  0.76  0.371171292333
0.2  0.78  0.298976021722
0.2  0.8  0.240823208613
0.2  0.82  0.193981502171
0.2  0.84  0.156250817357
0.2  0.86  0.125859000222
0.2  0.88  0.101378592476
0.2  0.9  0.0816597859059
0.2  0.92  0.0657764175978
0.2  0.94  0.0529824694493
0.2  0.96  0.0426770288117
0.2  0.98  0.0343760645195
0.22  -1  0.0335955869889
0.22  -0.98  0.041708085376
0.22  -0.96  0.0517795502816
0.22  -0.94  0.0642830233801
0.22  -0.92  0.0798057741409
0.22  -0.9  0.0990768829986
0.22  -0.88  0.123001485173
0.22  -0.86  0.15270328352
0.22  -0.84  0.189577327175
0.22  -0.82  0.235355534934
0.22  -0.8  0.292188040887
0.22  -0.78  0.362744183014
0.22  -0.76  0.450337878001
0.22  -0.74  0.559083270965
0.22  -0.72  0.694087970703
0.22  -0.7  0.861692946461
0.22  -0.68  1.06977035379
0.22  -0.66  1.32809327795
0.22  -0.64  1.64879476112
0.22  -0.62  2.0469376733
0.22  -0.6  2.54122219283
0.22  -0.58  3.15486412584
0.22  -0.56  3.91668531804
0.22  -0.54  4.86246737376
0.22  -0.52  6.03663226453
0.22  -0.5  7.49432876275
0.22  -0.48  9.30402269727
0.22  -0.46  11.5507126911
0.22  -0.44  14.33992242
0.22  -0.42  17.8026569018
0.22  -0.4  22.1015556069
0.22  -0.38  27.438531391
0.22  -0.36  34.0642540411
0.22  -0.34  42.2899238607
0.22  -0.32  52.501888284
0.22  -0.3  65.1797880381
0.22  -0.28  80.9190851519
0.22  -0.26  100.459030919
0.22  -0.24  124.717387428
0.22  -0.22  154.833533477
0.22  -0.2  89.9963232977
0.22  -0.18  83.8345935877
0.22  -0.16  77.3723751874
0.22  -0.14  70.7036362428
0.22  -0.12  63.948646253
0.22  -0.1  57.267152185
0.22  -0.08  50.8790504941
0.22  -0.06  45.0934032608
0.22  -0.04  40.3364134101
0.22  -0.02  37.1380751217
0.22  6.17561557e-16  35.9996655701
0.22  0.02  37.1380751217
0.22  0.04  40.3364134101
0.22  0.06  45.0934032608
0.22  0.08  50.8790504941
0.22  0.1  57.267152185
0.22  0.12  63.948646253
0.22  0.14  70.7036362428
0.22  0.16  77.3723751874
0.22  0.18  83.8345935877
0.22  0.2  192.221979496
0.22  0.22  154.833533477
0.22  0.24  124.717387428
0.22  0.26  100.459030919
0.22  0.28  80.9190851519
0.22  0.3  65.1797880381
0.22  0.32  52.501888284
0.22  0.34  42.2899238607
0.22  0.36  34.0642540411
0.22  0.38  27.438531391
0.22  0.4  22.1015556069
0.22  0.42  17.8026569018
0.22  0.44  14.33992242
0.22  0.46  11.5507126911
0.22  0.48  9.30402269727
0.22  0.5  7.49432876275
0.22  0.52  6.03663226453
0.22  0.54  4.86246737376
0.22  0.56  3.91668531804
0.22  0.58  3.15486412584
0.22  0.6  2.54122219283
0.22  0.62  2.0469376733
0.22  0.64  1.64879476112
0.22  0.66  1.32809327795
0.22  0.68  1.06977035379
0.22  0.7  0.861692946461
0.22  0.72  0.694087970703
0.22  0.74  0.559083270965
0.22  0.76  0.450337878001
0.22  0.78  0.362744183014
0.22  0.8  0.292188040887
0.22  0.82  0.235355534934
0.22  0.84  0.189577327175
0.22  0.86  0.15270328352
0.22  0.88  0.123001485173
0.22  0.9  0.0990768829986
0.22  0.92  0.0798057741409
0.22  0.94  0.0642830233801
0.22  0.96  0.0517795502816
0.22  0.98  0.041708085376
0.24  -1  0.0388396656812
0.24  -0.98  0.0482184785979
0.24  -0.96  0.0598620414856
0.24  -0.94  0.0743172351145
0.24  -0.92  0.0922629983542
0.24  -0.9  0.114542216919
0.24  -0.88  0.142201312452
0.24  -0.86  0.176539391388
0.24  -0.84  0.219169262042
0.24  -0.82  0.272093185812
0.24  -0.8  0.337796920406
0.24  -0.78  0.419366472171
0.24  -0.76  0.520633041207
0.24  -0.74  0.646352967115
0.24  -0.72  0.802431127171
0.24  -0.7  0.996198279598
0.24  -0.68  1.23675537834
0.24  -0.66  1.53540103127
0.24  -0.64  1.90616217897
0.24  -0.62  2.36645291917
0.24  -0.6  2.93789242092
0.24  -0.58  3.64732034472
0.24  -0.56  4.52805746128
0.24  -0.54  5.62147067843
0.24  -0.52  6.97891598299
0.24  -0.5  8.66415055486
0.24  -0.48  10.7563273466
0.24  -0.46  13.3537127793
0.24  -0.44  16.5783021702
0.24  -0.42  20.58154967
0.24  -0.4  25.5514818387
0.24  -0.38  31.7215289723
0.24  -0.36  39.3814889757
0.24  -0.34  48.8911387373
0.24  -0.32  60.6971323126
0.24  -0.3  75.3539795989
0.24  -0.28  93.550090837
0.24  -0.26  116.140110213
0.24  -0.24  144.18505722
0.24  -0.22  179.002161161
0.24  -0.2  90.419078795
0.24  -0.18  84.7343487198
0.24  -0.16  78.8129982897
0.24  -0.14  72.756589531
0.24  -0.12  66.6931427753
0.24  -0.1  60.7872116877
0.24  -0.08  55.2527639512
0.24  -0.06  50.3655878709
0.24  -0.04  46.4640838053
0.24  -0.02  43.915423413
0.24  6.17561557e-16  43.0251645163
0.24  0.02  43.915423413
0.24  0.04  46.4640838053
0.24  0.06  50.3655878709
0.24  0.08  55.2527639512
0.24  0.1  60.7872116877
0.24  0.12  66.6931427753
0.24  0.14  72.756589531
0.24  0.16  78.8129982897
0.24  0.18  84.7343487198
0.24  0.2  222.226729441
0.24  0.22  179.002161161
0.24  0.24  144.18505722
0.24  0.26  116.140110213
0.24  0.28  93.550090837
0.24  0.3  75.3539795989
0.24  0.32  60.6971323126
0.24  0.34  48.8911387373
0.24  0.36  39.3814889757
0.24  0.38  31.7215289723
0.24  0.4  25.5514818387
0.24  0.42  20.58154967
0.24  0.44  16.5783021702
0.24  0.46  13.3537127793
0.24  0.48  10.7563273466
0.24  0.5  8.66415055486
0.24  0.52  6.97891598299
0.24  0.54  5.62147067843
0.24  0.56  4.52805746128
0.24  0.58  3.64732034472
0.24  0.6  2.93789242092
0.24  0.62  2.36645291917
0.24  0.64  1.90616217897
0.24  0.66  1.53540103127
0.24  0.68  1.23675537834
0.24  0.7  0.996198279598
0.24  0.72  0.802431127171
0.24  0.74  0.646352967115
0.24  0.76  0.520633041207
0.24  0.78  0.419366472171
0.24  0.8  0.337796920406
0.24  0.82  0.272093185812
0.24  0.84  0.219169262042
0.24  0.86  0.176539391388
0.24  0.88  0.142201312452
0.24  0.9  0.114542216919
0.24  0.92  0.0922629983542
0.24  0.94  0.0743172351145
0.24  0.96  0.0598620414856
0.24  0.98  0.0482184785979
0.26  -1  0.0430435016389
0.26  -0.98  0.0534374363464
0.26  -0.96  0.0663412476808
0.26  -0.94  0.0823610084008
0.26  -0.92  0.102249142757
0.26  -0.9  0.126939766736
0.26  -0.88  0.157592562094
0.26  -0.86  0.195647244879
0.26  -0.84  0.242891186741
0.26  -0.82  0.301543365115
0.26  -0.8  0.37435858528
0.26  -0.78  0.464756869444
0.26  -0.76  0.576984090091
0.26  -0.74  0.716311392269
0.26  -0.72  0.889282771408
0.26  -0.7  1.10402243502
0.26  -0.68  1.37061638458
0.26  -0.66  1.70158614002
0.26  -0.64  2.11247685673
0.26  -0.62  2.62258745842
0.26  -0.6  3.25587707868
0.26  -0.58  4.04209038575
0.26  -0.56  5.0181546452
0.26  -0.54  6.22991413846
0.26  -0.52  7.73428340032
0.26  -0.5  9.60192040965
0.26  -0.48  11.9205452892
0.26  -0.46  14.799060389
0.26  -0.44  18.3726652668
0.26  -0.42  22.80920681
0.26  -0.4  28.317062753
0.26  -0.38  35.1549288688
0.26  -0.36  43.6439695229
0.26  -0.34  54.1829022845
0.26  -0.32  67.2667250955
0.26  -0.3  83.5099655849
0.26  -0.28  103.675544515
0.26  -0.26  128.710609029
0.26  -0.24  159.791018741
0.26  -0.22  198.376574108
0.26  -0.2  90.8004773351
0.26  -0.18  85.5415279601
0.26  -0.16  80.0961061624
0.26  -0.14  74.5681634955
0.26  -0.12  69.0860875494
0.26  -0.1  63.8095733263
0.26  -0.08  58.9365275501
0.26  -0.06  54.7061190105
0.26  -0.04  51.3897068247
0.26  -0.02  49.2581160569
0.26  6.17561557e-16  48.5208577117
0.26  0.02  49.2581160569
0.26  0.04  51.3897068247
0.26  0.06  54.7061190105
0.26  0.08  58.9365275501
0.26  0.1  63.8095733263
0.26  0.12  69.0860875494
0.26  0.14  74.5681634955
0.26  0.16  80.0961061624
0.26  0.18  85.5415279601
0.26  0.2  246.279581072
0.26  0.22  198.376574108
0.26  0.24  159.791018741
0.26  0.26  128.710609029
0.26  0.28  103.675544515
0.26  0.3  83.5099655849
0.26  0.32  67.2667250955
0.26  0.34  54.1829022845
0.26  0.36  43.6439695229
0.26  0.38  35.1549288688
0.26  0.4  28.317062753
0.26  0.42  22.80920681
0.26  0.44  18.3726652668
0.26  0.46  14.799060389
0.26  0.48  11.9205452892
0.26  0.5  9.60192040965
0.26  0.52  7.73428340032
0.26  0.54  6.22991413846
0.26  0.56  5.0181546452
0.26  0.58  4.04209038575
0.26  0.6  3.25587707868
0.26  0.62  2.62258745842
0.26  0.64  2.11247685673
0.26  0.66  1.70158614002
0.26  0.68  1.37061638458
0.26  0.7  1.10402243502
0.26  0.72  0.889282771408
0.26  0.74  0.716311392269
0.26  0.76  0.576984090091
0.26  0.78  0.464756869444
0.26  0.8  0.37435858528
0.26  0.82  0.301543365115
0.26  0.84  0.242891186741
0.26  0.86  0.195647244879
0.26  0.88  0.157592562094
0.26  0.9  0.126939766736
0.26  0.92  0.102249142757
0.26  0.94  0.0823610084008
0.26  0.96  0.0663412476808
0.26  0.98  0.0534374363464
0.28  -1  0.0459653339823
0.28  -0.98  0.0570648185044
0.28  -0.96  0.0708445523794
0.28  -0.94  0.0879517491402
0.28  -0.92  0.109189908285
0.28  -0.9  0.135556554451
0.28  -0.88  0.168290089653
0.28  -0.86  0.208927959184
0.28  -0.84  0.259378863122
0.28  -0.82  0.322012405123
0.28  -0.8  0.399770389172
0.28  -0.78  0.496304991721
0.28  -0.76  0.616150298969
0.28  -0.74  0.764935266121
0.28  -0.72  0.949648101015
0.28  -0.7  1.17896448981
0.28  -0.68  1.46365508103
0.28  -0.66  1.81709136681
0.28  -0.64  2.25587372199
0.28  -0.62  2.80061109887
0.28  -0.6  3.476888999
0.28  -0.58  4.31647118597
0.28  -0.56  5.35879158197
0.28  -0.54  6.65280642029
0.28  -0.52  8.2592936465
0.28  -0.5  10.2537075678
0.28  -0.48  12.7297228294
0.28  -0.46  15.8036341725
0.28  -0.44  19.6198186248
0.28  -0.42  24.3575166743
0.28  -0.4  30.2392509271
0.28  -0.38  37.5412776622
0.28  -0.36  46.6065621766
0.28  -0.34  57.8608873537
0.28  -0.32  71.8328520492
0.28  -0.3  89.178698591
0.28  -0.28  110.713135502
0.28  -0.26  137.447603141
0.28  -0.24  170.637779552
0.28  -0.22  211.842557783
0.28  -0.2  91.0875738609
0.28  -0.18  86.1463553921
0.28  -0.16  81.052054922
0.28  -0.14  75.9081843837
0.28  -0.12  70.8404285576
0.28  -0.1  66.0013189479
0.28  -0.08  61.5737161153
0.28  -0.06  57.7696186371
0.28  -0.04  54.8184042195
0.28  -0.02  52.9382640984
0.28  6.17561557e-16  52.2913399057
0.28  0.02  52.9382640984
0.28  0.04  54.8184042195
0.28  0.06  57.7696186371
0.28  0.08  61.5737161153
0.28  0.1  66.0013189479
0.28  0.12  70.8404285576
0.28  0.14  75.9081843837
0.28  0.16  81.052054922
0.28  0.18  86.1463553921
0.28  0.2  262.997264766
0.28  0.22  211.842557783
0.28  0.24  170.637779552
0.28  0.26  137.447603141
0.28  0.28  110.713135502
0.28  0.3  89.178698591
0.28  0.32  71.8328520492
0.28  0.34  57.8608873537
0.28  0.36  46.6065621766
0.28  0.38  37.5412776622
0.28  0.4  30.2392509271
0.28  0.42  24.3575166743
0.28  0.44  19.6198186248
0.28  0.46  15.8036341725
0.28  0.48  12.7297228294
0.28  0.5  10.2537075678
0.28  0.52  8.2592936465
0.28  0.54  6.65280642029
0.28  0.56  5.35879158197
0.28  0.58  4.31647118597
0.28  0.6  3.476888999
0.28  0.62  2.80061109887
0.28  0.64  2.25587372199
0.28  0.66  1.81709136681
0.28  0.68  1.46365508103
0.28  0.7  1.17896448981
0.28  0.72  0.949648101015
0.28  0.74  0.764935266121
0.28  0.76  0.616150298969
0.28  0.78  0.496304991721
0.28  0.8  0.399770389172
0.28  0.82  0.322012405123
0.28  0.84  0.259378863122
0.28  0.86  0.208927959184
0.28  0.88  0.168290089653
0.28  0.9  0.135556554451
0.28  0.92  0.109189908285
0.28  0.94  0.0879517491402
0.28  0.96  0.0708445523794
0.28  0.98  0.0570648185044
0.3  -1  0.0505109763953
0.3  -0.98  0.0627081204629
0.3  -0.96  0.0778505713533
0.3  -0.94  0.096649547384
0.3  -0.92  0.119988008401
0.3  -0.9  0.148962127083
0.3  -0.88  0.18493277454
0.3  -0.86  0.229589438396
0.3  -0.84  0.285029575498
0.3  -0.82  0.353857126338
0.3  -0.8  0.439304818252
0.3  -0.78  0.545386001793
0.3  -0.76  0.677083151819
0.3  -0.74  0.840581886903
0.3  -0.72  1.0435614986
0.3  -0.7  1.29555563631
0.3  -0.68  1.60840008858
0.3  -0.66  1.99678869238
0.3  -0.64  2.47896348074
0.3  -0.62  3.07757148381
0.3  -0.6  3.82072842602
0.3  -0.58  4.74333927976
0.3  -0.56  5.88873769978
0.3  -0.54  7.31072134029
0.3  -0.52  9.0760786505
0.3  -0.5  11.2677258284
0.3  -0.48  13.9886012707
0.3  -0.46  17.366500436
0.3  -0.44  21.5600782063
0.3  -0.42  26.7663006704
0.3  -0.4  33.2296963268
0.3  -0.38  41.2538412225
0.3  -0.36  51.2156174668
0.3  -0.34  63.5829148214
0.3  -0.32  78.9366067842
0.3  -0.3  97.9978333504
0.3  -0.28  121.661871882
0.3  -0.26  151.040186949
0.3  -0.24  187.512634161
0.3  -0.22  232.792269927
0.3  -0.2  134.621257701
0.3  -0.18  125.428112743
0.3  -0.16  115.788756813
0.3  -0.14  105.844226343
0.3  -0.12  95.7749845677
0.3  -0.1  85.8205184095
0.3  -0.08  76.3098980111
0.3  -0.06  67.7042487157
0.3  -0.04  60.6367362787
0.3  -0.02  55.8905391401
0.3  6.17561557e-16  54.2025475705
0.3  0.02  55.8905391401
0.3  0.04  60.6367362787
0.3  0.06  67.7042487157
0.3  0.08  76.3098980111
0.3  0.1  85.8205184095
0.3  0.12  95.7749845677
0.3  0.14  105.844226343
0.3  0.16  115.788756813
0.3  0.18  125.428112743
0.3  0.2  289.005811156
0.3  0.22  232.792269927
0.3  0.24  187.512634161
0.3  0.26  151.040186949
0.3  0.28  121.661871882
0.3  0.3  97.9978333504
0.3  0.32  78.9366067842
0.3  0.34  63.5829148214
0.3  0.36  51.2156174668
0.3  0.38  41.2538412225
0.3  0.4  33.2296963268
0.3  0.42  26.7663006704
0.3  0.44  21.5600782063
0.3  0.46  17.366500436
0.3  0.48  13.9886012707
0.3  0.5  11.2677258284
0.3  0.52  9.0760786505
0.3  0.54  7.31072134029
0.3  0.56  5.88873769978
0.3  0.58  4.74333927976
0.3  0.6  3.82072842602
0.3  0.62  3.0775714838
0.3  0.64  2.47896348074
0.3  0.66  1.99678869238
0.3  0.68  1.60840008858
0.3  0.7  1.29555563631
0.3  0.72  1.0435614986
0.3  0.74  0.840581886903
0.3  0.76  0.677083151819
0.3  0.78  0.545386001793
0.3  0.8  0.439304818252
0.3  0.82  0.353857126338
0.3  0.84  0.285029575498
0.3  0.86  0.229589438396
0.3  0.88  0.18493277454
0.3  0.9  0.148962127083
0.3  0.92  0.119988008401
0.3  0.94  0.096649547384
0.3  0.96  0.0778505713533
0.3  0.98  0.0627081204629
0.32  -1  0.0426790812704
0.32  -0.98  0.0529850175258
0.32  -0.96  0.0657795809714
0.32  -0.94  0.0816637131555
0.32  -0.92  0.101383468059
0.32  -0.9  0.125865053137
0.32  -0.88  0.1562583319
0.32  -0.86  0.193990831288
0.32  -0.84  0.240834790481
0.32  -0.82  0.298990400323
0.32  -0.8  0.371189143008
0.32  -0.78  0.460822085721
0.32  -0.76  0.572099153997
0.32  -0.74  0.710246865648
0.32  -0.72  0.881753812495
0.32  -0.7  1.09467541985
0.32  -0.68  1.35901229781
0.32  -0.66  1.687179955
0.32  -0.64  2.09459193647
0.32  -0.62  2.6003837749
0.32  -0.6  3.22831175803
0.32  -0.58  4.00786872599
0.32  -0.56  4.97566930605
0.32  -0.54  6.17716964696
0.32  -0.52  7.66880242643
0.32  -0.5  9.52062740975
0.32  -0.48  11.8196220525
0.32  -0.46  14.6737667015
0.32  -0.44  18.2171162712
0.32  -0.42  22.616096602
0.32  -0.4  28.0773212345
0.32  -0.38  34.8572957385
0.32  -0.36  43.2744653968
0.32  -0.34  53.7241721054
0.32  -0.32  66.6972229914
0.32  -0.3  82.8029428921
0.32  -0.28  102.797793433
0.32  -0.26  127.620902899
0.32  -0.24  158.438175694
0.32  -0.22  196.697053123
0.32  -0.2  113.747783317
0.32  -0.18  105.980066104
0.32  -0.16  97.8353244167
0.32  -0.14  89.4327265175
0.32  -0.12  80.9247542167
0.32  -0.1  72.5137611913
0.32  -0.08  64.4777941623
0.32  -0.06  57.2064794526
0.32  -0.04  51.2348083585
0.32  -0.02  47.2245248941
0.32  6.17561557e-16  45.7982620396
0.32  0.02  47.2245248941
0.32  0.04  51.2348083585
0.32  0.06  57.2064794526
0.32  0.08  64.4777941623
0.32  0.1  72.5137611913
0.32  0.12  80.9247542167
0.32  0.14  89.4327265175
0.32  0.16  97.8353244167
0.32  0.18  105.980066104
0.32  0.2  244.194497557
0.32  0.22  196.697053123
0.32  0.24  158.438175694
0.32  0.26  127.620902899
0.32  0.28  102.797793433
0.32  0.3  82.8029428921
0.32  0.32  66.6972229914
0.32  0.34  53.7241721054
0.32  0.36  43.2744653968
0.32  0.38  34.8572957385
0.32  0.4  28.0773212345
0.32  0.42  22.616096602
0.32  0.44  18.2171162712
0.32  0.46  14.6737667015
0.32  0.48  11.8196220525
0.32  0.5  9.52062740975
0.32  0.52  7.66880242643
0.32  0.54  6.17716964696
0.32  0.56  4.97566930605
0.32  0.58  4.00786872599
0.32  0.6  3.22831175803
0.32  0.62  2.6003837749
0.32  0.64  2.09459193647
0.32  0.66  1.687179955
0.32  0.68  1.35901229781
0.32  0.7  1.09467541985
0.32  0.72  0.881753812495
0.32  0.74  0.710246865648
0.32  0.76  0.572099153997
0.32  0.78  0.460822085721
0.32  0.8  0.371189143008
0.32  0.82  0.298990400323
0.32  0.84  0.240834790481
0.32  0.86  0.193990831288
0.32  0.88  0.1562583319
0.32  0.9  0.125865053137
0.32  0.92  0.101383468059
0.32  0.94  0.0816637131555
0.32  0.96  0.0657795809714
0.32  0.98  0.0529850175258
0.34  -1  0.03606154757
0.34  -0.98  0.0447695140834
0.34  -0.96  0.0555802378524
0.34  -0.94  0.0690014824368
0.34  -0.92  0.0856636236628
0.34  -0.9  0.106349257434
0.34  -0.88  0.132029957096
0.34  -0.86  0.16391190678
0.34  -0.84  0.203492554078
0.34  -0.82  0.252630942918
0.34  -0.8  0.31363503008
0.34  -0.78  0.389370086489
0.34  -0.76  0.483393274703
0.34  -0.74  0.600120723539
0.34  -0.72  0.745034947047
0.34  -0.7  0.924942350013
0.34  -0.68  1.14829291463
0.34  -0.66  1.42557708356
0.34  -0.64  1.76981848035
0.34  -0.62  2.19718560961
0.34  -0.6  2.72775126754
0.34  -0.58  3.38643533119
0.34  -0.56  4.2041752079
0.34  -0.54  5.21937891916
0.34  -0.52  6.47972906805
0.34  -0.5  8.04442241991
0.34  -0.48  9.9869502861
0.34  -0.46  12.3985503012
0.34  -0.44  15.3924917183
0.34  -0.42  19.1093954974
0.34  -0.4  23.7238390612
0.34  -0.38  29.4525559365
0.34  -0.36  36.5646154046
0.34  -0.34  45.3940602836
0.34  -0.32  56.355596421
0.34  -0.3  69.9640708084
0.34  -0.28  86.8586531765
0.34  -0.26  107.832856843
0.34  -0.24  133.871808849
0.34  -0.22  166.198519906
0.34  -0.2  96.1108106585
0.34  -0.18  89.5475038711
0.34  -0.16  82.6656315099
0.34  -0.14  75.5658844011
0.34  -0.12  68.3771015427
0.34  -0.1  61.270261
0.34  -0.08  54.4802974239
0.34  -0.06  48.3364242782
0.34  -0.04  43.2906806768
0.34  -0.02  39.9022050206
0.34  6.17561557e-16  38.697088972
0.34  0.02  39.9022050206
0.34  0.04  43.2906806768
0.34  0.06  48.3364242782
0.34  0.08  54.4802974239
0.34  0.1  61.270261
0.34  0.12  68.3771015427
0.34  0.14  75.5658844011
0.34  0.16  82.6656315099
0.34  0.18  89.5475038711
0.34  0.2  206.331327382
0.34  0.22  166.198519906
0.34  0.24  133.871808849
0.34  0.26  107.832856843
0.34  0.28  86.8586531765
0.34  0.3  69.9640708084
0.34  0.32  56.355596421
0.34  0.34  45.3940602836
0.34  0.36  36.5646154046
0.34  0.38  29.4525559365
0.34  0.4  23.7238390612
0.34  0.42  19.1093954974
0.34  0.44  15.3924917183
0.34  0.46  12.3985503012
0.34  0.48  9.9869502861
0.34  0.5  8.04442241991
0.34  0.52  6.47972906805
0.34  0.54  5.21937891916
0.34  0.56  4.2041752079
0.34  0.58  3.38643533119
0.34  0.6  2.72775126754
0.34  0.62  2.19718560961
0.34  0.64  1.76981848035
0.34  0.66  1.42557708356
0.34  0.68  1.14829291463
0.34  0.7  0.924942350013
0.34  0.72  0.745034947047
0.34  0.74  0.600120723539
0.34  0.76  0.483393274703
0.34  0.78  0.389370086489
0.34  0.8  0.31363503008
0.34  0.82  0.252630942918
0.34  0.84  0.203492554078
0.34  0.86  0.16391190678
0.34  0.88  0.132029957096
0.34  0.9  0.106349257434
0.34  0.92  0.0856636236628
0.34  0.94  0.0690014824368
0.34  0.96  0.0555802378524
0.34  0.98  0.0447695140834
0.36  -1  0.0304700845106
0.36  -0.98  0.0378278518129
0.36  -0.96  0.0469623368546
0.36  -0.94  0.0583025727646
0.36  -0.92  0.0723811934976
0.36  -0.9  0.0898594508562
0.36  -0.88  0.111558272501
0.36  -0.86  0.138496819699
0.36  -0.84  0.171940355804
0.36  -0.82  0.213459673791
0.36  -0.8  0.265004874055
0.36  -0.78  0.32899695772
0.36  -0.76  0.408441537443
0.36  -0.74  0.507070006558
0.36  -0.72  0.629514797051
0.36  -0.7  0.781526957976
0.36  -0.68  0.970246273646
0.36  -0.66  1.20453660864
0.36  -0.64  1.49540223031
0.36  -0.62  1.85650466277
0.36  -0.6  2.3048043483
0.36  -0.58  2.86135725403
0.36  -0.56  3.55230383924
0.36  -0.54  4.41009683378
0.36  -0.52  5.47502549428
0.36  -0.5  6.79710793048
0.36  -0.48  8.43844038112
0.36  -0.46  10.4761137816
0.36  -0.44  13.0058346103
0.36  -0.42  16.1464200787
0.36  -0.4  20.0453787987
0.36  -0.38  24.8858390421
0.36  -0.36  30.8951500019
0.36  -0.34  38.3555600445
0.36  -0.32  47.6174734947
0.36  -0.3  59.1159086032
0.36  -0.28  73.390929705
0.36  -0.26  91.1130132352
0.36  -0.24  113.114539006
0.36  -0.22  140.428885844
0.36  -0.2  81.2085093536
0.36  -0.18  75.6628651438
0.36  -0.16  69.8480500133
0.36  -0.14  63.8491423406
0.36  -0.12  57.7750042078
0.36  -0.1  51.7701029617
0.36  -0.08  46.0329458531
0.36  -0.06  40.8417007018
0.36  -0.04  36.5783164514
0.36  -0.02  33.7152352315
0.36  6.17561557e-16  32.6969764401
0.36  0.02  33.7152352315
0.36  0.04  36.5783164514
0.36  0.06  40.8417007018
0.36  0.08  46.0329458531
0.36  0.1  51.7701029617
0.36  0.12  57.7750042078
0.36  0.14  63.8491423406
0.36  0.16  69.8480500133
0.36  0.18  75.6628651438
0.36  0.2  174.338967852
0.36  0.22  140.428885844
0.36  0.24  113.114539006
0.36  0.26  91.1130132352
0.36  0.28  73.390929705
0.36  0.3  59.1159086032
0.36  0.32  47.6174734947
0.36  0.34  38.3555600445
0.36  0.36  30.8951500019
0.36  0.38  24.8858390421
0.36  0.4  20.0453787987
0.36  0.42  16.1464200787
0.36  0.44  13.0058346103
0.36  0.46  10.4761137816
0.36  0.48  8.43844038112
0.36  0.5  6.79710793048
0.36  0.52  5.47502549428
0.36  0.54  4.41009683378
0.36  0.56  3.55230383924
0.36  0.58  2.86135725403
0.36  0.6  2.3048043483
0.36  0.62  1.85650466277
0.36  0.64  1.49540223031
0.36  0.66  1.20453660864
0.36  0.68  0.970246273646
0.36  0.7  0.781526957976
0.36  0.72  0.629514797051
0.36  0.74  0.507070006558
0.36  0.76  0.408441537443
0.36  0.78  0.32899695772
0.36  0.8  0.265004874055
0.36  0.82  0.213459673791
0.36  0.84  0.171940355804
0.36  0.86  0.138496819699
0.36  0.88  0.111558272501
0.36  0.9  0.0898594508562
0.36  0.92  0.0723811934976
0.36  0.94  0.0583025727646
0.36  0.96  0.0469623368546
0.36  0.98  0.0378278518129
0.38  -1  0.0257455964218
0.38  -0.98  0.0319625173976
0.38  -0.96  0.0396806701098
0.38  -0.94  0.0492625646715
0.38  -0.92  0.0611582483688
0.38  -0.9  0.0759264437099
0.38  -0.88  0.0942607907876
0.38  -0.86  0.117022426519
0.38  -0.84  0.145280430962
0.38  -0.82  0.180362040408
0.38  -0.8  0.223914985692
0.38  -0.78  0.277984883649
0.38  -0.76  0.345111316683
0.38  -0.74  0.428447113164
0.38  -0.72  0.531906431069
0.38  -0.7  0.660348600143
0.38  -0.68  0.819806357359
0.38  -0.66  1.01776919557
0.38  -0.64  1.26353513383
0.38  -0.62  1.56864743142
0.38  -0.6  1.94743675758
0.38  -0.58  2.41769428159
0.38  -0.56  3.00150729746
0.38  -0.54  3.72629663117
0.38  -0.52  4.62610455596
0.38  -0.5  5.74319370702
0.38  -0.48  7.13003209447
0.38  -0.46  8.85175744743
0.38  -0.44  10.989236636
0.38  -0.42  13.6428638673
0.38  -0.4  16.9372760517
0.38  -0.38  21.0272068124
0.38  -0.36  26.1047540929
0.38  -0.34  32.4084027103
0.38  -0.32  40.2342256318
0.38  -0.3  49.9497900793
0.38  -0.28  62.0114216142
0.38  -0.26  76.9856370667
0.38  -0.24  95.5757529871
0.38  -0.22  118.654919373
0.38  -0.2  68.6168595005
0.38  -0.18  63.9310858961
0.38  -0.16  59.0178772187
0.38  -0.14  53.949120161
0.38  -0.12  48.8167973766
0.38  -0.1  43.7429760689
0.38  -0.08  38.8953842786
0.38  -0.06  34.5090589782
0.38  -0.04  30.9067266558
0.38  -0.02  28.4875757149
0.38  6.17561557e-16  27.6272013406
0.38  0.02  28.4875757149
0.38  0.04  30.9067266558
0.38  0.06  34.5090589782
0.38  0.08  38.8953842786
0.38  0.1  43.7429760689
0.38  0.12  48.8167973766
0.38  0.14  53.949120161
0.38  0.16  59.0178772187
0.38  0.18  63.9310858961
0.38  0.2  147.307130223
0.38  0.22  118.654919373
0.38  0.24  95.5757529871
0.38  0.26  76.9856370667
0.38  0.28  62.0114216142
0.38  0.3  49.9497900793
0.38  0.32  40.2342256318
0.38  0.34  32.4084027103
0.38  0.36  26.1047540929
0.38  0.38  21.0272068124
0.38  0.4  16.9372760517
0.38  0.42  13.6428638673
0.38  0.44  10.989236636
0.38  0.46  8.85175744743
0.38  0.48  7.13003209447
0.38  0.5  5.74319370702
0.38  0.52  4.62610455596
0.38  0.54  3.72629663117
0.38  0.56  3.00150729746
0.38  0.58  2.41769428159
0.38  0.6  1.94743675758
0.38  0.62  1.56864743142
0.38  0.64  1.26353513383
0.38  0.66  1.01776919557
0.38  0.68  0.819806357359
0.38  0.7  0.660348600143
0.38  0.72  0.531906431069
0.38  0.74  0.428447113164
0.38  0.76  0.345111316683
0.38  0.78  0.277984883649
0.38  0.8  0.223914985692
0.38  0.82  0.180362040408
0.38  0.84  0.145280430962
0.38  0.86  0.117022426519
0.38  0.88  0.0942607907876
0.38  0.9  0.0759264437099
0.38  0.92  0.0611582483688
0.38  0.94  0.0492625646715
0.38  0.96  0.0396806701098
0.38  0.98  0.0319625173976
0.4  -1  0.0217536559468
0.4  -0.98  0.0270066226189
0.4  -0.96  0.0335280500466
0.4  -0.94  0.0416242399424
0.4  -0.92  0.051675458262
0.4  -0.9  0.0641537957276
0.4  -0.88  0.0796453412255
0.4  -0.86  0.0988777095258
0.4  -0.84  0.122754216262
0.4  -0.82  0.152396305319
0.4  -0.8  0.189196221377
0.4  -0.78  0.234882401567
0.4  -0.76  0.291600657583
0.4  -0.74  0.362014961257
0.4  -0.72  0.449432567334
0.4  -0.7  0.557959350295
0.4  -0.68  0.692692651155
0.4  -0.66  0.859960691959
0.4  -0.64  1.06761980292
0.4  -0.62  1.32542342255
0.4  -0.6  1.64548020207
0.4  -0.58  2.04282273071
0.4  -0.56  2.53611359399
0.4  -0.54  3.14852192749
0.4  -0.52  3.90881163658
0.4  -0.5  4.85269239413
0.4  -0.48  6.02449687052
0.4  -0.46  7.47926297303
0.4  -0.44  9.28531889417
0.4  -0.42  11.5274923849
0.4  -0.4  14.3110949876
0.4  -0.38  17.7668683617
0.4  -0.36  22.0571250248
0.4  -0.34  27.3833719288
0.4  -0.32  33.9957749411
0.4  -0.3  42.2049087619
0.4  -0.28  52.396344154
0.4  -0.26  65.0487576267
0.4  -0.24  80.7564141563
0.4  -0.22  100.257078925
0.4  -0.2  57.9775868957
0.4  -0.18  54.0183580953
0.4  -0.16  49.8669587876
0.4  -0.14  45.5841293939
0.4  -0.12  41.2475903513
0.4  -0.1  36.9604819365
0.4  -0.08  32.8645253989
0.4  -0.06  29.1583144458
0.4  -0.04  26.114535748
0.4  -0.02  24.070482218
0.4  6.17561557e-16  23.343511756
0.4  0.02  24.070482218
0.4  0.04  26.114535748
0.4  0.06  29.1583144458
0.4  0.08  32.8645253989
0.4  0.1  36.9604819365
0.4  0.12  41.2475903513
0.4  0.14  45.5841293939
0.4  0.16  49.8669587876
0.4  0.18  54.0183580953
0.4  0.2  124.466669052
0.4  0.22  100.257078925
0.4  0.24  80.7564141563
0.4  0.26  65.0487576267
0.4  0.28  52.396344154
0.4  0.3  42.2049087619
0.4  0.32  33.9957749411
0.4  0.34  27.3833719288
0.4  0.36  22.0571250248
0.4  0.38  17.7668683617
0.4  0.4  14.3110949876
0.4  0.42  11.5274923849
0.4  0.44  9.28531889417
0.4  0.46  7.47926297303
0.4  0.48  6.02449687052
0.4  0.5  4.85269239413
0.4  0.52  3.90881163658
0.4  0.54  3.14852192749
0.4  0.56  2.53611359399
0.4  0.58  2.04282273071
0.4  0.6  1.64548020207
0.4  0.62  1.32542342255
0.4  0.64  1.06761980292
0.4  0.66  0.859960691959
0.4  0.68  0.692692651155
0.4  0.7  0.557959350295
0.4  0.72  0.449432567334
0.4  0.74  0.362014961257
0.4  0.76  0.291600657583
0.4  0.78  0.234882401567
0.4  0.8  0.189196221377
0.4  0.82  0.152396305319
0.4  0.84  0.122754216262
0.4  0.86  0.0988777095258
0.4  0.88  0.0796453412255
0.4  0.9  0.0641537957276
0.4  0.92  0.051675458262
0.4  0.94  0.0416242399424
0.4  0.96  0.0335280500466
0.4  0.98  0.0270066226189
0.42  -1  0.0183806791383
0.42  -0.98  0.022819155832
0.42  -0.96  0.0283294142164
0.42  -0.94  0.0351702629032
0.42  -0.92  0.0436630063452
0.42  -0.9  0.0542065360257
0.42  -0.88  0.0672960657971
0.42  -0.86  0.0835463913359
0.42  -0.84  0.103720766178
0.42  -0.82  0.128766750599
0.42  -0.8  0.159860717104
0.42  -0.78  0.198463102891
0.42  -0.76  0.246387004403
0.42  -0.74  0.305883335766
0.42  -0.72  0.379746550862
0.42  -0.7  0.47144589466
0.42  -0.68  0.585288348471
0.42  -0.66  0.726620922435
0.42  -0.64  0.902081796604
0.42  -0.62  1.11991210635
0.42  -0.6  1.39034301621
0.42  -0.58  1.72607626237
0.42  -0.56  2.14288073431
0.42  -0.54  2.66033311598
0.42  -0.52  3.30273737341
0.42  -0.5  4.10026627576
0.42  -0.48  5.09037856521
0.42  -0.46  6.31957833819
0.42  -0.44  7.8455992734
0.42  -0.42  9.7401162965
0.42  -0.4  12.0921120444
0.42  -0.38  15.0120562469
0.42  -0.36  18.6370943249
0.42  -0.34  23.1374889066
0.42  -0.32  28.7246168082
0.42  -0.3  35.6608970882
0.42  -0.28  44.2721164786
0.42  -0.26  54.9627311015
0.42  -0.24  68.2348631693
0.42  -0.22  84.7118849159
0.42  -0.2  48.987968944
0.42  -0.18  45.6426317559
0.42  -0.16  42.1349207378
0.42  -0.14  38.5161583063
0.42  -0.12  34.8520140857
0.42  -0.1  31.2296361096
0.42  -0.08  27.7687712753
0.42  -0.06  24.6372206746
0.42  -0.04  22.0653900017
0.42  -0.02  20.3382737795
0.42  6.17561557e-16  19.7240225089
0.42  0.02  20.3382737795
0.42  0.04  22.0653900017
0.42  0.06  24.6372206746
0.42  0.08  27.7687712753
0.42  0.1  31.2296361096
0.42  0.12  34.8520140857
0.42  0.14  38.5161583063
0.42  0.16  42.1349207378
0.42  0.18  45.6426317559
0.42  0.2  105.16769746
0.42  0.22  84.7118849159
0.42  0.24  68.2348631693
0.42  0.26  54.9627311015
0.42  0.28  44.2721164786
0.42  0.3  35.6608970882
0.42  0.32  28.7246168082
0.42  0.34  23.1374889066
0.42  0.36  18.6370943249
0.42  0.38  15.0120562469
0.42  0.4  12.0921120444
0.42  0.42  9.7401162965
0.42  0.44  7.8455992734
0.42  0.46  6.31957833819
0.42  0.48  5.09037856521
0.42  0.5  4.10026627576
0.42  0.52  3.30273737341
0.42  0.54  2.66033311598
0.42  0.56  2.14288073431
0.42  0.58  1.72607626237
0.42  0.6  1.39034301621
0.42  0.62  1.11991210635
0.42  0.64  0.902081796604
0.42  0.66  0.726620922435
0.42  0.68  0.585288348471
0.42  0.7  0.47144589466
0.42  0.72  0.379746550862
0.42  0.74  0.305883335766
0.42  0.76  0.246387004403
0.42  0.78  0.198463102891
0.42  0.8  0.159860717104
0.42  0.82  0.128766750599
0.42  0.84  0.103720766178
0.42  0.86  0.0835463913359
0.42  0.88  0.0672960657971
0.42  0.9  0.0542065360257
0.42  0.92  0.0436630063452
0.42  0.94  0.0351702629032
0.42  0.96  0.0283294142164
0.42  0.98  0.022819155832
0.44  -1  0.0155306936181
0.44  -0.98  0.0192809697174
0.44  -0.96  0.0239368441865
0.44  -0.94  0.0297169965
0.44  -0.92  0.0368929117848
0.44  -0.9  0.0458016320714
0.44  -0.88  0.0568615866551
0.44  -0.86  0.0705922450948
0.44  -0.84  0.0876385159239
0.44  -0.82  0.108801037041
0.44  -0.8  0.135073780476
0.44  -0.78  0.167690737775
0.44  -0.76  0.208183878739
0.44  -0.74  0.258455105763
0.44  -0.72  0.320865583345
0.44  -0.7  0.398346638468
0.44  -0.68  0.494537440645
0.44  -0.66  0.613955928286
0.44  -0.64  0.762211009515
0.44  -0.62  0.946266004219
0.44  -0.6  1.17476570079
0.44  -0.58  1.45844238892
0.44  -0.56  1.81061993926
0.44  -0.54  2.24783960569
0.44  -0.52  2.79063694338
0.44  -0.5  3.46450633312
0.44  -0.48  4.30109841436
0.44  -0.46  5.3397066685
0.44  -0.44  6.62911297505
0.44  -0.42  8.22987882373
0.44  -0.4  10.2171897972
0.44  -0.38  12.6843869258
0.44  -0.36  15.7473507761
0.44  -0.34  19.5499441885
0.44  -0.32  24.2707693002
0.44  -0.3  30.1315562204
0.44  -0.28  37.4075773633
0.44  -0.26  46.4405765821
0.44  -0.24  57.6548203679
0.44  -0.22  71.5770250134
0.44  -0.2  41.392221197
0.44  -0.18  38.5655896822
0.44  -0.16  35.6017609404
0.44  -0.14  32.5440996767
0.44  -0.12  29.4480932215
0.44  -0.1  26.3873770155
0.44  -0.08  23.4631308008
0.44  -0.06  20.8171375508
0.44  -0.04  18.6440777897
0.44  -0.02  17.1847566902
0.44  6.17561557e-16  16.665747125
0.44  0.02  17.1847566902
0.44  0.04  18.6440777897
0.44  0.06  20.8171375508
0.44  0.08  23.4631308008
0.44  0.1  26.3873770155
0.44  0.12  29.4480932215
0.44  0.14  32.5440996767
0.44  0.16  35.6017609404
0.44  0.18  38.5655896822
0.44  0.2  88.8610956911
0.44  0.22  71.5770250134
0.44  0.24  57.6548203679
0.44  0.26  46.4405765821
0.44  0.28  37.4075773633
0.44  0.3  30.1315562204
0.44  0.32  24.2707693002
0.44  0.34  19.5499441885
0.44  0.36  15.7473507761
0.44  0.38  12.6843869258
0.44  0.4  10.2171897972
0.44  0.42  8.22987882373
0.44  0.44  6.62911297505
0.44  0.46  5.3397066685
0.44  0.48  4.30109841436
0.44  0.5  3.46450633312
0.44  0.52  2.79063694338
0.44  0.54  2.24783960569
0.44  0.56  1.81061993926
0.44  0.58  1.45844238892
0.44  0.6  1.17476570079
0.44  0.62  0.946266004219
0.44  0.64  0.762211009515
0.44  0.66  0.613955928286
0.44  0.68  0.494537440645
0.44  0.7  0.398346638468
0.44  0.72  0.320865583345
0.44  0.74  0.258455105763
0.44  0.76  0.208183878739
0.44  0.78  0.167690737775
0.44  0.8  0.135073780476
0.44  0.82  0.108801037041
0.44  0.84  0.0876385159239
0.44  0.86  0.0705922450948
0.44  0.88  0.0568615866551
0.44  0.9  0.0458016320714
0.44  0.92  0.0368929117848
0.44  0.94  0.0297169965
0.44  0.96  0.0239368441865
0.44  0.98  0.0192809697174
0.46  -1  0.0131226078452
0.46  -0.98  0.0162913911444
0.46  -0.96  0.0202253567699
0.46  -0.94  0.0251092772155
0.46  -0.92  0.0311725429349
0.46  -0.9  0.0386999364692
0.46  -0.88  0.0480450082577
0.46  -0.86  0.0596466823742
0.46  -0.84  0.074049872136
0.46  -0.82  0.0919310738684
0.46  -0.8  0.114130140928
0.46  -0.78  0.141689730362
0.46  -0.76  0.175904274951
0.46  -0.74  0.218380780788
0.46  -0.72  0.271114305954
0.46  -0.7  0.336581665417
0.46  -0.68  0.417857763338
0.46  -0.66  0.518760016728
0.46  -0.64  0.644027653825
0.46  -0.62  0.799544308576
0.46  -0.6  0.992614366138
0.46  -0.58  1.23230603895
0.46  -0.56  1.52987728712
0.46  -0.54  1.89930458804
0.46  -0.52  2.35793939065
0.46  -0.5  2.92732308708
0.46  -0.48  3.63419877972
0.46  -0.46  4.51176736481
0.46  -0.44  5.60124692896
0.46  -0.42  6.9538087012
0.46  -0.4  8.63298048919
0.46  -0.38  10.7176304856
0.46  -0.36  13.3056715892
0.46  -0.34  16.5186602279
0.46  -0.32  20.5075056826
0.46  -0.3  25.4595580705
0.46  -0.28  31.6074079013
0.46  -0.26  39.2398105054
0.46  -0.24  48.7152484414
0.46  -0.22  60.4787688864
0.46  -0.2  34.9742194371
0.46  -0.18  32.5858665531
0.46  -0.16  30.0815893293
0.46  -0.14  27.4980286286
0.46  -0.12  24.882068286
0.46  -0.1  22.2959263219
0.46  -0.08  19.8250942225
0.46  -0.06  17.5893710388
0.46  -0.04  15.7532514313
0.46  -0.02  14.5202029288
0.46  6.17561557e-16  14.0816675253
0.46  0.02  14.5202029288
0.46  0.04  15.7532514313
0.46  0.06  17.5893710388
0.46  0.08  19.8250942225
0.46  0.1  22.2959263219
0.46  0.12  24.882068286
0.46  0.14  27.4980286286
0.46  0.16  30.0815893293
0.46  0.18  32.5858665531
0.46  0.2  75.0828868382
0.46  0.22  60.4787688864
0.46  0.24  48.7152484414
0.46  0.26  39.2398105054
0.46  0.28  31.6074079013
0.46  0.3  25.4595580705
0.46  0.32  20.5075056826
0.46  0.34  16.5186602279
0.46  0.36  13.3056715892
0.46  0.38  10.7176304856
0.46  0.4  8.63298048919
0.46  0.42  6.9538087012
0.46  0.44  5.60124692896
0.46  0.46  4.51176736481
0.46  0.48  3.63419877972
0.46  0.5  2.92732308708
0.46  0.52  2.35793939065
0.46  0.54  1.89930458804
0.46  0.56  1.52987728712
0.46  0.58  1.23230603895
0.46  0.6  0.992614366138
0.46  0.62  0.799544308576
0.46  0.64  0.644027653825
0.46  0.66  0.518760016728
0.46  0.68  0.417857763338
0.46  0.7  0.336581665417
0.46  0.72  0.271114305954
0.46  0.74  0.218380780788
0.46  0.76  0.175904274951
0.46  0.78  0.141689730362
0.46  0.8  0.114130140928
0.46  0.82  0.0919310738684
0.46  0.84  0.074049872136
0.46  0.86  0.0596466823742
0.46  0.88  0.0480450082577
0.46  0.9  0.0386999364692
0.46  0.92  0.0311725429349
0.46  0.94  0.0251092772155
0.46  0.96  0.0202253567699
0.46  0.98  0.0162913911444
0.48  -1  0.0110879037919
0.48  -0.98  0.0137653566864
0.48  -0.96  0.017089347839
0.48  -0.94  0.0212160001528
0.48  -0.92  0.0263391363277
0.48  -0.9  0.0326993824234
0.48  -0.88  0.0405954697058
0.48  -0.86  0.0503982656094
0.48  -0.84  0.0625681928265
0.48  -0.82  0.0776768546741
0.48  -0.8  0.0964338824489
0.48  -0.78  0.119720265749
0.48  -0.76  0.148629731243
0.48  -0.74  0.184520113375
0.48  -0.72  0.229077129827
0.48  -0.7  0.284393557155
0.48  -0.68  0.353067525391
0.48  -0.66  0.438324548322
0.48  -0.64  0.544169021064
0.48  -0.62  0.675572300523
0.48  -0.6  0.838706202609
0.48  -0.58  1.04123288322
0.48  -0.56  1.29266471825
0.48  -0.54  1.60481108573
0.48  -0.52  1.99233303464
0.48  -0.5  2.47343189252
0.48  -0.48  3.07070415465
0.48  -0.46  3.81220280774
0.48  -0.44  4.73275493679
0.48  -0.42  5.87559750132
0.48  -0.4  7.29440811083
0.48  -0.38  9.05582618201
0.48  -0.36  11.2425828926
0.48  -0.34  13.9573869416
0.48  -0.32  17.327748623
0.48  -0.3  21.5119687946
0.48  -0.28  26.7065740327
0.48  -0.26  33.1555471921
0.48  -0.24  41.1617869167
0.48  -0.22  51.1013343365
0.48  -0.2  29.5513502262
0.48  -0.18  27.5333194117
0.48  -0.16  25.4173387123
0.48  -0.14  23.2343677032
0.48  -0.12  21.0240207246
0.48  -0.1  18.8388686856
0.48  -0.08  16.7511473327
0.48  -0.06  14.862080475
0.48  -0.04  13.3106573282
0.48  -0.02  12.2687971029
0.48  6.17561557e-16  11.8982580743
0.48  0.02  12.2687971029
0.48  0.04  13.3106573282
0.48  0.06  14.862080475
0.48  0.08  16.7511473327
0.48  0.1  18.8388686856
0.48  0.12  21.0240207246
0.48  0.14  23.2343677032
0.48  0.16  25.4173387123
0.48  0.18  27.5333194117
0.48  0.2  63.4410351585
0.48  0.22  51.1013343365
0.48  0.24  41.1617869167
0.48  0.26  33.1555471921
0.48  0.28  26.7065740327
0.48  0.3  21.5119687946
0.48  0.32  17.327748623
0.48  0.34  13.9573869416
0.48  0.36  11.2425828926
0.48  0.38  9.05582618201
0.48  0.4  7.29440811083
0.48  0.42  5.87559750132
0.48  0.44  4.73275493679
0.48  0.46  3.81220280774
0.48  0.48  3.07070415465
0.48  0.5  2.47343189252
0.48  0.52  1.99233303464
0.48  0.54  1.60481108573
0.48  0.56  1.29266471825
0.48  0.58  1.04123288322
0.48  0.6  0.838706202609
