0.2  0.76  0.285534117507
0.2  0.78  0.227484161532
0.2  0.8  0.181235938457
0.2  0.82  0.14439012003
0.2  0.84  0.11503516874
0.2  0.86  0.091648168478
0.2  0.88  0.0730158166183
0.2  0.9  0.0581714786556
0.2  0.92  0.0463450398242
0.2  0.94  0.0369229520368
0.2  0.96  0.0294164034011
0.2  0.98  0.023435958972
0.22  -1  0.0227741421594
0.22  -0.98  0.0285857025811
0.22  -0.96  0.0358802709818
0.22  -0.94  0.0450362849075
0.22  -0.92  0.0565287525085
0.22  -0.9  0.0709538956584
0.22  -0.88  0.0890600815638
0.22  -0.86  0.111786647577
0.22  -0.84  0.140312633415
0.22  -0.82  0.176117948993
0.22  -0.8  0.221060151195
0.22  -0.78  0.277470812748
0.22  -0.76  0.348276482716
0.22  -0.74  0.437150514001
0.22  -0.72  0.54870363454
0.22  -0.7  0.688723148927
0.22  -0.68  0.864473180072
0.22  -0.66  1.08507152726
0.22  -0.64  1.36196269174
0.22  -0.62  1.70951161014
0.22  -0.6  2.14574889822
0.22  -0.58  2.69330626765
0.22  -0.56  3.38059064477
0.22  -0.54  4.24325790379
0.22  -0.52  5.32606267071
0.22  -0.5  6.68518016475
0.22  -0.48  8.3911205328
0.22  -0.46  10.5323868708
0.22  -0.44  13.2200667077
0.22  -0.42  16.5935951555
0.22  -0.4  20.827988714
0.22  -0.38  26.1429250144
0.22  -0.36  32.8141395549
0.22  -0.34  41.1877306818
0.22  -0.32  51.6981149508
0.22  -0.3  64.8905643797
0.22  -0.28  81.4494948127
0.22  -0.26  102.233972977
0.22  -0.24  128.322284315
0.22  -0.22  161.067873744
0.22  -0.2  91.4304826026
0.22  -0.18  84.4513109127
0.22  -0.16  77.2818437932
0.22  -0.14  69.999409156
0.22  -0.12  62.7049103556
0.22  -0.1  55.5366123827
0.22  -0.08  48.6933108481
0.22  -0.06  42.4707728051
0.22  -0.04  37.3068008733
0.22  -0.02  33.7917674949
0.22  6.17561557e-16  32.5287764101
0.22  0.02  33.7917674949
0.22  0.04  37.3068008733
0.22  0.06  42.4707728051
0.22  0.08  48.693310848
0.22  0.1  55.5366123827
0.22  0.12  62.7049103556
0.22  0.14  69.999409156
0.22  0.16  77.2818437932
0.22  0.18  84.4513109127
0.22  0.2  202.169561513
0.22  0.22  161.067873744
0.22  0.24  128.322284315
0.22  0.26  102.233972977
0.22  0.28  81.4494948127
0.22  0.3  64.8905643797
0.22  0.32  51.6981149508
0.22  0.34  41.1877306818
0.22  0.36  32.8141395549
0.22  0.38  26.1429250144
0.22  0.4  20.827988714
0.22  0.42  16.5935951555
0.22  0.44  13.2200667077
0.22  0.46  10.5323868708
0.22  0.48  8.3911205328
0.22  0.5  6.68518016475
0.22  0.52  5.32606267071
0.22  0.54  4.24325790379
0.22  0.56  3.38059064477
0.22  0.58  2.69330626765
0.22  0.6  2.14574889822
0.22  0.62  1.70951161014
0.22  0.64  1.36196269174
0.22  0.66  1.08507152726
0.22  0.68  0.864473180072
0.22  0.7  0.688723148927
0.22  0.72  0.54870363454
0.22  0.74  0.437150514001
0.22  0.76  0.348276482716
0.22  0.78  0.277470812748
0.22  0.8  0.221060151195
0.22  0.82  0.176117948993
0.22  0.84  0.140312633415
0.22  0.86  0.111786647577
0.22  0.88  0.0890600815638
0.22  0.9  0.0709538956584
0.22  0.92  0.0565287525085
0.22  0.94  0.0450362849075
0.22  0.96  0.0358802709818
0.22  0.98  0.0285857025811
0.24  -1  0.0264033294929
0.24  -0.98  0.0331409946751
0.24  -0.96  0.0415979934785
0.24  -0.94  0.0522130695955
0.24  -0.92  0.0655369263903
0.24  -0.9  0.0822607970372
0.24  -0.88  0.103252305256
0.24  -0.86  0.129600477077
0.24  -0.84  0.162672238811
0.24  -0.82  0.204183332321
0.24  -0.8  0.256287326605
0.24  -0.78  0.321687343583
0.24  -0.76  0.403776294334
0.24  -0.74  0.506812901155
0.24  -0.72  0.636142637351
0.24  -0.7  0.798475046972
0.24  -0.68  1.00223183167
0.24  -0.66  1.25798376321
0.24  -0.64  1.57899908832
0.24  -0.62  1.98193187689
0.24  -0.6  2.48768602444
0.24  -0.58  3.12249973291
0.24  -0.56  3.91930673172
0.24  -0.54  4.91944485868
0.24  -0.52  6.17480064058
0.24  -0.5  7.75050113298
0.24  -0.48  9.72829267031
0.24  -0.46  12.2107818134
0.24  -0.44  15.3267585122
0.24  -0.42  19.2378776463
0.24  -0.4  24.1470455765
0.24  -0.38  30.3089467973
0.24  -0.36  38.0432568054
0.24  -0.34  47.7512266607
0.24  -0.32  59.9364996341
0.24  -0.3  75.2312398993
0.24  -0.28  94.4289288051
0.24  -0.26  118.525530182
0.24  -0.24  148.771160307
0.24  -0.22  186.734943139
0.24  -0.2  91.8228033173
0.24  -0.18  85.2548517081
0.24  -0.16  78.5477631042
0.24  -0.14  71.7880126897
0.24  -0.12  65.087245911
0.24  -0.1  58.5941688347
0.24  -0.08  52.5115497441
0.24  -0.06  47.1167208031
0.24  -0.04  42.7744532152
0.24  -0.02  39.9107264841
0.24  6.17561557e-16  38.9037688381
0.24  0.02  39.9107264841
0.24  0.04  42.7744532152
0.24  0.06  47.1167208031
0.24  0.08  52.5115497441
0.24  0.1  58.5941688347
0.24  0.12  65.087245911
0.24  0.14  71.7880126897
0.24  0.16  78.5477631042
0.24  0.18  85.2548517081
0.24  0.2  234.386415466
0.24  0.22  186.734943139
0.24  0.24  148.771160307
0.24  0.26  118.525530182
0.24  0.28  94.4289288051
0.24  0.3  75.2312398993
0.24  0.32  59.9364996341
0.24  0.34  47.7512266607
0.24  0.36  38.0432568054
0.24  0.38  30.3089467973
0.24  0.4  24.1470455765
0.24  0.42  19.2378776463
0.24  0.44  15.3267585122
0.24  0.46  12.2107818134
0.24  0.48  9.72829267031
0.24  0.5  7.75050113298
0.24  0.52  6.17480064058
0.24  0.54  4.91944485868
0.24  0.56  3.91930673172
0.24  0.58  3.12249973291
0.24  0.6  2.48768602444
0.24  0.62  1.98193187689
0.24  0.64  1.57899908832
0.24  0.66  1.25798376321
0.24  0.68  1.00223183167
0.24  0.7  0.798475046972
0.24  0.72  0.636142637351
0.24  0.74  0.506812901155
0.24  0.76  0.403776294334
0.24  0.78  0.321687343583
0.24  0.8  0.256287326605
0.24  0.82  0.204183332321
0.24  0.84  0.162672238811
0.24  0.86  0.129600477077
0.24  0.88  0.103252305256
0.24  0.9  0.0822607970372
0.24  0.92  0.0655369263903
0.24  0.94  0.0522130695955
0.24  0.96  0.0415979934785
0.24  0.98  0.0331409946751
0.26  -1  0.0293022825269
0.26  -0.98  0.0367797095231
0.26  -0.96  0.0461652443411
0.26  -0.94  0.0579458025282
0.26  -0.92  0.0727325519135
0.26  -0.9  0.091292619604
0.26  -0.88  0.114588890048
0.26  -0.86  0.143829958867
0.26  -0.84  0.180532834021
0.26  -0.82  0.226601637213
0.26  -0.8  0.284426388508
0.26  -0.78  0.357006999042
0.26  -0.76  0.448108904501
0.26  -0.74  0.562458413509
0.26  -0.72  0.705987905506
0.26  -0.7  0.886143598797
0.26  -0.68  1.1122718556
0.26  -0.66  1.39610406535
0.26  -0.64  1.75236526166
0.26  -0.62  2.1995380477
0.26  -0.6  2.76082146178
0.26  -0.58  3.46533452868
0.26  -0.56  4.349626936
0.26  -0.54  5.45957520863
0.26  -0.52  6.8527627535
0.26  -0.5  8.60146724998
0.26  -0.48  10.7964103696
0.26  -0.46  13.5514643585
0.26  -0.44  17.0095596568
0.26  -0.42  21.350100038
0.26  -0.4  26.798269963
0.26  -0.38  33.6367170052
0.26  -0.36  42.2202154261
0.26  -0.34  52.9940716376
0.26  -0.32  66.5172264136
0.26  -0.3  83.4912523805
0.26  -0.28  104.796751156
0.26  -0.26  131.539038399
0.26  -0.24  165.105486879
0.26  -0.22  207.237502489
0.26  -0.2  92.1763459094
0.26  -0.18  85.9754437873
0.26  -0.16  79.6758672656
0.26  -0.14  73.3688197028
0.26  -0.12  67.1700670741
0.26  -0.1  61.2292863155
0.26  -0.08  55.7414497409
0.26  -0.06  50.9567517493
0.26  -0.04  47.1787799211
0.26  -0.02  44.731714935
0.26  6.17561557e-16  43.8810226217
0.26  0.02  44.731714935
0.26  0.04  47.1787799211
0.26  0.06  50.9567517493
0.26  0.08  55.7414497409
0.26  0.1  61.2292863155
0.26  0.12  67.1700670741
0.26  0.14  73.3688197028
0.26  0.16  79.6758672656
0.26  0.18  85.9754437873
0.26  0.2  260.120867268
0.26  0.22  207.237502489
0.26  0.24  165.105486879
0.26  0.26  131.539038399
0.26  0.28  104.796751156
0.26  0.3  83.4912523805
0.26  0.32  66.5172264136
0.26  0.34  52.9940716376
0.26  0.36  42.2202154261
0.26  0.38  33.6367170052
0.26  0.4  26.798269963
0.26  0.42  21.350100038
0.26  0.44  17.0095596568
0.26  0.46  13.5514643585
0.26  0.48  10.7964103696
0.26  0.5  8.60146724998
0.26  0.52  6.8527627535
0.26  0.54  5.45957520863
0.26  0.56  4.349626936
0.26  0.58  3.46533452868
0.26  0.6  2.76082146178
0.26  0.62  2.1995380477
0.26  0.64  1.75236526166
0.26  0.66  1.39610406535
0.26  0.68  1.1122718556
0.26  0.7  0.886143598797
0.26  0.72  0.705987905506
0.26  0.74  0.562458413509
0.26  0.76  0.448108904501
0.26  0.78  0.357006999042
0.26  0.8  0.284426388508
0.26  0.82  0.226601637213
0.26  0.84  0.180532834021
0.26  0.86  0.143829958867
0.26  0.88  0.114588890048
0.26  0.9  0.091292619604
0.26  0.92  0.0727325519135
0.26  0.94  0.0579458025282
0.26  0.96  0.0461652443411
0.26  0.98  0.0367797095231
0.28  -1  0.0313069647133
0.28  -0.98  0.0392959513359
0.28  -0.96  0.0493235867971
0.28  -0.94  0.0619100984154
0.28  -0.92  0.0777084663687
0.28  -0.9  0.0975382998886
0.28  -0.88  0.122428358064
0.28  -0.86  0.153669921203
0.28  -0.84  0.192883781634
0.28  -0.82  0.242104329371
0.28  -0.8  0.303885094971
0.28  -0.78  0.381431225065
0.28  -0.76  0.478765763318
0.28  -0.74  0.600938363361
0.28  -0.72  0.754287261595
0.28  -0.7  0.946768100847
0.28  -0.68  1.18836666403
0.28  -0.66  1.49161693018
0.28  -0.64  1.87225132927
0.28  -0.62  2.35001693065
0.28  -0.6  2.94969990834
0.28  -0.58  3.70241143193
0.28  -0.56  4.64720169415
0.28  -0.54  5.83308580993
0.28  -0.52  7.32158668922
0.28  -0.5  9.18992680624
0.28  -0.48  11.5350344521
0.28  -0.46  14.4785723125
0.28  -0.44  18.1732492503
0.28  -0.42  22.8107427434
0.28  -0.4  28.6316429903
0.28  -0.38  35.9379345751
0.28  -0.36  45.1086632354
0.28  -0.34  56.6196005124
0.28  -0.32  71.0679264746
0.28  -0.3  89.2032110382
0.28  -0.28  111.966301175
0.28  -0.26  140.538131451
0.28  -0.24  176.40099016
0.28  -0.22  221.415419489
0.28  -0.2  92.4414572281
0.28  -0.18  86.5136549849
0.28  -0.16  80.5142246378
0.28  -0.14  74.5361076091
0.28  -0.12  68.6955467076
0.28  -0.1  63.1394686561
0.28  -0.08  58.0532550314
0.28  -0.06  53.6651222466
0.28  -0.04  50.2386564325
0.28  -0.02  48.0411038833
0.28  6.17561557e-16  47.2817144703
0.28  0.02  48.0411038833
0.28  0.04  50.2386564325
0.28  0.06  53.6651222466
0.28  0.08  58.0532550314
0.28  0.1  63.1394686561
0.28  0.12  68.6955467076
0.28  0.14  74.5361076091
0.28  0.16  80.5142246378
0.28  0.18  86.5136549849
0.28  0.2  277.91673926
0.28  0.22  221.415419489
0.28  0.24  176.40099016
0.28  0.26  140.538131451
0.28  0.28  111.966301175
0.28  0.3  89.2032110382
0.28  0.32  71.0679264746
0.28  0.34  56.6196005124
0.28  0.36  45.1086632354
0.28  0.38  35.9379345751
0.28  0.4  28.6316429903
0.28  0.42  22.8107427434
0.28  0.44  18.1732492503
0.28  0.46  14.4785723125
0.28  0.48  11.5350344521
0.28  0.5  9.18992680624
0.28  0.52  7.32158668922
0.28  0.54  5.83308580993
0.28  0.56  4.64720169415
0.28  0.58  3.70241143193
0.28  0.6  2.94969990834
0.28  0.62  2.35001693065
0.28  0.64  1.87225132927
0.28  0.66  1.49161693018
0.28  0.68  1.18836666403
0.28  0.7  0.946768100847
0.28  0.72  0.754287261595
0.28  0.74  0.600938363361
0.28  0.76  0.478765763318
0.28  0.78  0.381431225065
0.28  0.8  0.303885094971
0.28  0.82  0.242104329371
0.28  0.84  0.192883781634
0.28  0.86  0.153669921203
0.28  0.88  0.122428358064
0.28  0.9  0.0975382998886
0.28  0.92  0.0777084663687
0.28  0.94  0.0619100984154
0.28  0.96  0.0493235867971
0.28  0.98  0.0392959513359
0.3  -1  0.0340892225896
0.3  -0.98  0.0427881924749
0.3  -0.96  0.0537069864371
0.3  -0.94  0.067412064528
0.3  -0.92  0.084614437439
0.3  -0.9  0.106206553282
0.3  -0.88  0.133308597225
0.3  -0.86  0.167326605986
0.3  -0.84  0.210025412117
0.3  -0.82  0.263620202386
0.3  -0.8  0.330891440259
0.3  -0.78  0.415329114558
0.3  -0.76  0.521313797855
0.3  -0.74  0.65434390778
0.3  -0.72  0.821320961406
0.3  -0.7  1.03090762155
0.3  -0.68  1.29397711018
0.3  -0.66  1.62417730422
0.3  -0.64  2.03863877868
0.3  -0.62  2.55886352995
0.3  -0.6  3.21184048562
0.3  -0.58  4.03144567278
0.3  -0.56  5.06019968468
0.3  -0.54  6.35147362192
0.3  -0.52  7.97225795102
0.3  -0.5  10.006637927
0.3  -0.48  12.5601558828
0.3  -0.46  15.7652866977
0.3  -0.44  19.7883105099
0.3  -0.42  24.8379392233
0.3  -0.4  31.1761443481
0.3  -0.38  39.1317479149
0.3  -0.36  49.1174815518
0.3  -0.34  61.6513987375
0.3  -0.32  77.3837510842
0.3  -0.3  97.1307229761
0.3  -0.28  121.916774693
0.3  -0.26  153.027790757
0.3  -0.24  192.077790794
0.3  -0.22  241.092663849
0.3  -0.2  133.60171885
0.3  -0.18  123.498869061
0.3  -0.16  113.129774908
0.3  -0.14  102.609755675
0.3  -0.12  92.0891894169
0.3  -0.1  81.7734088343
0.3  -0.08  71.9553610794
0.3  -0.06  63.0651125469
0.3  -0.04  55.7267312908
0.3  -0.02  50.7606435754
0.3  6.17561557e-16  48.9836639744
0.3  0.02  50.7606435754
0.3  0.04  55.7267312908
0.3  0.06  63.0651125469
0.3  0.08  71.9553610794
0.3  0.1  81.7734088343
0.3  0.12  92.0891894169
0.3  0.14  102.609755675
0.3  0.16  113.129774908
0.3  0.18  123.498869061
0.3  0.2  302.615270205
0.3  0.22  241.092663849
0.3  0.24  192.077790794
0.3  0.26  153.027790757
0.3  0.28  121.916774693
0.3  0.3  97.1307229761
0.3  0.32  77.3837510842
0.3  0.34  61.6513987375
0.3  0.36  49.1174815518
0.3  0.38  39.1317479149
0.3  0.4  31.1761443481
0.3  0.42  24.8379392233
0.3  0.44  19.7883105099
0.3  0.46  15.7652866977
0.3  0.48  12.5601558828
0.3  0.5  10.006637927
0.3  0.52  7.97225795102
0.3  0.54  6.35147362192
0.3  0.56  5.06019968468
0.3  0.58  4.03144567278
0.3  0.6  3.21184048562
0.3  0.62  2.55886352995
0.3  0.64  2.03863877868
0.3  0.66  1.62417730422
0.3  0.68  1.29397711018
0.3  0.7  1.03090762155
0.3  0.72  0.821320961406
0.3  0.74  0.65434390778
0.3  0.76  0.521313797855
0.3  0.78  0.415329114558
0.3  0.8  0.330891440259
0.3  0.82  0.263620202386
0.3  0.84  0.210025412117
0.3  0.86  0.167326605986
0.3  0.88  0.133308597225
0.3  0.9  0.106206553282
0.3  0.92  0.084614437439
0.3  0.94  0.0674120645279
0.3  0.96  0.0537069864371
0.3  0.98  0.0427881924749
0.32  -1  0.0285573573945
0.32  -0.98  0.0358446926022
0.32  -0.96  0.0449916275513
0.32  -0.94  0.0564726993807
0.32  -0.92  0.0708835387586
0.32  -0.9  0.0889717708209
0.32  -0.88  0.111675801486
0.32  -0.86  0.140173501352
0.32  -0.84  0.175943312875
0.32  -0.82  0.220840951012
0.32  -0.8  0.277195676534
0.32  -0.78  0.347931136581
0.32  -0.76  0.436717041608
0.32  -0.74  0.548159547618
0.32  -0.72  0.688040220595
0.32  -0.7  0.863615980444
0.32  -0.68  1.08399558536
0.32  -0.66  1.3606121884
0.32  -0.64  1.70781648211
0.32  -0.62  2.14362120334
0.32  -0.6  2.69063562247
0.32  -0.58  3.37723849793
0.32  -0.56  4.23905034805
0.32  -0.54  5.32078142076
0.32  -0.52  6.67855123273
0.32  -0.5  8.38280001394
0.32  -0.48  10.5219431019
0.32  -0.46  13.2069578727
0.32  -0.44  16.5771411765
0.32  -0.42  20.807335969
0.32  -0.4  26.1170020522
0.32  -0.38  32.7816015088
0.32  -0.36  41.1468894988
0.32  -0.34  51.6468518163
0.32  -0.32  64.8262197951
0.32  -0.3  81.3687306222
0.32  -0.28  102.132599186
0.32  -0.26  128.195041716
0.32  -0.24  160.908161072
0.32  -0.22  201.969092977
0.32  -0.2  111.921356484
0.32  -0.18  103.457957492
0.32  -0.16  94.7715192246
0.32  -0.14  85.9586474071
0.32  -0.12  77.1453173341
0.32  -0.1  68.5035411209
0.32  -0.08  60.2787276064
0.32  -0.06  52.8311536995
0.32  -0.04  46.6836161404
0.32  -0.02  42.5234056408
0.32  6.17561557e-16  41.0347873124
0.32  0.02  42.5234056408
0.32  0.04  46.6836161404
0.32  0.06  52.8311536995
0.32  0.08  60.2787276064
0.32  0.1  68.5035411209
0.32  0.12  77.1453173341
0.32  0.14  85.9586474071
0.32  0.16  94.7715192246
0.32  0.18  103.457957492
0.32  0.2  253.508052334
0.32  0.22  201.969092977
0.32  0.24  160.908161072
0.32  0.26  128.195041716
0.32  0.28  102.132599186
0.32  0.3  81.3687306222
0.32  0.32  64.8262197951
0.32  0.34  51.6468518163
0.32  0.36  41.1468894988
0.32  0.38  32.7816015088
0.32  0.4  26.1170020522
0.32  0.42  20.807335969
0.32  0.44  16.5771411765
0.32  0.46  13.2069578727
0.32  0.48  10.5219431019
0.32  0.5  8.38280001394
0.32  0.52  6.67855123273
0.32  0.54  5.32078142076
0.32  0.56  4.23905034805
0.32  0.58  3.37723849793
0.32  0.6  2.69063562247
0.32  0.62  2.14362120334
0.32  0.64  1.70781648211
0.32  0.66  1.3606121884
0.32  0.68  1.08399558536
0.32  0.7  0.863615980444
0.32  0.72  0.688040220595
0.32  0.74  0.548159547618
0.32  0.76  0.436717041608
0.32  0.78  0.347931136581
0.32  0.8  0.277195676534
0.32  0.82  0.220840951012
0.32  0.84  0.175943312875
0.32  0.86  0.140173501352
0.32  0.88  0.111675801486
0.32  0.9  0.0889717708209
0.32  0.92  0.0708835387586
0.32  0.94  0.0564726993807
0.32  0.96  0.0449916275513
0.32  0.98  0.0358446926022
0.34  -1  0.0239231815631
0.34  -0.98  0.030027956626
0.34  -0.96  0.0376905628859
0.34  -0.94  0.0473085314577
0.34  -0.92  0.0593808364035
0.34  -0.9  0.0745337811877
0.34  -0.88  0.0935534909006
0.34  -0.86  0.117426695925
0.34  -0.84  0.147391922879
0.34  -0.82  0.185003748584
0.34  -0.8  0.232213450518
0.34  -0.78  0.291470237841
0.34  -0.76  0.365848314806
0.34  -0.74  0.459206368505
0.34  -0.72  0.576387755094
0.34  -0.7  0.723471770009
0.34  -0.68  0.908089037934
0.34  -0.66  1.13981738473
0.34  -0.64  1.43067872891
0.34  -0.62  1.7957627711
0.34  -0.6  2.25400983807
0.34  -0.58  2.82919349476
0.34  -0.56  3.55115390162
0.34  -0.54  4.45734590313
0.34  -0.52  5.59478216111
0.34  -0.5  7.02247214161
0.34  -0.48  8.8144834883
0.34  -0.46  11.0637846044
0.34  -0.44  13.8870677943
0.34  -0.42  17.4308031851
0.34  -0.4  21.878837504
0.34  -0.38  27.4619319285
0.34  -0.36  34.4697338286
0.34  -0.34  43.2658034879
0.34  -0.32  54.3064753782
0.34  -0.3  68.1645325002
0.34  -0.28  85.5589219998
0.34  -0.26  107.392053687
0.34  -0.24  134.796616477
0.34  -0.22  169.194341573
0.34  -0.2  93.7591981981
0.34  -0.18  86.6692063635
0.34  -0.16  79.3923691924
0.34  -0.14  72.0096156109
0.34  -0.12  64.6264781378
0.34  -0.1  57.3870554377
0.34  -0.08  50.4969323668
0.34  -0.06  44.2579215115
0.34  -0.04  39.10798221
0.34  -0.02  35.6228743358
0.34  6.17561557e-16  34.3758231449
0.34  0.02  35.6228743358
0.34  0.04  39.10798221
0.34  0.06  44.2579215115
0.34  0.08  50.4969323668
0.34  0.1  57.3870554377
0.34  0.12  64.6264781378
0.34  0.14  72.0096156109
0.34  0.16  79.3923691924
0.34  0.18  86.6692063635
0.34  0.2  212.369760967
0.34  0.22  169.194341573
0.34  0.24  134.796616477
0.34  0.26  107.392053687
0.34  0.28  85.5589219998
0.34  0.3  68.1645325002
0.34  0.32  54.3064753781
0.34  0.34  43.2658034879
0.34  0.36  34.4697338286
0.34  0.38  27.4619319285
0.34  0.4  21.878837504
0.34  0.42  17.4308031851
0.34  0.44  13.8870677943
0.34  0.46  11.0637846044
0.34  0.48  8.8144834883
0.34  0.5  7.02247214161
0.34  0.52  5.59478216111
0.34  0.54  4.45734590313
0.34  0.56  3.55115390162
0.34  0.58  2.82919349476
0.34  0.6  2.25400983807
0.34  0.62  1.7957627711
0.34  0.64  1.43067872891
0.34  0.66  1.13981738473
0.34  0.68  0.908089037934
0.34  0.7  0.723471770009
0.34  0.72  0.576387755094
0.34  0.74  0.459206368505
0.34  0.76  0.365848314806
0.34  0.78  0.291470237841
0.34  0.8  0.232213450518
0.34  0.82  0.185003748584
0.34  0.84  0.147391922879
0.34  0.86  0.117426695925
0.34  0.88  0.0935534909005
0.34  0.9  0.0745337811877
0.34  0.92  0.0593808364035
0.34  0.94  0.0473085314577
0.34  0.96  0.0376905628859
0.34  0.98  0.030027956626
0.36  -1  0.0200410215902
0.36  -0.98  0.0251551377255
0.36  -0.96  0.0315742863276
0.36  -0.94  0.0396314887233
0.36  -0.92  0.0497447474228
0.36  -0.9  0.0624387318234
0.36  -0.88  0.0783719977224
0.36  -0.86  0.0983711527704
0.36  -0.84  0.123473740349
0.36  -0.82  0.154982066656
0.36  -0.8  0.194530763522
0.36  -0.78  0.244171592063
0.36  -0.76  0.306479886733
0.36  -0.74  0.384688162036
0.36  -0.72  0.482853813306
0.36  -0.7  0.606069611786
0.36  -0.68  0.760727914347
0.36  -0.66  0.954852294873
0.36  -0.64  1.19851380215
0.36  -0.62  1.50435343943
0.36  -0.6  1.88823797162
0.36  -0.58  2.37008308287
0.36  -0.56  2.97488658959
0.36  -0.54  3.73402531114
0.36  -0.52  4.68688287916
0.36  -0.5  5.88289293526
0.36  -0.48  7.3841037167
0.36  -0.46  9.26839707929
0.36  -0.44  11.6335289583
0.36  -0.42  14.6022008839
0.36  -0.4  18.3284256582
0.36  -0.38  23.0055174407
0.36  -0.36  28.8761207637
0.36  -0.34  36.2447987752
0.36  -0.32  45.4938337808
0.36  -0.3  57.1030598049
0.36  -0.28  71.6747560733
0.36  -0.26  89.9648928747
0.36  -0.24  112.922350816
0.36  -0.22  141.738148141
0.36  -0.2  78.5443236473
0.36  -0.18  72.6048678498
0.36  -0.16  66.5088872433
0.36  -0.14  60.3241779256
0.36  -0.12  54.1391470128
0.36  -0.1  48.0745094038
0.36  -0.08  42.3024884517
0.36  -0.06  37.0759197814
0.36  -0.04  32.7616924092
0.36  -0.02  29.842134157
0.36  6.17561557e-16  28.797449537
0.36  0.02  29.842134157
0.36  0.04  32.7616924092
0.36  0.06  37.0759197814
0.36  0.08  42.3024884517
0.36  0.1  48.0745094038
0.36  0.12  54.1391470128
0.36  0.14  60.3241779256
0.36  0.16  66.5088872433
0.36  0.18  72.6048678498
0.36  0.2  177.907229998
0.36  0.22  141.738148141
0.36  0.24  112.922350816
0.36  0.26  89.9648928747
0.36  0.28  71.6747560733
0.36  0.3  57.1030598049
0.36  0.32  45.4938337808
0.36  0.34  36.2447987752
0.36  0.36  28.8761207637
0.36  0.38  23.0055174407
0.36  0.4  18.3284256582
0.36  0.42  14.6022008839
0.36  0.44  11.6335289583
0.36  0.46  9.26839707929
0.36  0.48  7.3841037167
0.36  0.5  5.88289293526
0.36  0.52  4.68688287916
0.36  0.54  3.73402531114
0.36  0.56  2.97488658959
0.36  0.58  2.37008308287
0.36  0.6  1.88823797162
0.36  0.62  1.50435343943
0.36  0.64  1.19851380215
0.36  0.66  0.954852294873
0.36  0.68  0.760727914347
0.36  0.7  0.606069611786
0.36  0.72  0.482853813306
0.36  0.74  0.384688162036
0.36  0.76  0.306479886733
0.36  0.78  0.244171592063
0.36  0.8  0.194530763522
0.36  0.82  0.154982066656
0.36  0.84  0.123473740349
0.36  0.86  0.0983711527704
0.36  0.88  0.0783719977224
0.36  0.9  0.0624387318234
0.36  0.92  0.0497447474228
0.36  0.94  0.0396314887233
0.36  0.96  0.0315742863276
0.36  0.98  0.0251551377255
0.38  -1  0.0167888432949
0.38  -0.98  0.0210730607437
0.38  -0.96  0.0264505351146
0.38  -0.94  0.033200246341
0.38  -0.92  0.041672365127
0.38  -0.9  0.0523064195804
0.38  -0.88  0.0656540976491
0.38  -0.86  0.0824078683399
0.38  -0.84  0.103436906568
0.38  -0.82  0.129832185395
0.38  -0.8  0.162963075017
0.38  -0.78  0.20454838481
0.38  -0.76  0.256745534066
0.38  -0.74  0.322262477527
0.38  -0.72  0.404498192343
0.38  -0.7  0.507719014836
0.38  -0.68  0.637279975302
0.38  -0.66  0.79990261356
0.38  -0.64  1.00402368814
0.38  -0.62  1.26023286992
0.38  -0.6  1.58182212749
0.38  -0.58  1.985475306
0.38  -0.56  2.49213367433
0.38  -0.54  3.12808234479
0.38  -0.52  3.92631392794
0.38  -0.5  4.92824016811
0.38  -0.48  6.18584035824
0.38  -0.46  7.76435799237
0.38  -0.44  9.74568555644
0.38  -0.42  12.2326130581
0.38  -0.4  15.3541607065
0.38  -0.38  19.2722723985
0.38  -0.36  24.1902172643
0.38  -0.34  30.3631351403
0.38  -0.32  38.1112730603
0.38  -0.3  47.8365994672
0.38  -0.28  60.0436580789
0.38  -0.26  75.365743294
0.38  -0.24  94.5977550999
0.38  -0.22  118.737437977
0.38  -0.2  65.7984591995
0.38  -0.18  60.8228349684
0.38  -0.16  55.7160861596
0.38  -0.14  50.5350071866
0.38  -0.12  45.3536588056
0.38  -0.1  40.2731667759
0.38  -0.08  35.4378067207
0.38  -0.06  31.0593850929
0.38  -0.04  27.4452535994
0.38  -0.02  24.9994697971
0.38  6.17561557e-16  24.1243124954
0.38  0.02  24.9994697971
0.38  0.04  27.4452535994
0.38  0.06  31.0593850929
0.38  0.08  35.4378067207
0.38  0.1  40.2731667759
0.38  0.12  45.3536588056
0.38  0.14  50.5350071866
0.38  0.16  55.7160861596
0.38  0.18  60.8228349684
0.38  0.2  149.037143243
0.38  0.22  118.737437977
0.38  0.24  94.5977550999
0.38  0.26  75.365743294
0.38  0.28  60.0436580789
0.38  0.3  47.8365994672
0.38  0.32  38.1112730603
0.38  0.34  30.3631351403
0.38  0.36  24.1902172643
0.38  0.38  19.2722723985
0.38  0.4  15.3541607065
0.38  0.42  12.2326130581
0.38  0.44  9.74568555644
0.38  0.46  7.76435799237
0.38  0.48  6.18584035824
0.38  0.5  4.92824016811
0.38  0.52  3.92631392794
0.38  0.54  3.12808234479
0.38  0.56  2.49213367433
0.38  0.58  1.985475306
0.38  0.6  1.58182212749
0.38  0.62  1.26023286992
0.38  0.64  1.00402368814
0.38  0.66  0.79990261356
0.38  0.68  0.637279975302
0.38  0.7  0.507719014836
0.38  0.72  0.404498192343
0.38  0.74  0.322262477527
0.38  0.76  0.256745534066
0.38  0.78  0.20454838481
0.38  0.8  0.162963075017
0.38  0.82  0.129832185395
0.38  0.84  0.103436906568
0.38  0.86  0.0824078683399
0.38  0.88  0.0656540976491
0.38  0.9  0.0523064195804
0.38  0.92  0.041672365127
0.38  0.94  0.033200246341
0.38  0.96  0.0264505351146
0.38  0.98  0.0210730607437
0.4  -1  0.0140644157242
0.4  -0.98  0.0176534071867
0.4  -0.96  0.0221582461306
0.4  -0.94  0.027812640721
0.4  -0.92  0.0349099373351
0.4  -0.9  0.043818339185
0.4  -0.88  0.0550000084645
0.4  -0.86  0.0690350430291
0.4  -0.84  0.0866515715012
0.4  -0.82  0.108763528118
0.4  -0.8  0.136518067056
0.4  -0.78  0.171355076054
0.4  -0.76  0.215081876875
0.4  -0.74  0.269966987994
0.4  -0.72  0.338857813897
0.4  -0.7  0.425328366599
0.4  -0.68  0.533864683104
0.4  -0.66  0.670097558141
0.4  -0.64  0.84109466619
0.4  -0.62  1.05572722792
0.4  -0.6  1.32513024346
0.4  -0.58  1.66328016904
0.4  -0.56  2.08772000668
0.4  -0.54  2.62046942387
0.4  -0.52  3.28916711986
0.4  -0.5  4.1285047037
0.4  -0.48  5.18202647277
0.4  -0.46  6.50438846307
0.4  -0.44  8.16419396946
0.4  -0.42  10.2475526407
0.4  -0.4  12.8625477931
0.4  -0.38  16.1448437036
0.4  -0.36  20.2647237863
0.4  -0.34  25.4359247865
0.4  -0.32  31.9267253068
0.4  -0.3  40.0738639296
0.4  -0.28  50.3000089992
0.4  -0.26  63.1356863857
0.4  -0.24  79.2468028276
0.4  -0.22  99.4691927484
0.4  -0.2  55.1209435894
0.4  -0.18  50.9527441224
0.4  -0.16  46.6746984594
0.4  -0.14  42.3343846392
0.4  -0.12  37.9938451296
0.4  -0.1  33.7377953986
0.4  -0.08  29.6870985879
0.4  -0.06  26.0191900305
0.4  -0.04  22.9915456054
0.4  -0.02  20.9426539955
0.4  6.17561557e-16  20.2095137845
0.4  0.02  20.9426539955
0.4  0.04  22.9915456054
0.4  0.06  26.0191900305
0.4  0.08  29.6870985879
0.4  0.1  33.7377953986
0.4  0.12  37.9938451296
0.4  0.14  42.3343846392
0.4  0.16  46.6746984594
0.4  0.18  50.9527441224
0.4  0.2  124.851980812
0.4  0.22  99.4691927484
0.4  0.24  79.2468028276
0.4  0.26  63.1356863857
0.4  0.28  50.3000089992
0.4  0.3  40.0738639296
0.4  0.32  31.9267253068
0.4  0.34  25.4359247865
0.4  0.36  20.2647237863
0.4  0.38  16.1448437036
0.4  0.4  12.8625477931
0.4  0.42  10.2475526407
0.4  0.44  8.16419396946
0.4  0.46  6.50438846307
0.4  0.48  5.18202647277
0.4  0.5  4.1285047037
0.4  0.52  3.28916711986
0.4  0.54  2.62046942387
0.4  0.56  2.08772000668
0.4  0.58  1.66328016904
0.4  0.6  1.32513024346
0.4  0.62  1.05572722792
0.4  0.64  0.84109466619
0.4  0.66  0.670097558141
0.4  0.68  0.533864683104
0.4  0.7  0.425328366599
0.4  0.72  0.338857813897
0.4  0.74  0.269966987994
0.4  0.76  0.215081876875
0.4  0.78  0.171355076054
0.4  0.8  0.136518067056
0.4  0.82  0.108763528118
0.4  0.84  0.0866515715012
0.4  0.86  0.0690350430291
0.4  0.88  0.0550000084645
0.4  0.9  0.043818339185
0.4  0.92  0.0349099373351
0.4  0.94  0.027812640721
0.4  0.96  0.0221582461306
0.4  0.98  0.0176534071867
0.42  -1  0.0117820975625
0.42  -0.98  0.0147886815822
0.42  -0.96  0.0185624929499
0.42  -0.94  0.0232993145874
0.42  -0.92  0.0292448897736
0.42  -0.9  0.0367076711488
0.42  -0.88  0.046074823041
0.42  -0.86  0.0578323073031
0.42  -0.84  0.0725900947037
0.42  -0.82  0.0911138098203
0.42  -0.8  0.114364451154
0.42  -0.78  0.143548247115
0.42  -0.76  0.180179234385
0.42  -0.74  0.226157805171
0.42  -0.72  0.283869298337
0.42  -0.7  0.356307749261
0.42  -0.68  0.447231218478
0.42  -0.66  0.561356757453
0.42  -0.64  0.704605126206
0.42  -0.62  0.884407958546
0.42  -0.6  1.11009331049
0.42  -0.58  1.39336959385
0.42  -0.56  1.74893300115
0.42  -0.54  2.19522993469
0.42  -0.52  2.75541399412
0.42  -0.5  3.4585471704
0.42  -0.48  4.3411075633
0.42  -0.46  5.44888184189
0.42  -0.44  6.8393406277
0.42  -0.42  8.5846200338
0.42  -0.4  10.7752640403
0.42  -0.38  13.524921858
0.42  -0.36  16.976243977
0.42  -0.34  21.3082827829
0.42  -0.32  26.74578168
0.42  -0.3  33.5708346357
0.42  -0.28  42.137521035
0.42  -0.26  52.8902750927
0.42  -0.24  66.3869428166
0.42  -0.22  83.3277227016
0.42  -0.2  46.1761332887
0.42  -0.18  42.6843328653
0.42  -0.16  39.1005116553
0.42  -0.14  35.4645269202
0.42  -0.12  31.8283531197
0.42  -0.1  28.2629584282
0.42  -0.08  24.8695927914
0.42  -0.06  21.7968980332
0.42  -0.04  19.2605678577
0.42  -0.02  17.5441623336
0.42  6.17561557e-16  16.9299932375
0.42  0.02  17.5441623336
0.42  0.04  19.2605678577
0.42  0.06  21.7968980332
0.42  0.08  24.8695927914
0.42  0.1  28.2629584282
0.42  0.12  31.8283531197
0.42  0.14  35.4645269202
0.42  0.16  39.1005116553
0.42  0.18  42.6843328653
0.42  0.2  104.59149158
0.42  0.22  83.3277227016
0.42  0.24  66.3869428166
0.42  0.26  52.8902750927
0.42  0.28  42.137521035
0.42  0.3  33.5708346357
0.42  0.32  26.74578168
0.42  0.34  21.3082827829
0.42  0.36  16.976243977
0.42  0.38  13.524921858
0.42  0.4  10.7752640403
0.42  0.42  8.5846200338
0.42  0.44  6.8393406277
0.42  0.46  5.44888184189
0.42  0.48  4.3411075633
0.42  0.5  3.4585471704
0.42  0.52  2.75541399412
0.42  0.54  2.19522993469
0.42  0.56  1.74893300115
0.42  0.58  1.39336959385
0.42  0.6  1.11009331049
0.42  0.62  0.884407958546
0.42  0.64  0.704605126206
0.42  0.66  0.561356757453
0.42  0.68  0.447231218478
0.42  0.7  0.356307749261
0.42  0.72  0.283869298337
0.42  0.74  0.226157805171
0.42  0.76  0.180179234385
0.42  0.78  0.143548247115
0.42  0.8  0.114364451154
0.42  0.82  0.0911138098203
0.42  0.84  0.0725900947037
0.42  0.86  0.0578323073031
0.42  0.88  0.046074823041
0.42  0.9  0.0367076711488
0.42  0.92  0.0292448897736
0.42  0.94  0.0232993145874
0.42  0.96  0.0185624929499
0.42  0.98  0.0147886815822
0.44  -1  0.00987014503085
0.44  -0.98  0.0123888324008
0.44  -0.96  0.0155502444771
0.44  -0.94  0.0195183932978
0.44  -0.92  0.0244991438872
0.44  -0.9  0.0307508944025
0.44  -0.88  0.0385979816645
0.44  -0.86  0.0484475075447
0.44  -0.84  0.0608104591504
0.44  -0.82  0.0763282185088
0.44  -0.8  0.095805837057
0.44  -0.78  0.120253801196
0.44  -0.76  0.150940455679
0.44  -0.74  0.189457804526
0.44  -0.72  0.237804103178
0.44  -0.7  0.298487526706
0.44  -0.68  0.374656292336
0.44  -0.66  0.470261986945
0.44  -0.64  0.590264572862
0.44  -0.62  0.740889707542
0.44  -0.6  0.929951726697
0.44  -0.58  1.16725904704
0.44  -0.56  1.46512302067
0.44  -0.54  1.83899664016
0.44  -0.52  2.30827622992
0.44  -0.5  2.89730771511
0.44  -0.48  3.6366496727
0.44  -0.46  4.56465869089
0.44  -0.44  5.72947928439
0.44  -0.42  7.19154160107
0.44  -0.4  9.02669649943
0.44  -0.38  11.3301506426
0.44  -0.36  14.2214057593
0.44  -0.34  17.850458317
0.44  -0.32  22.4055812427
0.44  -0.3  28.1230914024
0.44  -0.28  35.2996095687
0.44  -0.26  44.3074489172
0.44  -0.24  55.6139303957
0.44  -0.22  69.8056270366
0.44  -0.2  38.6828516829
0.44  -0.18  35.7576869222
0.44  -0.16  32.7554341467
0.44  -0.14  29.7094827383
0.44  -0.12  26.6633729452
0.44  -0.1  23.6765565052
0.44  -0.08  20.8338529203
0.44  -0.06  18.2597830029
0.44  -0.04  16.1350385298
0.44  -0.02  14.6971645549
0.44  6.17561557e-16  14.1826604082
0.44  0.02  14.6971645549
0.44  0.04  16.1350385298
0.44  0.06  18.2597830029
0.44  0.08  20.8338529203
0.44  0.1  23.6765565052
0.44  0.12  26.6633729452
0.44  0.14  29.7094827383
0.44  0.16  32.7554341467
0.44  0.18  35.7576869222
0.44  0.2  87.6187949908
0.44  0.22  69.8056270366
0.44  0.24  55.6139303957
0.44  0.26  44.3074489172
0.44  0.28  35.2996095687
0.44  0.3  28.1230914024
0.44  0.32  22.4055812427
0.44  0.34  17.850458317
0.44  0.36  14.2214057593
0.44  0.38  11.3301506426
0.44  0.4  9.02669649943
0.44  0.42  7.19154160107
0.44  0.44  5.72947928439
0.44  0.46  4.56465869089
0.44  0.48  3.6366496727
0.44  0.5  2.89730771511
0.44  0.52  2.30827622992
0.44  0.54  1.83899664016
0.44  0.56  1.46512302067
0.44  0.58  1.16725904704
0.44  0.6  0.929951726697
0.44  0.62  0.740889707542
0.44  0.64  0.590264572862
0.44  0.66  0.470261986945
0.44  0.68  0.374656292336
0.44  0.7  0.298487526706
0.44  0.72  0.237804103178
0.44  0.74  0.189457804526
0.44  0.76  0.150940455679
0.44  0.78  0.120253801196
0.44  0.8  0.095805837057
0.44  0.82  0.0763282185088
0.44  0.84  0.0608104591504
0.44  0.86  0.0484475075447
0.44  0.88  0.0385979816645
0.44  0.9  0.0307508944025
0.44  0.92  0.0244991438872
0.44  0.94  0.0195183932978
0.44  0.96  0.0155502444771
0.44  0.98  0.0123888324008
0.46  -1  0.00826845664904
0.46  -0.98  0.0103784213219
0.46  -0.96  0.0130268118593
0.46  -0.94  0.0163510250697
0.46  -0.92  0.0205235190098
0.46  -0.9  0.0257607599981
0.46  -0.88  0.0323344527497
0.46  -0.86  0.040585636243
0.46  -0.84  0.0509423766035
0.46  -0.82  0.0639419749016
0.46  -0.8  0.0802588419881
0.46  -0.78  0.100739486498
0.46  -0.76  0.126446431179
0.46  -0.74  0.158713335888
0.46  -0.72  0.19921418702
0.46  -0.7  0.250050142843
0.46  -0.68  0.313858540253
0.46  -0.66  0.393949718124
0.46  -0.64  0.494478755572
0.46  -0.62  0.620661034805
0.46  -0.6  0.779042811819
0.46  -0.58  0.977840831972
0.46  -0.56  1.22736860949
0.46  -0.54  1.54057148597
0.46  -0.52  1.93369822646
0.46  -0.5  2.42714399499
0.46  -0.48  3.04650844263
0.46  -0.46  3.82392380105
0.46  -0.44  4.79972188214
0.46  -0.42  6.02452646667
0.46  -0.4  7.56187963361
0.46  -0.38  9.49153828265
0.46  -0.36  11.9136118711
0.46  -0.34  14.9537560287
0.46  -0.32  18.7696914911
0.46  -0.3  23.5593865511
0.46  -0.28  29.5713275271
0.46  -0.26  37.1174100742
0.46  -0.24  46.5891201317
0.46  -0.22  58.4778439635
0.46  -0.2  32.4055503948
0.46  -0.18  29.9550698862
0.46  -0.16  27.4400109032
0.46  -0.14  24.8883445298
0.46  -0.12  22.3365454738
0.46  -0.1  19.8344178783
0.46  -0.08  17.4530170697
0.46  -0.06  15.2966571118
0.46  -0.04  13.5167078292
0.46  -0.02  12.3121663974
0.46  6.17561557e-16  11.8811539635
0.46  0.02  12.3121663974
0.46  0.04  13.5167078292
0.46  0.06  15.2966571118
0.46  0.08  17.4530170697
0.46  0.1  19.8344178783
0.46  0.12  22.3365454738
0.46  0.14  24.8883445298
0.46  0.16  27.4400109032
0.46  0.18  29.9550698862
0.46  0.2  73.4003609631
0.46  0.22  58.4778439635
0.46  0.24  46.5891201317
0.46  0.26  37.1174100742
0.46  0.28  29.5713275271
0.46  0.3  23.5593865511
0.46  0.32  18.7696914911
0.46  0.34  14.9537560287
0.46  0.36  11.9136118711
0.46  0.38  9.49153828265
0.46  0.4  7.56187963361
0.46  0.42  6.02452646667
0.46  0.44  4.79972188214
0.46  0.46  3.82392380105
0.46  0.48  3.04650844263
0.46  0.5  2.42714399499
0.46  0.52  1.93369822646
0.46  0.54  1.54057148597
0.46  0.56  1.22736860949
0.46  0.58  0.977840831972
0.46  0.6  0.779042811819
0.46  0.62  0.620661034805
0.46  0.64  0.494478755572
0.46  0.66  0.393949718124
0.46  0.68  0.313858540253
0.46  0.7  0.250050142843
0.46  0.72  0.19921418702
0.46  0.74  0.158713335888
0.46  0.76  0.126446431179
0.46  0.78  0.100739486498
0.46  0.8  0.0802588419881
0.46  0.82  0.0639419749016
0.46  0.84  0.0509423766035
0.46  0.86  0.040585636243
0.46  0.88  0.0323344527497
0.46  0.9  0.0257607599981
0.46  0.92  0.0205235190098
0.46  0.94  0.0163510250697
0.46  0.96  0.0130268118593
0.46  0.98  0.0103784213219
0.48  -1  0.00692668396901
0.48  -0.98  0.00869425185922
0.48  -0.96  0.0109128719788
0.48  -0.94  0.0136976449215
0.48  -0.92  0.0171930429277
0.48  -0.9  0.0215804050118
0.48  -0.88  0.0270873447144
0.48  -0.86  0.0339995585475
0.48  -0.84  0.0426756477467
0.48  -0.82  0.0535657222741
0.48  -0.8  0.0672347522358
0.48  -0.78  0.0843918781693
0.48  -0.76  0.105927200802
0.48  -0.74  0.132957958907
0.48  -0.72  0.166886490938
0.48  -0.7  0.20947298745
0.48  -0.68  0.262926808664
0.48  -0.66  0.330021104657
0.48  -0.64  0.414236684622
0.48  -0.62  0.519942599019
0.48  -0.6  0.652622803123
0.48  -0.58  0.81916066112
0.48  -0.56  1.02819605064
0.48  -0.54  1.29057359407
0.48  -0.52  1.61990527067
0.48  -0.5  2.03327659733
0.48  -0.48  2.55213301426
0.48  -0.46  3.20339246073
0.48  -0.44  4.02084186057
0.48  -0.42  5.04688996615
0.48  -0.4  6.33476749737
0.48  -0.38  7.95128871738
0.48  -0.36  9.98031771387
0.48  -0.34  12.5271192143
0.48  -0.32  15.7238196526
0.48  -0.3  19.7362618044
0.48  -0.28  24.7726086038
0.48  -0.26  31.0941425038
0.48  -0.24  39.0288206426
0.48  -0.22  48.9882890505
0.48  -0.2  27.1469049128
0.48  -0.18  25.0940787596
0.48  -0.16  22.9871536733
0.48  -0.14  20.8495617002
0.48  -0.12  18.7118585757
0.48  -0.1  16.6157664222
0.48  -0.08  14.6208099866
0.48  -0.06  12.8143756559
0.48  -0.04  11.3232695542
0.48  -0.02  10.3141963765
0.48  6.17561557e-16  9.95312694805
0.48  0.02  10.3141963765
0.48  0.04  11.3232695542
0.48  0.06  12.8143756559
0.48  0.08  14.6208099866
0.48  0.1  16.6157664222
0.48  0.12  18.7118585757
0.48  0.14  20.8495617002
0.48  0.16  22.9871536733
0.48  0.18  25.0940787596
0.48  0.2  61.4892385826
0.48  0.22  48.9882890505
0.48  0.24  39.0288206426
0.48  0.26  31.0941425038
0.48  0.28  24.7726086038
0.48  0.3  19.7362618044
0.48  0.32  15.7238196526
0.48  0.34  12.5271192143
0.48  0.36  9.98031771387
0.48  0.38  7.95128871738
0.48  0.4  6.33476749737
0.48  0.42  5.04688996615
0.48  0.44  4.02084186057
0.48  0.46  3.20339246073
0.48  0.48  2.55213301426
0.48  0.5  2.03327659733
0.48  0.52  1.61990527067
0.48  0.54  1.29057359407
0.48  0.56  1.02819605064
0.48  0.58  0.81916066112
0.48  0.6  0.652622803123
0.48  0.62  0.519942599019
0.48  0.64  0.414236684622
0.48  0.66  0.330021104657
0.48  0.68  0.262926808664
0.48  0.7  0.20947298745
0.48  0.72  0.166886490938
0.48  0.74  0.132957958907
0.48  0.76  0.105927200802
0.48  0.78  0.0843918781693
0.48  0.8  0.0672347522358
0.48  0.82  0.0535657222741
0.48  0.84  0.0426756477467
0.48  0.86  0.0339995585475
0.48  0.88  0.0270873447144
0.48  0.9  0.0215804050118
0.48  0.92  0.0171930429277
0.48  0.94  0.0136976449215
0.48  0.96  0.0109128719788
0.48  0.98  0.00869425185921
0.5  -1  0.00580264889121
0.5  -0.98  0.00728338280431
0.5  -0.96  0.00914197396201
0.5  -0.94  0.0114748448856
0.5  -0.92  0.0144030234276
0.5  -0.9  0.018078421619
0.5  -0.88  0.0226917167689
0.5  -0.86  0.0284822436811
0.5  -0.84  0.0357504111905
0.5  -0.82  0.044873287182
0.5  -0.8  0.0563241606311
0.5  -0.78  0.0706970955333
0.5  -0.76  0.0887377505645
0.5  -0.74  0.111382063377
0.5  -0.72  0.139804806446
0.5  -0.7  0.175480533514
0.5  -0.68  0.220260078501
0.5  -0.66  0.276466575577
0.5  -0.64  0.347015981886
0.5  -0.62  0.435568355535
0.5  -0.6  0.546717737068
0.5  -0.58  0.686230485357
0.5  -0.56  0.861344432611
0.5  -0.54  1.08114437849
0.5  -0.52  1.35703340369
0.5  -0.5  1.7033244545
0.5  -0.48  2.13798288931
0.5  -0.46  2.68355850989
0.5  -0.44  3.36835543073
0.5  -0.42  4.22790047837
0.5  -0.4  5.3067863005
0.5  -0.38  6.66098480399
0.5  -0.36  8.36075094163
0.5  -0.34  10.4942674942
0.5  -0.32  13.1722199368
0.5  -0.3  16.5335387305
0.5  -0.28  20.7526069459
0.5  -0.26  26.0483071453
0.5  -0.24  32.6953768701
0.5  -0.22  41.0386618493
0.5  -0.2  22.7416117722
0.5  -0.18  21.021910187
0.5  -0.16  19.2568886312
0.5  -0.14  17.4661766905
0.5  -0.12  15.6753716356
0.5  -0.1  13.9194250868
0.5  -0.08  12.2482023486
0.5  -0.06  10.7349090884
0.5  -0.04  9.48577383027
0.5  -0.02  8.64044908579
0.5  6.17561557e-16  8.33797258653
0.5  0.02  8.64044908579
0.5  0.04  9.48577383027
0.5  0.06  10.7349090884
0.5  0.08  12.2482023486
0.5  0.1  13.9194250868
0.5  0.12  15.6753716356
0.5  0.14  17.4661766905
0.5  0.16  19.2568886312
0.5  0.18  21.021910187
0.5  0.2  51.5110063746
0.5  0.22  41.0386618493
0.5  0.24  32.6953768701
0.5  0.26  26.0483071453
0.5  0.28  20.7526069459
0.5  0.3  16.5335387305
0.5  0.32  13.1722199368
0.5  0.34  10.4942674942
0.5  0.36  8.36075094163
0.5  0.38  6.66098480399
0.5  0.4  5.3067863005
0.5  0.42  4.22790047837
0.5  0.44  3.36835543073
0.5  0.46  2.68355850989
0.5  0.48  2.13798288931
0.5  0.5  1.7033244545
0.5  0.52  1.35703340369
0.5  0.54  1.08114437849
0.5  0.56  0.861344432611
0.5  0.58  0.686230485357
0.5  0.6  0.546717737068
0.5  0.62  0.435568355535
0.5  0.64  0.347015981886
0.5  0.66  0.276466575577
0.5  0.68  0.220260078501
0.5  0.7  0.175480533514
0.5  0.72  0.139804806446
0.5  0.74  0.111382063377
0.5  0.76  0.0887377505645
0.5  0.78  0.0706970955333
0.5  0.8  0.0563241606311
0.5  0.82  0.044873287182
0.5  0.84  0.0357504111905
0.5  0.86  0.0284822436811
0.5  0.88  0.0226917167689
0.5  0.9  0.018078421619
0.5  0.92  0.0144030234276
0.5  0.94  0.0114748448856
0.5  0.96  0.00914197396201
0.5  0.98  0.00728338280431
0.52  -1  0.00486101781246
0.52  -0.98  0.00610146404005
0.52  -0.96  0.00765845032218
0.52  -0.94  0.00961275211201
0.52  -0.92  0.0120657573373
0.52  -0.9  0.0151447263412
0.52  -0.88  0.0190093940676
0.52  -0.86  0.0238602570082
0.52  -0.84  0.0299489748317
0.52  -0.82  0.0375914263271
0.52  -0.8  0.0471840969931
0.52  -0.78  0.0592246484527
0.52  -0.76  0.0743377368197
0.52  -0.74  0.0933074194588
0.52  -0.72  0.11711783138
0.52  -0.7  0.147004241536
0.52  -0.68  0.184517137783
0.52  -0.66  0.231602665201
0.52  -0.64  0.290703590857
0.52  -0.62  0.364886032999
0.52  -0.6  0.45799852931
0.52  -0.58  0.574871696585
0.52  -0.56  0.72156884004
0.52  -0.54  0.905700513714
0.52  -0.52  1.13681935115
0.52  -0.5  1.4269156499
0.52  -0.48  1.79103942054
0.52  -0.46  2.24808117154
0.52  -0.44  2.82175193682
0.52  -0.42  3.54181338902
0.52  -0.4  4.44562185604
0.52  -0.38  5.58006634346
0.52  -0.36  7.00400110618
0.52  -0.34  8.79129896958
0.52  -0.32  11.0346838044
0.52  -0.3  13.850540982
0.52  -0.28  17.384955373
0.52  -0.26  21.8212901369
0.52  -0.24  27.3896994856
0.52  -0.22  34.3790689371
0.52  -0.2  19.0511923057
0.52  -0.18  17.6105571415
0.52  -0.16  16.1319563537
0.52  -0.14  14.6318341158
0.52  -0.12  13.1316338738
0.52  -0.1  11.6606354364
0.52  -0.08  10.2606121624
0.52  -0.06  8.99289019072
0.52  -0.04  7.9464596977
0.52  -0.02  7.2383109337
0.52  6.17561557e-16  6.98491913311
0.52  0.02  7.2383109337
0.52  0.04  7.9464596977
0.52  0.06  8.99289019072
0.52  0.08  10.2606121624
0.52  0.1  11.6606354364
0.52  0.12  13.1316338738
0.52  0.14  14.6318341158
0.52  0.16  16.1319563537
0.52  0.18  17.6105571415
0.52  0.2  43.1520025111
0.52  0.22  34.3790689371
0.52  0.24  27.3896994856
0.52  0.26  21.8212901369
0.52  0.28  17.384955373
0.52  0.3  13.850540982
0.52  0.32  11.0346838044
0.52  0.34  8.79129896958
0.52  0.36  7.00400110618
0.52  0.38  5.58006634346
0.52  0.4  4.44562185604
0.52  0.42  3.54181338902
0.52  0.44  2.82175193682
0.52  0.46  2.24808117154
0.52  0.48  1.79103942054
0.52  0.5  1.4269156499
0.52  0.52  1.13681935115
0.52  0.54  0.905700513714
0.52  0.56  0.72156884004
0.52  0.58  0.574871696585
0.52  0.6  0.45799852931
0.52  0.62  0.364886032999
0.52  0.64  0.290703590857
0.52  0.66  0.231602665201
0.52  0.68  0.184517137783
0.52  0.7  0.147004241536
0.52  0.72  0.11711783138
0.52  0.74  0.0933074194588
0.52  0.76  0.0743377368197
0.52  0.78  0.0592246484527
0.52  0.8  0.0471840969931
0.52  0.82  0.0375914263271
0.52  0.84  0.0299489748317
0.52  0.86  0.0238602570082
0.52  0.88  0.0190093940676
0.52  0.9  0.0151447263412
0.52  0.92  0.0120657573373
0.52  0.94  0.00961275211201
0.52  0.96  0.00765845032218
0.52  0.98  0.00610146404004
0.54  -1  0.00407219092799
0.54  -0.98  0.0051113424122
0.54  -0.96  0.00641566707377
0.54  -0.94  0.00805283244244
0.54  -0.92  0.0101077736111
0.54  -0.9  0.0126870996142
0.54  -0.88  0.0159246242362
0.54  -0.86  0.019988308185
0.54  -0.84  0.0250889727866
0.54  -0.82  0.0314912372604
0.54  -0.8  0.0395272469951
0.54  -0.78  0.0496139050394
0.54  -0.76  0.0622745007657
0.54  -0.74  0.078165857788
0.54  -0.72  0.0981124095513
0.54  -0.7  0.123148970412
0.54  -0.68  0.154574421145
0.54  -0.66  0.194019094049
0.54  -0.64  0.243529353541
0.54  -0.62  0.30567376024
0.54  -0.6  0.383676326243
0.54  -0.58  0.481583774819
0.54  -0.56  0.604475481821
0.54  -0.54  0.758726990459
0.54  -0.52  0.952340770411
0.54  -0.5  1.19536138083
0.54  -0.48  1.50039657565
0.54  -0.46  1.88327138581
0.54  -0.44  2.36384911174
0.54  -0.42  2.9670618187
0.54  -0.4  3.72420379637
0.54  -0.38  4.67455508662
0.54  -0.36  5.86741930694
0.54  -0.34  7.36468149065
0.54  -0.32  9.24401864284
0.54  -0.3  11.6029295738
0.54  -0.28  14.5637930748
0.54  -0.26  18.2802168518
0.54  -0.24  22.9450065951
0.54  -0.22  28.8001686148
0.54  -0.2  15.9596396202
0.54  -0.18  14.7527850741
0.54  -0.16  13.5141258166
0.54  -0.14  12.2574375254
0.54  -0.12  11.0006838884
0.54  -0.1  9.76839330172
0.54  -0.08  8.59556030757
0.54  -0.06  7.53355927994
0.54  -0.04  6.65693941866
0.54  -0.02  6.06370625563
0.54  6.17561557e-16  5.85143388153
0.54  0.02  6.06370625563
0.54  0.04  6.65693941866
0.54  0.06  7.53355927994
0.54  0.08  8.59556030757
0.54  0.1  9.76839330172
0.54  0.12  11.0006838884
0.54  0.14  12.2574375254
0.54  0.16  13.5141258166
0.54  0.18  14.7527850741
0.54  0.2  36.1494649742
0.54  0.22  28.8001686148
0.54  0.24  22.9450065951
0.54  0.26  18.2802168518
0.54  0.28  14.5637930748
0.54  0.3  11.6029295738
0.54  0.32  9.24401864284
0.54  0.34  7.36468149065
0.54  0.36  5.86741930694
0.54  0.38  4.67455508662
0.54  0.4  3.72420379637
0.54  0.42  2.9670618187
0.54  0.44  2.36384911174
0.54  0.46  1.88327138581
0.54  0.48  1.50039657565
0.54  0.5  1.19536138083
0.54  0.52  0.952340770411
0.54  0.54  0.758726990459
0.54  0.56  0.604475481821
0.54  0.58  0.481583774819
0.54  0.6  0.383676326243
0.54  0.62  0.30567376024
0.54  0.64  0.243529353541
0.54  0.66  0.194019094049
0.54  0.68  0.154574421145
0.54  0.7  0.123148970412
0.54  0.72  0.0981124095513
0.54  0.74  0.078165857788
0.54  0.76  0.0622745007657
0.54  0.78  0.0496139050394
0.54  0.8  0.0395272469951
0.54  0.82  0.0314912372604
0.54  0.84  0.0250889727866
0.54  0.86  0.019988308185
0.54  0.88  0.0159246242362
0.54  0.9  0.0126870996142
0.54  0.92  0.0101077736111
0.54  0.94  0.00805283244244
0.54  0.96  0.00641566707377
0.54  0.98  0.0051113424122
0.56  -1  0.0034113717731
0.56  -0.98  0.00428189383455
0.56  -0.96  0.00537455781129
0.56  -0.94  0.00674605041204
0.56  -0.92  0.00846752379633
0.56  -0.9  0.010628286903
0.56  -0.88  0.013340438741
0.56  -0.86  0.0167446840141
0.56  -0.84  0.0210176327913
0.56  -0.82  0.0263809629238
0.56  -0.8  0.0331129205511
0.56  -0.78  0.0415627553319
0.56  -0.76  0.0521688392939
0.56  -0.74  0.0654814092938
0.56  -0.72  0.0821911129545
0.56  -0.7  0.103164839021
0.56  -0.68  0.129490690997
0.56  -0.66  0.162534437256
0.56  -0.64  0.204010366234
0.56  -0.62  0.256070222615
0.56  -0.6  0.321414838474
0.56  -0.58  0.403434250715
0.56  -0.56  0.506383574022
0.56  -0.54  0.635603753487
0.56  -0.52  0.797798649426
0.56  -0.5  1.00138282937
0.56  -0.48  1.25691811046
0.56  -0.46  1.57766149973
0.56  -0.44  1.98025295922
0.56  -0.42  2.48557867653
0.56  -0.4  3.11985462688
0.56  -0.38  3.91598664117
0.56  -0.36  4.91527753944
0.56  -0.34  6.16956989477
0.56  -0.32  7.74393559287
0.56  -0.3  9.72005171987
0.56  -0.28  12.2004379174
0.56  -0.26  15.3137750359
0.56  -0.24  19.2215810153
0.56  -0.22  24.126590332
0.56  -0.2  13.369771966
0.56  -0.18  12.3587610371
0.56  -0.16  11.3211065404
0.56  -0.14  10.2683486909
0.56  -0.12  9.21553609968
0.56  -0.1  8.183216791
0.56  -0.08  7.20070653017
0.56  -0.06  6.31104285949
0.56  -0.04  5.57667742738
0.56  -0.02  5.07971181279
0.56  6.17561557e-16  4.9018861661
0.56  0.02  5.07971181279
0.56  0.04  5.57667742738
0.56  0.06  6.31104285949
0.56  0.08  7.20070653017
0.56  0.1  8.183216791
0.56  0.12  9.21553609968
0.56  0.14  10.2683486909
0.56  0.16  11.3211065404
0.56  0.18  12.3587610371
0.56  0.2  30.2832717341
0.56  0.22  24.126590332
0.56  0.24  19.2215810153
0.56  0.26  15.3137750359
0.56  0.28  12.2004379174
0.56  0.3  9.72005171987
0.56  0.32  7.74393559287
0.56  0.34  6.16956989477
0.56  0.36  4.91527753944
0.56  0.38  3.91598664117
0.56  0.4  3.11985462688
0.56  0.42  2.48557867653
0.56  0.44  1.98025295922
0.56  0.46  1.57766149973
0.56  0.48  1.25691811046
0.56  0.5  1.00138282937
0.56  0.52  0.797798649426
0.56  0.54  0.635603753487
0.56  0.56  0.506383574022
0.56  0.58  0.403434250715
0.56  0.6  0.321414838474
0.56  0.62  0.256070222615
0.56  0.64  0.204010366234
0.56  0.66  0.162534437256
0.56  0.68  0.129490690997
0.56  0.7  0.103164839021
