2.8449465e-16  -0.76  1.4713282611
2.8449465e-16  -0.74  1.76351311853
2.8449465e-16  -0.72  2.1137217312
2.8449465e-16  -0.7  2.53347679131
2.8449465e-16  -0.68  3.03658923374
2.8449465e-16  -0.66  3.63961264856
2.8449465e-16  -0.64  4.36238793327
2.8449465e-16  -0.62  5.2286961053
2.8449465e-16  -0.6  6.26704075378
2.8449465e-16  -0.58  7.51158587505
2.8449465e-16  -0.56  9.00327994903
2.8449465e-16  -0.54  10.7912032411
2.8449465e-16  -0.52  12.934182659
2.8449465e-16  -0.5  15.5027272972
2.8449465e-16  -0.48  18.5813483533
2.8449465e-16  -0.46  22.2713397461
2.8449465e-16  -0.44  26.6941109254
2.8449465e-16  -0.42  31.9951815302
2.8449465e-16  -0.4  38.3489693293
2.8449465e-16  -0.38  45.9645289785
2.8449465e-16  -0.36  55.0924304139
2.8449465e-16  -0.34  66.0330031952
2.8449465e-16  -0.32  79.1462180598
2.8449465e-16  -0.3  94.8635308113
2.8449465e-16  -0.28  113.702078237
2.8449465e-16  -0.26  136.281693131
2.8449465e-16  -0.24  163.345298263
2.8449465e-16  -0.22  195.783350292
2.8449465e-16  -0.2  87.5224718349
2.8449465e-16  -0.18  86.0997042931
2.8449465e-16  -0.16  84.5685350702
2.8449465e-16  -0.14  82.9884653981
2.8449465e-16  -0.12  81.4242881225
2.8449465e-16  -0.1  79.9438589063
2.8449465e-16  -0.08  78.6151286571
2.8449465e-16  -0.06  77.5024543786
2.8449465e-16  -0.04  76.662382579
2.8449465e-16  -0.02  76.1393200632
2.8449465e-16  6.17561557e-16  75.9617003397
2.8449465e-16  0.02  76.1393200632
2.8449465e-16  0.04  76.662382579
2.8449465e-16  0.06  77.5024543786
2.8449465e-16  0.08  78.6151286571
2.8449465e-16  0.1  79.9438589063
2.8449465e-16  0.12  81.4242881225
2.8449465e-16  0.14  82.9884653981
2.8449465e-16  0.16  84.5685350702
2.8449465e-16  0.18  86.0997042931
2.8449465e-16  0.2  234.663137899
2.8449465e-16  0.22  195.783350292
2.8449465e-16  0.24  163.345298263
2.8449465e-16  0.26  136.281693131
2.8449465e-16  0.28  113.702078237
2.8449465e-16  0.3  94.8635308113
2.8449465e-16  0.32  79.1462180598
2.8449465e-16  0.34  66.0330031952
2.8449465e-16  0.36  55.0924304139
2.8449465e-16  0.38  45.9645289785
2.8449465e-16  0.4  38.3489693293
2.8449465e-16  0.42  31.9951815302
2.8449465e-16  0.44  26.6941109254
2.8449465e-16  0.46  22.2713397461
2.8449465e-16  0.48  18.5813483533
2.8449465e-16  0.5  15.5027272972
2.8449465e-16  0.52  12.934182659
2.8449465e-16  0.54  10.7912032411
2.8449465e-16  0.56  9.00327994903
2.8449465e-16  0.58  7.51158587505
2.8449465e-16  0.6  6.26704075378
2.8449465e-16  0.62  5.2286961053
2.8449465e-16  0.64  4.36238793327
2.8449465e-16  0.66  3.63961264856
2.8449465e-16  0.68  3.03658923374
2.8449465e-16  0.7  2.53347679131
2.8449465e-16  0.72  2.1137217312
2.8449465e-16  0.74  1.76351311853
2.8449465e-16  0.76  1.4713282611
2.8449465e-16  0.78  1.2275535856
2.8449465e-16  0.8  1.02416832829
2.8449465e-16  0.82  0.854480632834
2.8449465e-16  0.84  0.712907372473
2.8449465e-16  0.86  0.59479045188
2.8449465e-16  0.88  0.496243544825
2.8449465e-16  0.9  0.414024224838
2.8449465e-16  0.92  0.345427281705
2.8449465e-16  0.94  0.288195713651
2.8449465e-16  0.96  0.240446466639
2.8449465e-16  0.98  0.200608477437
0.02  -1  0.157831176915
0.02  -0.98  0.189174202903
0.02  -0.96  0.226741507879
0.02  -0.94  0.271769145086
0.02  -0.92  0.325738630353
0.02  -0.9  0.390425687473
0.02  -0.88  0.467958673718
0.02  -0.86  0.560888607831
0.02  -0.84  0.672273104578
0.02  -0.82  0.805776977512
0.02  -0.8  0.965792820012
0.02  -0.78  1.157585532
0.02  -0.76  1.38746554761
0.02  -0.74  1.6629964634
0.02  -0.72  1.9932438986
0.02  -0.7  2.38907377541
0.02  -0.68  2.86350983357
0.02  -0.66  3.43216214222
0.02  -0.64  4.11374070814
0.02  -0.62  4.93067107921
0.02  -0.6  5.90983219804
0.02  -0.58  7.08344078279
0.02  -0.56  8.49011133343
0.02  -0.54  10.1761266402
0.02  -0.52  12.1969605969
0.02  -0.5  14.6191034235
0.02  -0.48  17.5222493512
0.02  -0.46  21.0019187518
0.02  -0.44  25.172600984
0.02  -0.42  30.1715213637
0.02  -0.4  36.1631562021
0.02  -0.38  43.3446444658
0.02  -0.36  51.9522741147
0.02  -0.34  62.2692565357
0.02  -0.32  74.6350448672
0.02  -0.3  89.4565028112
0.02  -0.28  107.221291411
0.02  -0.26  128.513914256
0.02  -0.24  154.034949029
0.02  -0.22  184.624098175
0.02  -0.2  87.3914322072
0.02  -0.18  85.4200294718
0.02  -0.16  83.2837411612
0.02  -0.14  81.0620225408
0.02  -0.12  78.8440028331
0.02  -0.1  76.7261887742
0.02  -0.08  74.8087403538
0.02  -0.06  73.1900248362
0.02  -0.04  71.9594871802
0.02  -0.02  71.1894665372
0.02  6.17561557e-16  70.927294257
0.02  0.02  71.1894665372
0.02  0.04  71.9594871802
0.02  0.06  73.1900248362
0.02  0.08  74.8087403538
0.02  0.1  76.7261887742
0.02  0.12  78.8440028331
0.02  0.14  81.0620225408
0.02  0.16  83.2837411612
0.02  0.18  85.4200294718
0.02  0.2  221.287817095
0.02  0.22  184.624098175
0.02  0.24  154.034949029
0.02  0.26  128.513914256
0.02  0.28  107.221291411
0.02  0.3  89.4565028112
0.02  0.32  74.6350448672
0.02  0.34  62.2692565357
0.02  0.36  51.9522741147
0.02  0.38  43.3446444658
0.02  0.4  36.1631562021
0.02  0.42  30.1715213637
0.02  0.44  25.172600984
0.02  0.46  21.0019187518
0.02  0.48  17.5222493512
0.02  0.5  14.6191034235
0.02  0.52  12.1969605969
0.02  0.54  10.1761266402
0.02  0.56  8.49011133343
0.02  0.58  7.08344078279
0.02  0.6  5.90983219804
0.02  0.62  4.93067107921
0.02  0.64  4.11374070814
0.02  0.66  3.43216214222
0.02  0.68  2.86350983357
0.02  0.7  2.38907377541
0.02  0.72  1.9932438986
0.02  0.74  1.6629964634
0.02  0.76  1.38746554761
0.02  0.78  1.157585532
0.02  0.8  0.965792820012
0.02  0.82  0.805776977512
0.02  0.84  0.672273104578
0.02  0.86  0.560888607831
0.02  0.88  0.467958673718
0.02  0.9  0.390425687473
0.02  0.92  0.325738630353
0.02  0.94  0.271769145086
0.02  0.96  0.226741507879
0.02  0.98  0.189174202903
0.04  -1  0.143919042393
0.04  -0.98  0.172499316418
0.04  -0.96  0.206755226201
0.04  -0.94  0.247813872247
0.04  -0.92  0.297026181183
0.04  -0.9  0.356011354442
0.04  -0.88  0.426710143822
0.04  -0.86  0.511448706814
0.04  -0.84  0.613015142689
0.04  -0.82  0.734751227561
0.04  -0.8  0.880662366732
0.04  -0.78  1.055549382
0.04  -0.76  1.26516647007
0.04  -0.74  1.51641052924
0.04  -0.72  1.81754808365
0.04  -0.7  2.17848727155
0.04  -0.68  2.61110384643
0.04  -0.66  3.12963191747
0.04  -0.64  3.7511322854
0.04  -0.62  4.49605378319
0.04  -0.6  5.38890609111
0.04  -0.58  6.45906616317
0.04  -0.56  7.74174479846
0.04  -0.54  9.27914515974
0.04  -0.52  11.1218513574
0.04  -0.5  13.3304927865
0.04  -0.48  15.977738977
0.04  -0.46  19.1506905939
0.04  -0.44  22.9537452547
0.04  -0.42  27.5120324581
0.04  -0.4  32.9755306413
0.04  -0.38  39.5240018246
0.04  -0.36  47.3729062081
0.04  -0.34  56.7804913218
0.04  -0.32  68.0562889804
0.04  -0.3  81.571299613
0.04  -0.28  97.7701990549
0.04  -0.26  117.185969435
0.04  -0.24  140.45743555
0.04  -0.22  168.350283711
0.04  -0.2  87.2138014479
0.04  -0.18  84.4916178455
0.04  -0.16  81.5129775481
0.04  -0.14  78.3798939403
0.04  -0.12  75.2116661796
0.04  -0.1  72.1440519911
0.04  -0.08  69.3261559551
0.04  -0.06  66.9135949797
0.04  -0.04  65.056697934
0.04  -0.02  63.8838149916
0.04  6.17561557e-16  63.4824577072
0.04  0.02  63.8838149916
0.04  0.04  65.056697934
0.04  0.06  66.9135949797
0.04  0.08  69.3261559551
0.04  0.1  72.1440519911
0.04  0.12  75.2116661796
0.04  0.14  78.3798939403
0.04  0.16  81.5129775481
0.04  0.18  84.4916178455
0.04  0.2  201.782254634
0.04  0.22  168.350283711
0.04  0.24  140.45743555
0.04  0.26  117.185969435
0.04  0.28  97.7701990549
0.04  0.3  81.571299613
0.04  0.32  68.0562889804
0.04  0.34  56.7804913218
0.04  0.36  47.3729062081
0.04  0.38  39.5240018246
0.04  0.4  32.9755306413
0.04  0.42  27.5120324581
0.04  0.44  22.9537452547
0.04  0.46  19.1506905939
0.04  0.48  15.977738977
0.04  0.5  13.3304927865
0.04  0.52  11.1218513574
0.04  0.54  9.27914515974
0.04  0.56  7.74174479846
0.04  0.58  6.45906616317
0.04  0.6  5.38890609111
0.04  0.62  4.49605378319
0.04  0.64  3.7511322854
0.04  0.66  3.12963191747
0.04  0.68  2.61110384643
0.04  0.7  2.17848727155
0.04  0.72  1.81754808365
0.04  0.74  1.51641052924
0.04  0.76  1.26516647007
0.04  0.78  1.055549382
0.04  0.8  0.880662366732
0.04  0.82  0.734751227561
0.04  0.84  0.613015142689
0.04  0.86  0.511448706814
0.04  0.88  0.426710143822
0.04  0.9  0.356011354442
0.04  0.92  0.297026181183
0.04  0.94  0.247813872247
0.04  0.96  0.206755226201
0.04  0.98  0.172499316418
0.06  -1  0.126431384351
0.06  -0.98  0.151538858318
0.06  -0.96  0.181632319364
0.06  -0.94  0.217701913581
0.06  -0.92  0.260934415983
0.06  -0.9  0.312752278215
0.06  -0.88  0.374860430581
0.06  -0.86  0.449302378283
0.06  -0.84  0.538527437579
0.06  -0.82  0.645471324086
0.06  -0.8  0.773652744771
0.06  -0.78  0.927289171738
0.06  -0.76  1.11143560704
0.06  -0.74  1.33215090421
0.06  -0.72  1.59669711888
0.06  -0.7  1.91377844762
0.06  -0.68  2.29382761656
0.06  -0.66  2.74934914281
0.06  -0.64  3.29533076265
0.06  -0.62  3.94973656353
0.06  -0.6  4.73409804506
0.06  -0.58  5.6742225563
0.06  -0.56  6.80104241864
0.06  -0.54  8.15163267236
0.06  -0.52  9.77043093319
0.06  -0.5  11.7106994951
0.06  -0.48  14.0362777857
0.06  -0.46  16.8236828346
0.06  -0.44  20.1646268648
0.06  -0.42  24.1690348419
0.06  -0.4  28.9686612653
0.06  -0.38  34.7214252035
0.06  -0.36  41.6166062049
0.06  -0.34  49.8810720431
0.06  -0.32  59.7867432033
0.06  -0.3  71.6595397103
0.06  -0.28  85.8901046679
0.06  -0.26  102.946657342
0.06  -0.24  123.390398684
0.06  -0.22  147.893976166
0.06  -0.2  87.0133186936
0.06  -0.18  83.4336682595
0.06  -0.16  79.4715100557
0.06  -0.14  75.2448894399
0.06  -0.12  70.8984539425
0.06  -0.1  66.6072867874
0.06  -0.08  62.5791752824
0.06  -0.06  59.0516760843
0.06  -0.04  56.2780279918
0.06  -0.02  54.4959160695
0.06  6.17561557e-16  53.8801999306
0.06  0.02  54.4959160695
0.06  0.04  56.2780279918
0.06  0.06  59.0516760843
0.06  0.08  62.5791752824
0.06  0.1  66.6072867874
0.06  0.12  70.8984539425
0.06  0.14  75.2448894399
0.06  0.16  79.4715100557
0.06  0.18  83.4336682595
0.06  0.2  177.26361548
0.06  0.22  147.893976166
0.06  0.24  123.390398684
0.06  0.26  102.946657342
0.06  0.28  85.8901046679
0.06  0.3  71.6595397103
0.06  0.32  59.7867432033
0.06  0.34  49.8810720431
0.06  0.36  41.6166062049
0.06  0.38  34.7214252035
0.06  0.4  28.9686612653
0.06  0.42  24.1690348419
0.06  0.44  20.1646268648
0.06  0.46  16.8236828346
0.06  0.48  14.0362777857
0.06  0.5  11.7106994951
0.06  0.52  9.77043093319
0.06  0.54  8.15163267236
0.06  0.56  6.80104241864
0.06  0.58  5.6742225563
0.06  0.6  4.73409804506
0.06  0.62  3.94973656353
0.06  0.64  3.29533076265
0.06  0.66  2.74934914281
0.06  0.68  2.29382761656
0.06  0.7  1.91377844762
0.06  0.72  1.59669711888
0.06  0.74  1.33215090421
0.06  0.76  1.11143560704
0.06  0.78  0.927289171738
0.06  0.8  0.773652744771
0.06  0.82  0.645471324086
0.06  0.84  0.538527437579
0.06  0.86  0.449302378283
0.06  0.88  0.374860430581
0.06  0.9  0.312752278215
0.06  0.92  0.260934415983
0.06  0.94  0.217701913581
0.06  0.96  0.181632319364
0.06  0.98  0.151538858318
0.08  -1  0.106604503667
0.08  -0.98  0.127774641242
0.08  -0.96  0.153148866913
0.08  -0.94  0.183562052759
0.08  -0.92  0.22001486457
0.08  -0.9  0.263706686128
0.08  -0.88  0.316075081764
0.08  -0.86  0.378843095636
0.08  -0.84  0.454075943949
0.08  -0.82  0.544248965464
0.08  -0.8  0.652329065999
0.08  -0.78  0.781872336651
0.08  -0.76  0.93714105761
0.08  -0.74  1.12324393726
0.08  -0.72  1.3463042008
0.08  -0.7  1.61366105879
0.08  -0.68  1.93411118462
0.08  -0.66  2.31819814581
0.08  -0.64  2.77855931241
0.08  -0.62  3.33034165631
0.08  -0.6  3.99170012251
0.08  -0.58  4.78439496976
0.08  -0.56  5.73450773458
0.08  -0.54  6.87329937555
0.08  -0.52  8.23823883277
0.08  -0.5  9.87423584476
0.08  -0.48  11.8351185851
0.08  -0.46  14.1854047366
0.08  -0.44  17.0024242761
0.08  -0.42  20.3788638133
0.08  -0.4  24.4258162
0.08  -0.38  29.2764357474
0.08  -0.36  35.0903193185
0.08  -0.34  42.0587574423
0.08  -0.32  50.4110282249
0.08  -0.3  60.4219411423
0.08  -0.28  72.4208789218
0.08  -0.26  86.8026350139
0.08  -0.24  104.040403231
0.08  -0.22  124.701346943
0.08  -0.2  86.8169438365
0.08  -0.18  82.386631659
0.08  -0.16  77.4244373769
0.08  -0.14  72.0494402715
0.08  -0.12  66.4131446825
0.08  -0.1  60.7103964486
0.08  -0.08  55.1943063695
0.08  -0.06  50.1923613164
0.08  -0.04  46.1113928599
0.08  -0.02  43.4018294302
0.08  6.17561557e-16  42.4468491052
0.08  0.02  43.4018294302
0.08  0.04  46.1113928599
0.08  0.06  50.1923613164
0.08  0.08  55.1943063695
0.08  0.1  60.7103964486
0.08  0.12  66.4131446825
0.08  0.14  72.0494402715
0.08  0.16  77.4244373769
0.08  0.18  82.386631659
0.08  0.2  149.465260096
0.08  0.22  124.701346943
0.08  0.24  104.040403231
0.08  0.26  86.8026350139
0.08  0.28  72.4208789218
0.08  0.3  60.4219411423
0.08  0.32  50.4110282249
0.08  0.34  42.0587574423
0.08  0.36  35.0903193185
0.08  0.38  29.2764357474
0.08  0.4  24.4258162
0.08  0.42  20.3788638133
0.08  0.44  17.0024242761
0.08  0.46  14.1854047366
0.08  0.48  11.8351185851
0.08  0.5  9.87423584476
0.08  0.52  8.23823883277
0.08  0.54  6.87329937555
0.08  0.56  5.73450773458
0.08  0.58  4.78439496976
0.08  0.6  3.99170012251
0.08  0.62  3.33034165631
0.08  0.64  2.77855931241
0.08  0.66  2.31819814581
0.08  0.68  1.93411118462
0.08  0.7  1.61366105879
0.08  0.72  1.3463042008
0.08  0.74  1.12324393726
0.08  0.76  0.937141057609
0.08  0.78  0.781872336651
0.08  0.8  0.652329065999
0.08  0.82  0.544248965464
0.08  0.84  0.454075943949
0.08  0.86  0.378843095636
0.08  0.88  0.316075081764
0.08  0.9  0.263706686128
0.08  0.92  0.22001486457
0.08  0.94  0.183562052759
0.08  0.96  0.153148866913
0.08  0.98  0.127774641242
0.1  -1  0.0864541219984
0.1  -0.98  0.103622680489
0.1  -0.96  0.124200670409
0.1  -0.94  0.148865156326
0.1  -0.92  0.178427658201
0.1  -0.9  0.21386085231
0.1  -0.88  0.256330574596
0.1  -0.86  0.307234179436
0.1  -0.84  0.368246515901
0.1  -0.82  0.441375034255
0.1  -0.8  0.529025835824
0.1  -0.78  0.634082839419
0.1  -0.76  0.760002669093
0.1  -0.74  0.910928385254
0.1  -0.72  1.09182580115
0.1  -0.7  1.3086468699
0.1  -0.68  1.56852551779
0.1  -0.66  1.8800123674
0.1  -0.64  2.25335607326
0.1  -0.62  2.70084052687
0.1  -0.6  3.23718902581
0.1  -0.58  3.88004870504
0.1  -0.56  4.65057116944
0.1  -0.54  5.57410843168
0.1  -0.52  6.68104705337
0.1  -0.5  8.00780793493
0.1  -0.48  9.59804464936
0.1  -0.46  11.5040797481
0.1  -0.44  13.7886262969
0.1  -0.42  16.526851284
0.1  -0.4  19.8088487918
0.1  -0.38  23.7426043059
0.1  -0.36  28.4575476924
0.1  -0.34  34.1088117475
0.1  -0.32  40.8823364333
0.1  -0.3  49.0009867427
0.1  -0.28  58.7318854848
0.1  -0.26  70.3952022582
0.1  -0.24  84.3746877879
0.1  -0.22  101.130300233
0.1  -0.2  86.6512575067
0.1  -0.18  81.4946302396
0.1  -0.16  75.6579314481
0.1  -0.14  69.2447235517
0.1  -0.12  62.3871036092
0.1  -0.1  55.2595808259
0.1  -0.08  48.1052727174
0.1  -0.06  41.2843078045
0.1  -0.04  35.3526465097
0.1  -0.02  31.1330967704
0.1  6.17561557e-16  29.5709622379
0.1  0.02  31.1330967704
0.1  0.04  35.3526465097
0.1  0.06  41.2843078045
0.1  0.08  48.1052727174
0.1  0.1  55.2595808259
0.1  0.12  62.3871036092
0.1  0.14  69.2447235517
0.1  0.16  75.6579314481
0.1  0.18  81.4946302396
0.1  0.2  121.213338897
0.1  0.22  101.130300233
0.1  0.24  84.3746877879
0.1  0.26  70.3952022582
0.1  0.28  58.7318854848
0.1  0.3  49.0009867427
0.1  0.32  40.8823364333
0.1  0.34  34.1088117475
0.1  0.36  28.4575476924
0.1  0.38  23.7426043059
0.1  0.4  19.8088487918
0.1  0.42  16.526851284
0.1  0.44  13.7886262969
0.1  0.46  11.5040797481
0.1  0.48  9.59804464936
0.1  0.5  8.00780793493
0.1  0.52  6.68104705337
0.1  0.54  5.57410843168
0.1  0.56  4.65057116944
0.1  0.58  3.88004870504
0.1  0.6  3.23718902581
0.1  0.62  2.70084052687
0.1  0.64  2.25335607326
0.1  0.66  1.8800123674
0.1  0.68  1.56852551779
0.1  0.7  1.3086468699
0.1  0.72  1.09182580115
0.1  0.74  0.910928385254
0.1  0.76  0.760002669093
0.1  0.78  0.634082839419
0.1  0.8  0.529025835824
0.1  0.82  0.441375034255
0.1  0.84  0.368246515901
0.1  0.86  0.307234179436
0.1  0.88  0.256330574596
0.1  0.9  0.21386085231
0.1  0.92  0.178427658201
0.1  0.94  0.148865156326
0.1  0.96  0.124200670409
0.1  0.98  0.103622680489
0.12  -1  0.0695601472014
0.12  -0.98  0.0833738026786
0.12  -0.96  0.0999306535819
0.12  -0.94  0.119775459491
0.12  -0.92  0.143561161485
0.12  -0.9  0.172070365454
0.12  -0.88  0.206241091679
0.12  -0.86  0.247197637925
0.12  -0.84  0.296287571493
0.12  -0.82  0.355126067376
0.12  -0.8  0.425649051342
0.12  -0.78  0.510176896466
0.12  -0.76  0.611490768902
0.12  -0.74  0.73292413483
0.12  -0.72  0.878472439381
0.12  -0.7  1.05292456624
0.12  -0.68  1.26202040325
0.12  -0.66  1.51263969831
0.12  -0.64  1.81302841935
0.12  -0.62  2.17307006623
0.12  -0.6  2.60461086121
0.12  -0.58  3.12184951778
0.12  -0.56  3.74180441186
0.12  -0.54  4.48487352669
0.12  -0.52  5.37550559475
0.12  -0.5  6.44300451891
0.12  -0.48  7.72249354018
0.12  -0.46  9.2560708755
0.12  -0.44  11.0941948486
0.12  -0.42  13.2973440886
0.12  -0.4  15.9380074194
0.12  -0.38  19.1030689143
0.12  -0.36  22.896666587
0.12  -0.34  27.4436187793
0.12  -0.32  32.8935309792
0.12  -0.3  39.4257181965
0.12  -0.28  47.2551048499
0.12  -0.26  56.6392962899
0.12  -0.24  67.8870546242
0.12  -0.22  81.3684577217
0.12  -0.2  86.538821032
0.12  -0.18  80.8846892725
0.12  -0.16  74.4372645789
0.12  -0.14  67.2780521899
0.12  -0.12  59.50477286
0.12  -0.1  51.2380558519
0.12  -0.08  42.6376772806
0.12  -0.06  33.9454743534
0.12  -0.04  25.61238858
0.12  -0.02  18.7005334452
0.12  6.17561557e-16  15.6901202391
0.12  0.02  18.7005334452
0.12  0.04  25.61238858
0.12  0.06  33.9454743534
0.12  0.08  42.6376772806
0.12  0.1  51.2380558519
0.12  0.12  59.50477286
0.12  0.14  67.2780521899
0.12  0.16  74.4372645789
0.12  0.18  80.8846892725
0.12  0.2  97.5270756503
0.12  0.22  81.3684577217
0.12  0.24  67.8870546242
0.12  0.26  56.6392962899
0.12  0.28  47.2551048499
0.12  0.3  39.4257181965
0.12  0.32  32.8935309792
0.12  0.34  27.4436187793
0.12  0.36  22.896666587
0.12  0.38  19.1030689143
0.12  0.4  15.9380074194
0.12  0.42  13.2973440886
0.12  0.44  11.0941948486
0.12  0.46  9.2560708755
0.12  0.48  7.72249354018
0.12  0.5  6.44300451891
0.12  0.52  5.37550559475
0.12  0.54  4.48487352669
0.12  0.56  3.74180441186
0.12  0.58  3.12184951778
0.12  0.6  2.60461086121
0.12  0.62  2.17307006623
0.12  0.64  1.81302841935
0.12  0.66  1.51263969831
0.12  0.68  1.26202040325
0.12  0.7  1.05292456624
0.12  0.72  0.878472439381
0.12  0.74  0.73292413483
0.12  0.76  0.611490768902
0.12  0.78  0.510176896466
0.12  0.8  0.425649051342
0.12  0.82  0.355126067376
0.12  0.84  0.296287571493
0.12  0.86  0.247197637925
0.12  0.88  0.206241091679
0.12  0.9  0.172070365454
0.12  0.92  0.143561161485
0.12  0.94  0.119775459491
0.12  0.96  0.0999306535819
0.12  0.98  0.0833738026786
0.14  -1  0.0617467806618
0.14  -0.98  0.0740088127191
0.14  -0.96  0.088705909869
0.14  -0.94  0.106321641391
0.14  -0.92  0.127435606542
0.14  -0.9  0.152742504747
0.14  -0.88  0.183074992848
0.14  -0.86  0.219431081491
0.14  -0.84  0.263006972036
0.14  -0.82  0.31523641441
0.14  -0.8  0.377837880878
0.14  -0.78  0.452871107843
0.14  -0.76  0.542804866051
0.14  -0.74  0.650598188991
0.14  -0.72  0.779797732097
0.14  -0.7  0.93465446611
0.14  -0.68  1.12026354407
0.14  -0.66  1.34273194393
0.14  -0.64  1.60937940254
0.14  -0.62  1.92897925235
0.14  -0.6  2.31204708482
0.14  -0.58  2.77118673823
0.14  -0.56  3.3215049938
0.14  -0.54  3.98110862455
0.14  -0.52  4.77170015102
0.14  -0.5  5.71929190547
0.14  -0.48  6.85506189928
0.14  -0.46  8.21637965321
0.14  -0.44  9.84803574317
0.14  -0.42  11.8037155161
0.14  -0.4  14.147765465
0.14  -0.38  16.9573103807
0.14  -0.36  20.3247909402
0.14  -0.34  24.3610052237
0.14  -0.32  29.1987542334
0.14  -0.3  34.9972113611
0.14  -0.28  41.9471595693
0.14  -0.26  50.2772686022
0.14  -0.24  60.2616187618
0.14  -0.22  72.2287187977
0.14  -0.2  86.4950155092
0.14  -0.18  80.6460218781
0.14  -0.16  73.9566715458
0.14  -0.14  66.496798459
0.14  -0.12  58.3443348252
0.14  -0.1  49.5845625344
0.14  -0.08  40.3093826043
0.14  -0.06  30.6168292466
0.14  -0.04  20.6119221329
0.14  -0.02  10.4185280963
0.14  6.17561557e-16  1.27605694311
0.14  0.02  10.4185280963
0.14  0.04  20.6119221329
0.14  0.06  30.6168292466
0.14  0.08  40.3093826043
0.14  0.1  49.5845625344
0.14  0.12  58.3443348252
0.14  0.14  66.496798459
0.14  0.16  73.9566715458
0.14  0.18  80.6460218781
0.14  0.2  86.5723146234
0.14  0.22  72.2287187977
0.14  0.24  60.2616187618
0.14  0.26  50.2772686022
0.14  0.28  41.9471595693
0.14  0.3  34.9972113611
0.14  0.32  29.1987542334
0.14  0.34  24.3610052237
0.14  0.36  20.3247909402
0.14  0.38  16.9573103807
0.14  0.4  14.147765465
0.14  0.42  11.8037155161
0.14  0.44  9.84803574317
0.14  0.46  8.21637965321
0.14  0.48  6.85506189928
0.14  0.5  5.71929190547
0.14  0.52  4.77170015102
0.14  0.54  3.98110862455
0.14  0.56  3.3215049938
0.14  0.58  2.77118673823
0.14  0.6  2.31204708482
0.14  0.62  1.92897925235
0.14  0.64  1.60937940254
0.14  0.66  1.34273194393
0.14  0.68  1.12026354407
0.14  0.7  0.93465446611
0.14  0.72  0.779797732097
0.14  0.74  0.650598188991
0.14  0.76  0.542804866051
0.14  0.78  0.452871107843
0.14  0.8  0.377837880878
0.14  0.82  0.31523641441
0.14  0.84  0.263006972036
0.14  0.86  0.219431081491
0.14  0.88  0.183074992848
0.14  0.9  0.152742504747
0.14  0.92  0.127435606542
0.14  0.94  0.106321641391
0.14  0.96  0.088705909869
0.14  0.98  0.0740088127191
0.16  -1  0.0673405405793
0.16  -0.98  0.0807134137637
0.16  -0.96  0.0967419492827
0.16  -0.94  0.115953523889
0.16  -0.92  0.138980243855
0.16  -0.9  0.166579742763
0.16  -0.88  0.199660109447
0.16  -0.86  0.23930976626
0.16  -0.84  0.28683328075
0.16  -0.82  0.343794289016
0.16  -0.8  0.412066943036
0.16  -0.78  0.493897574708
0.16  -0.76  0.591978605478
0.16  -0.74  0.709537133385
0.16  -0.72  0.850441112218
0.16  -0.7  1.01932661635
0.16  -0.68  1.22175037857
0.16  -0.66  1.46437261972
0.16  -0.64  1.75517618574
0.16  -0.62  2.10372920219
0.16  -0.6  2.52149988822
0.16  -0.58  3.02223388812
0.16  -0.56  3.62240653556
0.16  -0.54  4.34176493104
0.16  -0.52  5.20397766827
0.16  -0.5  6.23741358687
0.16  -0.48  7.47607517435
0.16  -0.46  8.96071732844
0.16  -0.44  10.7401882897
0.16  -0.42  12.8730368641
0.16  -0.4  15.4294388175
0.16  -0.38  18.4935058244
0.16  -0.36  22.1660529408
0.16  -0.34  26.5679156586
0.16  -0.32  31.8439256791
0.16  -0.3  38.1676762183
0.16  -0.28  45.7472336352
0.16  -0.26  54.8319833073
0.16  -0.24  65.7208349991
0.16  -0.22  78.7720577017
0.16  -0.2  86.5258490216
0.16  -0.18  80.8140742176
0.16  -0.16  74.2952465378
0.16  -0.14  67.0476092568
0.16  -0.12  59.1634466565
0.16  -0.1  50.7539390757
0.16  -0.08  41.9615501736
0.16  -0.06  32.9946155681
0.16  -0.04  24.2391103247
0.16  -0.02  16.6817840539
0.16  6.17561557e-16  13.1813725431
0.16  0.02  16.6817840539
0.16  0.04  24.2391103247
0.16  0.06  32.9946155681
0.16  0.08  41.9615501736
0.16  0.1  50.7539390757
0.16  0.12  59.1634466565
0.16  0.14  67.0476092568
0.16  0.16  74.2952465378
0.16  0.18  80.8140742176
0.16  0.2  94.4150675299
0.16  0.22  78.7720577017
0.16  0.24  65.7208349991
0.16  0.26  54.8319833073
0.16  0.28  45.7472336352
0.16  0.3  38.1676762183
0.16  0.32  31.8439256791
0.16  0.34  26.5679156586
0.16  0.36  22.1660529408
0.16  0.38  18.4935058244
0.16  0.4  15.4294388175
0.16  0.42  12.8730368641
0.16  0.44  10.7401882897
0.16  0.46  8.96071732844
0.16  0.48  7.47607517435
0.16  0.5  6.23741358687
0.16  0.52  5.20397766827
0.16  0.54  4.34176493104
0.16  0.56  3.62240653556
0.16  0.58  3.02223388812
0.16  0.6  2.52149988822
0.16  0.62  2.10372920219
0.16  0.64  1.75517618574
0.16  0.66  1.46437261972
0.16  0.68  1.22175037857
0.16  0.7  1.01932661635
0.16  0.72  0.850441112218
0.16  0.74  0.709537133385
0.16  0.76  0.591978605478
0.16  0.78  0.493897574708
0.16  0.8  0.412066943036
0.16  0.82  0.343794289016
0.16  0.84  0.28683328075
0.16  0.86  0.23930976626
0.16  0.88  0.199660109447
0.16  0.9  0.166579742763
0.16  0.92  0.138980243855
0.16  0.94  0.115953523889
0.16  0.96  0.0967419492827
0.16  0.98  0.0807134137637
0.18  -1  0.083111610732
0.18  -0.98  0.0996163940455
0.18  -0.96  0.119398792482
0.18  -0.94  0.143109693768
0.18  -0.92  0.171529242672
0.18  -0.9  0.205592509612
0.18  -0.88  0.246420256688
0.18  -0.86  0.295355813403
0.18  -0.84  0.354009275388
0.18  -0.82  0.424310480355
0.18  -0.8  0.508572504328
0.18  -0.78  0.609567767314
0.18  -0.76  0.730619252488
0.18  -0.74  0.875709840202
0.18  -0.72  1.04961335417
0.18  -0.7  1.25805163158
0.18  -0.68  1.50788278505
0.18  -0.66  1.80732685081
0.18  -0.64  2.1662362473
0.18  -0.62  2.59641994309
0.18  -0.6  3.11203199986
0.18  -0.58  3.73003727457
0.18  -0.56  4.47076960337
0.18  -0.54  5.35860083294
0.18  -0.52  6.42274271194
0.18  -0.5  7.69820802665
0.18  -0.48  9.22696260453
0.18  -0.46  11.0593060892
0.18  -0.44  13.255526918
0.18  -0.42  15.8878859537
0.18  -0.4  19.0429940387
0.18  -0.38  22.8246616959
0.18  -0.36  27.3573147414
0.18  -0.34  32.7900881874
0.18  -0.32  39.301733138
0.18  -0.3  47.106498123
0.18  -0.28  56.4611783816
0.18  -0.26  67.6735650337
0.18  -0.24  81.1125721362
0.18  -0.22  97.2203748284
0.18  -0.2  86.6270917313
0.18  -0.18  81.3638557796
0.18  -0.16  75.397109861
0.18  -0.14  68.8265579014
0.18  -0.12  61.7786442486
0.18  -0.1  54.4198884544
0.18  -0.08  46.9832648409
0.18  -0.06  39.8204966159
0.18  -0.04  33.4980134995
0.18  -0.02  28.9143726582
0.18  6.17561557e-16  27.190839333
0.18  0.02  28.9143726582
0.18  0.04  33.4980134995
0.18  0.06  39.8204966159
0.18  0.08  46.9832648409
0.18  0.1  54.4198884544
0.18  0.12  61.7786442486
0.18  0.14  68.8265579014
0.18  0.16  75.397109861
0.18  0.18  81.3638557796
0.18  0.2  116.526957941
0.18  0.22  97.2203748284
0.18  0.24  81.1125721362
0.18  0.26  67.6735650337
0.18  0.28  56.4611783816
0.18  0.3  47.106498123
0.18  0.32  39.301733138
0.18  0.34  32.7900881874
0.18  0.36  27.3573147414
0.18  0.38  22.8246616959
0.18  0.4  19.0429940387
0.18  0.42  15.8878859537
0.18  0.44  13.255526918
0.18  0.46  11.0593060892
0.18  0.48  9.22696260453
0.18  0.5  7.69820802665
0.18  0.52  6.42274271194
0.18  0.54  5.35860083294
0.18  0.56  4.47076960337
0.18  0.58  3.73003727457
0.18  0.6  3.11203199986
0.18  0.62  2.59641994309
0.18  0.64  2.1662362473
0.18  0.66  1.80732685081
0.18  0.68  1.50788278505
0.18  0.7  1.25805163158
0.18  0.72  1.04961335417
0.18  0.74  0.875709840202
0.18  0.76  0.730619252488
0.18  0.78  0.609567767314
0.18  0.8  0.508572504328
0.18  0.82  0.424310480355
0.18  0.84  0.354009275388
0.18  0.86  0.295355813403
0.18  0.88  0.246420256688
0.18  0.9  0.205592509612
0.18  0.92  0.171529242672
0.18  0.94  0.143109693768
0.18  0.96  0.119398792482
0.18  0.98  0.0996163940455
0.2  -1  0.103010809648
0.2  -0.98  0.123467290724
0.2  -0.96  0.147986137871
0.2  -0.94  0.177374079188
0.2  -0.92  0.212598047496
0.2  -0.9  0.254816994715
0.2  -0.88  0.305420024127
0.2  -0.86  0.36607209516
0.2  -0.84  0.438768804495
0.2  -0.82  0.525902045916
0.2  -0.8  0.630338709284
0.2  -0.78  0.755515007988
0.2  -0.76  0.905549538507
0.2  -0.74  1.08537879198
0.2  -0.72  1.30091957643
0.2  -0.7  1.5592636938
0.2  -0.68  1.86891127694
0.2  -0.66  2.24005046419
0.2  -0.64  2.68489261316
0.2  -0.62  3.21807408336
0.2  -0.6  3.857137807
0.2  -0.58  4.62311049305
0.2  -0.56  5.54119445569
0.2  -0.54  6.64159683007
0.2  -0.52  7.96052345861
0.2  -0.5  9.54137014885
0.2  -0.48  11.4361504982
0.2  -0.46  13.7072072645
0.2  -0.44  16.4292635903
0.2  -0.42  19.6918815707
0.2  -0.4  23.6024090589
0.2  -0.38  28.2895116642
0.2  -0.36  33.9074061551
0.2  -0.34  40.640934556
0.2  -0.32  48.7116458873
0.2  -0.3  58.3850856526
0.2  -0.28  69.9795329139
0.2  -0.26  83.8764724262
0.2  -0.24  100.533146389
0.2  -0.22  120.497598797
0.2  -0.2  86.7848852867
0.2  -0.18  82.2146614501
0.2  -0.16  77.0855344054
0.2  -0.14  71.5149273833
0.2  -0.12  65.6528261263
0.2  -0.1  59.6937800071
0.2  -0.08  53.8944443985
0.2  -0.06  48.5950739147
0.2  -0.04  44.232860446
0.2  -0.02  41.3115757023
0.2  6.17561557e-16  40.27623834
0.2  0.02  41.3115757023
0.2  0.04  44.232860446
0.2  0.06  48.5950739147
0.2  0.08  53.8944443985
0.2  0.1  59.6937800071
0.2  0.12  65.6528261263
0.2  0.14  71.5149273833
0.2  0.16  77.0855344054
0.2  0.18  82.2146614501
0.2  0.2  144.426707382
0.2  0.22  120.497598797
0.2  0.24  100.533146389
0.2  0.26  83.8764724262
0.2  0.28  69.9795329139
0.2  0.3  58.3850856526
0.2  0.32  48.7116458873
0.2  0.34  40.640934556
0.2  0.36  33.9074061551
0.2  0.38  28.2895116642
0.2  0.4  23.6024090589
0.2  0.42  19.6918815707
0.2  0.44  16.4292635903
0.2  0.46  13.7072072645
0.2  0.48  11.4361504982
0.2  0.5  9.54137014885
0.2  0.52  7.96052345861
0.2  0.54  6.64159683007
0.2  0.56  5.54119445569
0.2  0.58  4.62311049305
0.2  0.6  3.857137807
0.2  0.62  3.21807408336
0.2  0.64  2.68489261316
0.2  0.66  2.24005046419
0.2  0.68  1.86891127694
0.2  0.7  1.5592636938
0.2  0.72  1.30091957643
0.2  0.74  1.08537879198
0.2  0.76  0.905549538507
0.2  0.78  0.755515007988
0.2  0.8  0.630338709284
0.2  0.82  0.525902045916
0.2  0.84  0.438768804495
0.2  0.86  0.36607209516
0.2  0.88  0.305420024127
0.2  0.9  0.254816994715
0.2  0.92  0.212598047496
0.2  0.94  0.177374079188
0.2  0.96  0.147986137871
0.2  0.98  0.123467290724
0.22  -1  0.123071584751
0.22  -0.98  0.147511850322
0.22  -0.96  0.176805604881
0.22  -0.94  0.21191668228
0.22  -0.92  0.254000320062
0.22  -0.9  0.304441169508
0.22  -0.88  0.364898853941
0.22  -0.86  0.437362574264
0.22  -0.84  0.524216558371
0.22  -0.82  0.628318507894
0.22  -0.8  0.753093623347
0.22  -0.78  0.90264730133
0.22  -0.76  1.08190021179
0.22  -0.74  1.29675019972
0.22  -0.72  1.55426633819
0.22  -0.7  1.86292151762
0.22  -0.68  2.2328712239
0.22  -0.66  2.6762876779
0.22  -0.64  3.20776033038
0.22  -0.62  3.84477588944
0.22  -0.6  4.60829367456
0.22  -0.58  5.52343522787
0.22  -0.56  6.6203108723
0.22  -0.54  7.9350104125
0.22  -0.52  9.5107905748
0.22  -0.5  11.3994982559
0.22  -0.48  13.6632764084
0.22  -0.46  16.3766086912
0.22  -0.44  19.6287701578
0.22  -0.42  23.5267646175
0.22  -0.4  28.198845313
0.22  -0.38  33.7987347566
0.22  -0.36  40.5106825641
0.22  -0.34  48.5555277031
0.22  -0.32  58.1979646184
0.22  -0.3  69.7552523048
0.22  -0.28  83.6076528794
0.22  -0.26  100.210943105
0.22  -0.24  120.111410525
0.22  -0.22  143.963827615
0.22  -0.2  86.9777230975
0.22  -0.18  83.2446811166
0.22  -0.16  79.104041105
0.22  -0.14  74.6752897556
0.22  -0.12  70.1059914755
0.22  -0.1  65.5767950574
0.22  -0.08  61.3054232868
0.22  -0.06  57.5456897666
0.22  -0.04  54.5743034351
0.22  -0.02  52.6569559181
0.22  6.17561557e-16  51.9928684828
0.22  0.02  52.6569559181
0.22  0.04  54.5743034351
0.22  0.06  57.5456897666
0.22  0.08  61.3054232868
0.22  0.1  65.5767950574
0.22  0.12  70.1059914755
0.22  0.14  74.6752897556
0.22  0.16  79.104041105
0.22  0.18  83.2446811166
0.22  0.2  172.552995348
0.22  0.22  143.963827615
0.22  0.24  120.111410525
0.22  0.26  100.210943105
0.22  0.28  83.6076528794
0.22  0.3  69.7552523048
0.22  0.32  58.1979646184
0.22  0.34  48.5555277031
0.22  0.36  40.5106825641
0.22  0.38  33.7987347566
0.22  0.4  28.198845313
0.22  0.42  23.5267646175
0.22  0.44  19.6287701578
0.22  0.46  16.3766086912
0.22  0.48  13.6632764084
0.22  0.5  11.3994982559
0.22  0.52  9.5107905748
0.22  0.54  7.9350104125
0.22  0.56  6.6203108723
0.22  0.58  5.52343522787
0.22  0.6  4.60829367456
0.22  0.62  3.84477588944
0.22  0.64  3.20776033038
0.22  0.66  2.6762876779
0.22  0.68  2.2328712239
0.22  0.7  1.86292151762
0.22  0.72  1.55426633819
0.22  0.74  1.29675019972
0.22  0.76  1.08190021179
0.22  0.78  0.90264730133
0.22  0.8  0.753093623347
0.22  0.82  0.628318507894
0.22  0.84  0.524216558371
0.22  0.86  0.437362574264
0.22  0.88  0.364898853941
0.22  0.9  0.304441169508
0.22  0.92  0.254000320062
0.22  0.94  0.21191668228
0.22  0.96  0.176805604881
0.22  0.98  0.147511850322
0.24  -1  0.141075902016
0.24  -0.98  0.169091568817
0.24  -0.96  0.202670748415
0.24  -0.94  0.24291827529
0.24  -0.92  0.291158388328
0.24  -0.9  0.348978301417
0.24  -0.88  0.418280426539
0.24  -0.86  0.501344967623
0.24  -0.84  0.600904944659
0.24  -0.82  0.720236116516
0.24  -0.8  0.863264761165
0.24  -0.78  1.03469685952
0.24  -0.76  1.24017293333
0.24  -0.74  1.48645363172
0.24  -0.72  1.78164217254
0.24  -0.7  2.13545095739
0.24  -0.68  2.55952113264
0.24  -0.66  3.06780561068
0.24  -0.64  3.67702815379
0.24  -0.62  4.40723362545
0.24  -0.6  5.28244751385
0.24  -0.58  6.33146642725
0.24  -0.56  7.58880557057
0.24  -0.54  9.09583437733
0.24  -0.52  10.9021376619
0.24  -0.5  13.0671470773
0.24  -0.48  15.6620965571
0.24  -0.46  18.7723660806
0.24  -0.44  22.5002908761
0.24  -0.42  26.9685284921
0.24  -0.4  32.324094521
0.24  -0.38  38.74319976
0.24  -0.36  46.4370479634
0.24  -0.34  55.6587849458
0.24  -0.32  66.7118276786
0.24  -0.3  79.9598474268
0.24  -0.28  95.8387353935
0.24  -0.26  114.870944573
0.24  -0.24  137.68267969
0.24  -0.22  165.024500818
0.24  -0.2  87.1794741365
0.24  -0.18  84.3112421509
0.24  -0.16  81.1667434575
0.24  -0.14  77.8515609593
0.24  -0.12  74.4901754911
0.24  -0.1  71.2256929122
0.24  -0.08  68.2172137769
0.24  -0.06  65.6330721665
0.24  -0.04  63.6381982029
0.24  -0.02  62.3752643884
0.24  6.17561557e-16  61.9425456412
0.24  0.02  62.3752643884
0.24  0.04  63.6381982029
0.24  0.06  65.6330721665
0.24  0.08  68.2172137769
0.24  0.1  71.2256929122
0.24  0.12  74.4901754911
0.24  0.14  77.8515609593
0.24  0.16  81.1667434575
0.24  0.18  84.3112421509
0.24  0.2  197.796018581
0.24  0.22  165.024500818
0.24  0.24  137.68267969
0.24  0.26  114.870944573
0.24  0.28  95.8387353935
0.24  0.3  79.9598474268
0.24  0.32  66.7118276786
0.24  0.34  55.6587849458
0.24  0.36  46.4370479634
0.24  0.38  38.74319976
0.24  0.4  32.324094521
0.24  0.42  26.9685284921
0.24  0.44  22.5002908761
0.24  0.46  18.7723660806
0.24  0.48  15.6620965571
0.24  0.5  13.0671470773
0.24  0.52  10.9021376619
0.24  0.54  9.09583437733
0.24  0.56  7.58880557057
0.24  0.58  6.33146642725
0.24  0.6  5.28244751385
0.24  0.62  4.40723362545
0.24  0.64  3.67702815379
0.24  0.66  3.06780561068
0.24  0.68  2.55952113264
0.24  0.7  2.13545095739
0.24  0.72  1.78164217254
0.24  0.74  1.48645363172
0.24  0.76  1.24017293333
0.24  0.78  1.03469685952
0.24  0.8  0.863264761165
0.24  0.82  0.720236116516
0.24  0.84  0.600904944659
0.24  0.86  0.501344967623
0.24  0.88  0.418280426539
0.24  0.9  0.348978301417
0.24  0.92  0.291158388328
0.24  0.94  0.24291827529
0.24  0.96  0.202670748415
0.24  0.98  0.169091568817
0.26  -1  0.15568433221
0.26  -0.98  0.186601025387
0.26  -0.96  0.223657333921
0.26  -0.94  0.268072498064
0.26  -0.92  0.321307881831
0.26  -0.9  0.385115055339
0.26  -0.88  0.461593425607
0.26  -0.86  0.553259312015
0.26  -0.84  0.663128739169
0.26  -0.82  0.794816671246
0.26  -0.8  0.952655952873
0.26  -0.78  1.14183986997
0.26  -0.76  1.36859302114
0.26  -0.74  1.64037612171
0.26  -0.72  1.96613147891
0.26  -0.7  2.35657721494
0.26  -0.68  2.82455991858
0.26  -0.66  3.38547732833
0.26  -0.64  4.05778495447
0.26  -0.62  4.86360330905
0.26  -0.6  5.82944572302
0.26  -0.58  6.98709069763
0.26  -0.56  8.37462749231
0.26  -0.54  10.0377093514
0.26  -0.52  12.0310556041
0.26  -0.5  14.4202520597
0.26  -0.48  17.283908936
0.26  -0.46  20.7162473215
0.26  -0.44  24.8301992723
0.26  -0.42  29.761123544
0.26  -0.4  35.671259215
0.26  -0.38  42.7550637361
0.26  -0.36  51.2456110411
0.26  -0.34  61.4222602306
0.26  -0.32  73.6198471478
0.26  -0.3  88.2397012697
0.26  -0.28  105.762850397
0.26  -0.26  126.765847608
0.26  -0.24  151.939741218
0.26  -0.22  182.112811905
0.26  -0.2  87.3629767489
0.26  -0.18  85.2718564489
0.26  -0.16  83.0023752653
0.26  -0.14  80.6379986533
0.26  -0.12  78.2729727824
0.26  -0.1  76.0101246207
0.26  -0.08  73.957073746
0.26  -0.06  72.2204425727
0.26  -0.04  70.8980073329
0.26  -0.02  70.0694333733
0.26  6.17561557e-16  69.7871347543
0.26  0.02  70.0694333733
0.26  0.04  70.8980073329
0.26  0.06  72.2204425727
0.26  0.08  73.957073746
0.26  0.1  76.0101246207
0.26  0.12  78.2729727824
0.26  0.14  80.6379986533
0.26  0.16  83.0023752653
0.26  0.18  85.2718564489
0.26  0.2  218.277825104
0.26  0.22  182.112811905
0.26  0.24  151.939741218
0.26  0.26  126.765847608
0.26  0.28  105.762850397
0.26  0.3  88.2397012697
0.26  0.32  73.6198471478
0.26  0.34  61.4222602306
0.26  0.36  51.2456110411
0.26  0.38  42.7550637361
0.26  0.4  35.671259215
0.26  0.42  29.761123544
0.26  0.44  24.8301992723
0.26  0.46  20.7162473215
0.26  0.48  17.283908936
0.26  0.5  14.4202520597
0.26  0.52  12.0310556041
0.26  0.54  10.0377093514
0.26  0.56  8.37462749231
0.26  0.58  6.98709069763
0.26  0.6  5.82944572302
0.26  0.62  4.86360330905
0.26  0.64  4.05778495447
0.26  0.66  3.38547732833
0.26  0.68  2.82455991858
0.26  0.7  2.35657721494
0.26  0.72  1.96613147891
0.26  0.74  1.64037612171
0.26  0.76  1.36859302114
0.26  0.78  1.14183986997
0.26  0.8  0.952655952873
0.26  0.82  0.794816671246
0.26  0.84  0.663128739169
0.26  0.86  0.553259312015
0.26  0.88  0.461593425607
0.26  0.9  0.385115055339
0.26  0.92  0.321307881831
0.26  0.94  0.268072498064
0.26  0.96  0.223657333921
0.26  0.98  0.186601025387
0.28  -1  0.166035858712
0.28  -0.98  0.199008217763
0.28  -0.96  0.238528418163
0.28  -0.94  0.285896768039
0.28  -0.92  0.342671798205
0.28  -0.9  0.410721541523
0.28  -0.88  0.492284995597
0.28  -0.86  0.590045791101
0.28  -0.84  0.707220489574
0.28  -0.82  0.847664415909
0.28  -0.8  1.01599850767
0.28  -0.78  1.21776135486
0.28  -0.76  1.45959143265
0.28  -0.74  1.74944552295
0.28  -0.72  2.09686051131
0.28  -0.7  2.51326717307
0.28  -0.68  3.01236627288
0.28  -0.66  3.61057935233
0.28  -0.64  4.32758903752
0.28  -0.62  5.186986644
0.28  -0.6  6.21704838693
0.28  -0.58  7.45166573548
0.28  -0.56  8.93146052233
0.28  -0.54  10.7051214982
0.28  -0.52  12.8310063067
0.28  -0.5  15.3790615895
0.28  -0.48  18.4331243957
0.28  -0.46  22.0936806195
0.28  -0.44  26.4811712242
0.28  -0.42  31.7399550342
0.28  -0.4  38.0430584827
0.28  -0.38  45.5978685905
0.28  -0.36  54.6529564899
0.28  -0.34  65.5062560032
0.28  -0.32  78.5148663704
0.28  -0.3  94.1068016597
0.28  -0.28  112.795073443
0.28  -0.26  135.194570091
0.28  -0.24  162.042288055
0.28  -0.22  194.221580797
0.28  -0.2  87.5036818268
0.28  -0.18  86.0025120188
0.28  -0.16  84.3853899503
0.28  -0.14  82.7148090673
0.28  -0.12  81.0591061908
0.28  -0.1  79.4901791706
0.28  -0.08  78.0803766618
0.28  -0.06  76.8985524803
0.28  -0.04  76.0054763843
0.28  -0.02  75.449053241
0.28  6.17561557e-16  75.2600411804
0.28  0.02  75.449053241
0.28  0.04  76.0054763843
0.28  0.06  76.8985524803
0.28  0.08  78.0803766618
0.28  0.1  79.4901791706
0.28  0.12  81.0591061908
0.28  0.14  82.7148090673
0.28  0.16  84.3853899503
0.28  0.18  86.0025120188
0.28  0.2  232.791223205
0.28  0.22  194.221580797
0.28  0.24  162.042288055
0.28  0.26  135.194570091
0.28  0.28  112.795073443
0.28  0.3  94.1068016597
0.28  0.32  78.5148663704
0.28  0.34  65.5062560032
0.28  0.36  54.6529564899
0.28  0.38  45.5978685905
0.28  0.4  38.0430584827
0.28  0.42  31.7399550342
0.28  0.44  26.4811712242
0.28  0.46  22.0936806195
0.28  0.48  18.4331243957
0.28  0.5  15.3790615895
0.28  0.52  12.8310063067
0.28  0.54  10.7051214982
0.28  0.56  8.93146052233
0.28  0.58  7.45166573548
0.28  0.6  6.21704838693
0.28  0.62  5.186986644
0.28  0.64  4.32758903752
0.28  0.66  3.61057935233
0.28  0.68  3.01236627288
0.28  0.7  2.51326717307
0.28  0.72  2.09686051131
0.28  0.74  1.74944552295
0.28  0.76  1.45959143265
0.28  0.78  1.21776135486
0.28  0.8  1.01599850767
0.28  0.82  0.847664415909
0.28  0.84  0.707220489574
0.28  0.86  0.590045791101
0.28  0.88  0.492284995597
0.28  0.9  0.410721541523
0.28  0.92  0.342671798205
0.28  0.94  0.285896768039
0.28  0.96  0.238528418163
0.28  0.98  0.199008217763
0.3  -1  0.189712020364
0.3  -0.98  0.227386128235
0.3  -0.96  0.272541777873
0.3  -0.94  0.326664697017
0.3  -0.92  0.3915356578
0.3  -0.9  0.469289068359
0.3  -0.88  0.562483199918
0.3  -0.86  0.674184359965
0.3  -0.84  0.808067781024
0.3  -0.82  0.968538544505
0.3  -0.8  1.16087651831
0.3  -0.78  1.39141007697
0.3  -0.76  1.66772432017
0.3  -0.74  1.99891064045
0.3  -0.72  2.39586585156
0.3  -0.7  2.8716507194
0.3  -0.68  3.44191969215
0.3  -0.66  4.12543596864
0.3  -0.64  4.94468885204
0.3  -0.62  5.9266337011
0.3  -0.6  7.10357882529
0.3  -0.58  8.51424850463
0.3  -0.56  10.2050571102
0.3  -0.54  12.2316362466
0.3  -0.52  14.6606651637
0.3  -0.5  17.5720646617
0.3  -0.48  21.0616266742
0.3  -0.46  25.2441660502
0.3  -0.44  30.2572982337
0.3  -0.42  36.265967138
0.3  -0.4  43.4678721907
0.3  -0.38  52.0999731124
0.3  -0.36  62.4462864527
0.3  -0.34  74.8472304069
0.3  -0.32  89.71082538
0.3  -0.3  107.526118824
0.3  -0.28  128.879276055
0.3  -0.26  154.472866483
0.3  -0.24  185.148979804
0.3  -0.22  221.916932746
0.3  -0.2  143.314443601
0.3  -0.18  136.577196284
0.3  -0.16  129.067755362
0.3  -0.14  120.985365257
0.3  -0.12  112.580206502
0.3  -0.1  104.166522844
0.3  -0.08  96.1373344898
0.3  -0.06  88.9739159632
0.3  -0.04  83.2329558579
0.3  -0.02  79.4833644086
0.3  6.17561557e-16  78.1752707893
0.3  0.02  79.4833644086
0.3  0.04  83.2329558579
0.3  0.06  88.9739159632
0.3  0.08  96.1373344898
0.3  0.1  104.166522844
0.3  0.12  112.580206502
0.3  0.14  120.985365257
0.3  0.16  129.067755362
0.3  0.18  136.577196284
0.3  0.2  265.986477979
0.3  0.22  221.916932746
0.3  0.24  185.148979804
0.3  0.26  154.472866483
0.3  0.28  128.879276055
0.3  0.3  107.526118824
0.3  0.32  89.71082538
0.3  0.34  74.8472304069
0.3  0.36  62.4462864527
0.3  0.38  52.0999731124
0.3  0.4  43.4678721907
0.3  0.42  36.265967138
0.3  0.44  30.2572982337
0.3  0.46  25.2441660502
0.3  0.48  21.0616266742
0.3  0.5  17.5720646617
0.3  0.52  14.6606651637
0.3  0.54  12.2316362466
0.3  0.56  10.2050571102
0.3  0.58  8.51424850463
0.3  0.6  7.10357882528
0.3  0.62  5.9266337011
0.3  0.64  4.94468885204
0.3  0.66  4.12543596864
0.3  0.68  3.44191969215
0.3  0.7  2.8716507194
0.3  0.72  2.39586585156
0.3  0.74  1.99891064045
0.3  0.76  1.66772432017
0.3  0.78  1.39141007697
0.3  0.8  1.16087651831
0.3  0.82  0.968538544505
0.3  0.84  0.808067781024
0.3  0.86  0.674184359965
0.3  0.88  0.562483199918
0.3  0.9  0.469289068359
0.3  0.92  0.3915356578
0.3  0.94  0.326664697017
0.3  0.96  0.272541777873
0.3  0.98  0.227386128235
0.32  -1  0.165023235429
0.32  -0.98  0.197794501904
0.32  -0.96  0.237073675605
0.32  -0.94  0.284153134308
0.32  -0.92  0.340581903625
0.32  -0.9  0.408216623616
0.32  -0.88  0.489282636636
0.32  -0.86  0.58644720637
0.32  -0.84  0.702907277119
0.32  -0.82  0.842494660832
0.32  -0.8  1.00980211279
0.32  -0.78  1.21033444412
0.32  -0.76  1.45068964313
0.32  -0.74  1.73877596469
0.32  -0.72  2.08407213059
0.32  -0.7  2.4979392019
0.32  -0.68  2.99399438473
0.32  -0.66  3.58855906861
0.32  -0.64  4.30119583877
0.32  -0.62  5.15535213152
0.32  -0.6  6.1791317104
0.32  -0.58  7.4062193465
0.32  -0.56  8.87698912715
0.32  -0.54  10.639832859
0.32  -0.52  12.7527522728
0.32  -0.5  15.2852674178
0.32  -0.48  18.3207040361
0.32  -0.46  21.9589351762
0.32  -0.44  26.319667253
0.32  -0.42  31.5463786723
0.32  -0.4  37.8110406097
0.32  -0.38  45.3197752693
0.32  -0.36  54.3196377921
0.32  -0.34  65.1067449547
0.32  -0.32  78.0360181122
0.32  -0.3  93.5328609509
0.32  -0.28  112.107156276
0.32  -0.26  134.370042363
0.32  -0.24  161.054020852
0.32  -0.22  193.037057789
0.32  -0.2  124.66375679
0.32  -0.18  118.803282857
0.32  -0.16  112.271107221
0.32  -0.14  105.24054499
0.32  -0.12  97.9292186476
0.32  -0.1  90.6104768171
0.32  -0.08  83.6261927558
0.32  -0.06  77.3950087764
0.32  -0.04  72.4011670091
0.32  -0.02  69.1395407225
0.32  6.17561557e-16  68.0016800805
0.32  0.02  69.1395407225
0.32  0.04  72.4011670091
0.32  0.06  77.3950087764
0.32  0.08  83.6261927558
0.32  0.1  90.6104768171
0.32  0.12  97.9292186476
0.32  0.14  105.24054499
0.32  0.16  112.271107221
0.32  0.18  118.803282857
0.32  0.2  231.371470782
0.32  0.22  193.037057789
0.32  0.24  161.054020852
0.32  0.26  134.370042363
0.32  0.28  112.107156276
0.32  0.3  93.5328609509
0.32  0.32  78.0360181122
0.32  0.34  65.1067449547
0.32  0.36  54.3196377921
0.32  0.38  45.3197752693
0.32  0.4  37.8110406097
0.32  0.42  31.5463786723
0.32  0.44  26.319667253
0.32  0.46  21.9589351762
0.32  0.48  18.3207040361
0.32  0.5  15.2852674178
0.32  0.52  12.7527522728
0.32  0.54  10.639832859
0.32  0.56  8.87698912715
0.32  0.58  7.4062193465
0.32  0.6  6.1791317104
0.32  0.62  5.15535213152
0.32  0.64  4.30119583877
0.32  0.66  3.58855906861
0.32  0.68  2.99399438473
0.32  0.7  2.4979392019
0.32  0.72  2.08407213059
0.32  0.74  1.73877596469
0.32  0.76  1.45068964313
0.32  0.78  1.21033444412
0.32  0.8  1.00980211279
0.32  0.82  0.842494660832
0.32  0.84  0.702907277119
0.32  0.86  0.58644720637
0.32  0.88  0.489282636636
0.32  0.9  0.408216623616
0.32  0.92  0.340581903625
0.32  0.94  0.284153134308
0.32  0.96  0.237073675605
0.32  0.98  0.197794501904
0.34  -1  0.143547405058
0.34  -0.98  0.172053877196
0.34  -0.96  0.206221329088
0.34  -0.94  0.247173950765
0.34  -0.92  0.296259180399
0.34  -0.9  0.355092038216
0.34  -0.88  0.425608264474
0.34  -0.86  0.510128009906
0.34  -0.84  0.611432174168
0.34  -0.82  0.732853904015
0.34  -0.8  0.878388261726
0.34  -0.78  1.0528236721
0.34  -0.76  1.26189947297
0.34  -0.74  1.51249475299
0.34  -0.72  1.81285468996
0.34  -0.7  2.17286183665
0.34  -0.68  2.60436128021
0.34  -0.66  3.12155037354
0.34  -0.64  3.74144586182
0.34  -0.62  4.48444377372
0.34  -0.6  5.37499049896
0.34  -0.58  6.44238713242
0.34  -0.56  7.72175354952
0.34  -0.54  9.25518393322
0.34  -0.52  11.0931317723
0.34  -0.5  13.2960699003
0.34  -0.48  15.9364801955
0.34  -0.46  19.1012384055
0.34  -0.44  22.8944725652
0.34  -0.42  27.4409890559
0.34  -0.4  32.8903790303
0.34  -0.38  39.4219403152
0.34  -0.36  47.2505767352
0.34  -0.34  56.6338689561
0.34  -0.32  67.8805494992
0.34  -0.3  81.3606607714
0.34  -0.28  97.5177303365
0.34  -0.26  116.883364022
0.34  -0.24  140.094737007
0.34  -0.22  167.915558398
0.34  -0.2  108.440237191
0.34  -0.18  103.342434913
0.34  -0.16  97.6603449972
0.34  -0.14  91.5447276312
0.34  -0.12  85.1848842961
0.34  -0.1  78.8185905113
0.34  -0.08  72.7432287565
0.34  -0.06  67.3229599783
0.34  -0.04  62.9790078972
0.34  -0.02  60.1418438549
0.34  6.17561557e-16  59.1520623732
0.34  0.02  60.1418438549
0.34  0.04  62.9790078972
0.34  0.06  67.3229599783
0.34  0.08  72.7432287565
0.34  0.1  78.8185905113
0.34  0.12  85.1848842961
0.34  0.14  91.5447276312
0.34  0.16  97.6603449972
0.34  0.18  103.342434913
0.34  0.2  201.26119906
0.34  0.22  167.915558398
0.34  0.24  140.094737007
0.34  0.26  116.883364022
0.34  0.28  97.5177303365
0.34  0.3  81.3606607714
0.34  0.32  67.8805494992
0.34  0.34  56.6338689561
0.34  0.36  47.2505767352
0.34  0.38  39.4219403152
0.34  0.4  32.8903790303
0.34  0.42  27.4409890559
0.34  0.44  22.8944725652
0.34  0.46  19.1012384055
0.34  0.48  15.9364801955
0.34  0.5  13.2960699003
0.34  0.52  11.0931317723
0.34  0.54  9.25518393322
0.34  0.56  7.72175354952
0.34  0.58  6.44238713242
0.34  0.6  5.37499049896
0.34  0.62  4.48444377372
0.34  0.64  3.74144586182
0.34  0.66  3.12155037354
0.34  0.68  2.60436128021
0.34  0.7  2.17286183665
0.34  0.72  1.81285468996
0.34  0.74  1.51249475299
0.34  0.76  1.26189947297
0.34  0.78  1.0528236721
0.34  0.8  0.878388261726
0.34  0.82  0.732853904015
0.34  0.84  0.611432174168
0.34  0.86  0.510128009906
0.34  0.88  0.425608264474
0.34  0.9  0.355092038216
0.34  0.92  0.296259180399
0.34  0.94  0.247173950765
0.34  0.96  0.206221329088
0.34  0.98  0.172053877196
0.36  -1  0.124866401057
0.36  -0.98  0.149663091609
0.36  -0.96  0.179384052077
