0.16  -0.1  49.5987121271
0.16  -0.08  40.6975386006
0.16  -0.06  31.6212502526
0.16  -0.04  22.6691607824
0.16  -0.02  14.6729187686
0.16  6.17561557e-16  10.704450962
0.16  0.02  14.6729187686
0.16  0.04  22.6691607825
0.16  0.06  31.6212502526
0.16  0.08  40.6975386006
0.16  0.1  49.5987121271
0.16  0.12  58.1631054854
0.16  0.14  66.2772213833
0.16  0.16  73.8498105394
0.16  0.18  80.8029100726
0.16  0.2  94.974383171
0.16  0.22  78.0222493029
0.16  0.24  64.0959296921
0.16  0.26  52.655341775
0.16  0.28  43.2568032129
0.16  0.3  35.5358252577
0.16  0.32  29.1929773574
0.16  0.34  23.9822748116
0.16  0.36  19.7016391339
0.16  0.38  16.1850611592
0.16  0.4  13.2961629714
0.16  0.42  10.9229089728
0.16  0.44  8.97326098402
0.16  0.46  7.37160887157
0.16  0.48  6.0558382791
0.16  0.5  4.97492174389
0.16  0.52  4.08693977896
0.16  0.54  3.35745517553
0.16  0.56  2.75817747883
0.16  0.58  2.26586584393
0.16  0.6  1.8614277225
0.16  0.62  1.52917842659
0.16  0.64  1.25623285401
0.16  0.66  1.03200578562
0.16  0.68  0.847801375476
0.16  0.7  0.696475913485
0.16  0.72  0.572160782108
0.16  0.74  0.470034863008
0.16  0.76  0.386137567186
0.16  0.78  0.317215237691
0.16  0.8  0.260594968153
0.16  0.82  0.214080943655
0.16  0.84  0.175869283897
0.16  0.86  0.144478086141
0.16  0.88  0.118689954905
0.16  0.9  0.0975047896302
0.16  0.92  0.0801009993511
0.16  0.94  0.0658036402251
0.16  0.96  0.0540582402461
0.16  0.98  0.0444092960284
0.18  -1  0.0455564055483
0.18  -0.98  0.0554545857764
0.18  -0.96  0.0675033740397
0.18  -0.94  0.082170039555
0.18  -0.92  0.100023376557
0.18  -0.9  0.121755762953
0.18  -0.88  0.148210011725
0.18  -0.86  0.180412056421
0.18  -0.84  0.219610738326
0.18  -0.82  0.267326238305
0.18  -0.8  0.325409031594
0.18  -0.78  0.396111651869
0.18  -0.76  0.48217604772
0.18  -0.74  0.586939919333
0.18  -0.72  0.714466159271
0.18  -0.7  0.869700417247
0.18  -0.68  1.05866289949
0.18  -0.66  1.28868184093
0.18  -0.64  1.56867770462
0.18  -0.62  1.90950913004
0.18  -0.6  2.32439404664
0.18  -0.58  2.82942228401
0.18  -0.56  3.44417955846
0.18  -0.54  4.19250703508
0.18  -0.52  5.10342592214
0.18  -0.5  6.21226295506
0.18  -0.48  7.56202041756
0.18  -0.46  9.20504383174
0.18  -0.44  11.2050519921
0.18  -0.42  13.6396080715
0.18  -0.4  16.6031276317
0.18  -0.38  20.2105401936
0.18  -0.36  24.6017463684
0.18  -0.34  29.9470434029
0.18  -0.32  36.4537295502
0.18  -0.3  44.3741433917
0.18  -0.28  54.015449888
0.18  -0.26  65.7515526744
0.18  -0.24  80.0375945783
0.18  -0.22  97.4276087075
0.18  -0.2  87.2611376197
0.18  -0.18  81.3276021368
0.18  -0.16  74.7762409319
0.18  -0.14  67.6926168664
0.18  -0.12  60.182890573
0.18  -0.1  52.3854055291
0.18  -0.08  44.495181138
0.18  -0.06  36.8178864241
0.18  -0.04  29.8885983411
0.18  -0.02  24.684904613
0.18  6.17561557e-16  22.6619435501
0.18  0.02  24.684904613
0.18  0.04  29.8885983411
0.18  0.06  36.8178864241
0.18  0.08  44.495181138
0.18  0.1  52.3854055291
0.18  0.12  60.182890573
0.18  0.14  67.6926168664
0.18  0.16  74.7762409319
0.18  0.18  81.3276021368
0.18  0.2  118.596004646
0.18  0.22  97.4276087075
0.18  0.24  80.0375945783
0.18  0.26  65.7515526744
0.18  0.28  54.015449888
0.18  0.3  44.3741433917
0.18  0.32  36.4537295502
0.18  0.34  29.9470434029
0.18  0.36  24.6017463684
0.18  0.38  20.2105401936
0.18  0.4  16.6031276317
0.18  0.42  13.6396080715
0.18  0.44  11.2050519921
0.18  0.46  9.20504383174
0.18  0.48  7.56202041756
0.18  0.5  6.21226295506
0.18  0.52  5.10342592214
0.18  0.54  4.19250703507
0.18  0.56  3.44417955846
0.18  0.58  2.82942228401
0.18  0.6  2.32439404664
0.18  0.62  1.90950913004
0.18  0.64  1.56867770462
0.18  0.66  1.28868184093
0.18  0.68  1.05866289949
0.18  0.7  0.869700417247
0.18  0.72  0.71446615927
0.18  0.74  0.586939919333
0.18  0.76  0.48217604772
0.18  0.78  0.396111651869
0.18  0.8  0.325409031594
0.18  0.82  0.267326238305
0.18  0.84  0.219610738326
0.18  0.86  0.180412056421
0.18  0.88  0.148210011725
0.18  0.9  0.121755762953
0.18  0.92  0.100023376557
0.18  0.94  0.082170039555
0.18  0.96  0.0675033740397
0.18  0.98  0.0554545857764
0.2  -1  0.0570328533687
0.2  -0.98  0.0694245566819
0.2  -0.96  0.0845086434535
0.2  -0.94  0.102870096111
0.2  -0.92  0.125220998013
0.2  -0.9  0.152428149055
0.2  -0.88  0.185546681411
0.2  -0.86  0.225860979066
0.2  -0.84  0.274934488057
0.2  -0.82  0.33467034915
0.2  -0.8  0.40738520435
0.2  -0.78  0.495899039593
0.2  -0.76  0.603644547821
0.2  -0.74  0.734800253723
0.2  -0.72  0.894452562888
0.2  -0.7  1.08879301988
0.2  -0.68  1.32535842516
0.2  -0.66  1.61332312302
0.2  -0.64  1.96385479569
0.2  -0.62  2.39054756207
0.2  -0.6  2.90994917702
0.2  -0.58  3.54220277698
0.2  -0.56  4.3118280595
0.2  -0.54  5.24867219222
0.2  -0.52  6.38906732858
0.2  -0.5  7.77723962064
0.2  -0.48  9.46702437244
0.2  -0.46  11.52395385
0.2  -0.44  14.027798716
0.2  -0.42  17.0756616504
0.2  -0.4  20.7857431306
0.2  -0.38  25.3019254151
0.2  -0.36  30.7993525028
0.2  -0.34  37.4912224674
0.2  -0.32  45.6370555832
0.2  -0.3  55.5527588923
0.2  -0.28  67.6228775303
0.2  -0.26  82.3155079361
0.2  -0.24  100.200451301
0.2  -0.22  121.97131127
0.2  -0.2  87.5650755909
0.2  -0.18  82.1506198789
0.2  -0.16  76.2185081828
0.2  -0.14  69.8727132599
0.2  -0.12  63.2458571699
0.2  -0.1  56.513027856
0.2  -0.08  49.9151512608
0.2  -0.06  43.7956864251
0.2  -0.04  38.6451939434
0.2  -0.02  35.1080978745
0.2  6.17561557e-16  33.8318280807
0.2  0.02  35.1080978745
0.2  0.04  38.6451939434
0.2  0.06  43.7956864251
0.2  0.08  49.9151512608
0.2  0.1  56.513027856
0.2  0.12  63.2458571699
0.2  0.14  69.8727132599
0.2  0.16  76.2185081828
0.2  0.18  82.1506198789
0.2  0.2  148.472392887
0.2  0.22  121.97131127
0.2  0.24  100.200451301
0.2  0.26  82.3155079361
0.2  0.28  67.6228775303
0.2  0.3  55.5527588923
0.2  0.32  45.6370555832
0.2  0.34  37.4912224674
0.2  0.36  30.7993525028
0.2  0.38  25.3019254151
0.2  0.4  20.7857431306
0.2  0.42  17.0756616504
0.2  0.44  14.027798716
0.2  0.46  11.52395385
0.2  0.48  9.46702437244
0.2  0.5  7.77723962064
0.2  0.52  6.38906732858
0.2  0.54  5.24867219222
0.2  0.56  4.3118280595
0.2  0.58  3.54220277698
0.2  0.6  2.90994917702
0.2  0.62  2.39054756207
0.2  0.64  1.96385479569
0.2  0.66  1.61332312302
0.2  0.68  1.32535842516
0.2  0.7  1.08879301988
0.2  0.72  0.894452562888
0.2  0.74  0.734800253723
0.2  0.76  0.603644547821
0.2  0.78  0.495899039593
0.2  0.8  0.40738520435
0.2  0.82  0.33467034915
0.2  0.84  0.274934488057
0.2  0.86  0.225860979066
0.2  0.88  0.185546681411
0.2  0.9  0.152428149055
0.2  0.92  0.125220998013
0.2  0.94  0.102870096111
0.2  0.96  0.0845086434535
0.2  0.98  0.0694245566819
0.22  -1  0.0685624431323
0.22  -0.98  0.0834592158437
0.22  -0.96  0.10159265614
0.22  -0.94  0.123666004733
0.22  -0.92  0.150535297607
0.22  -0.9  0.183242564312
0.22  -0.88  0.223056239364
0.22  -0.86  0.271520353942
0.22  -0.84  0.330514415624
0.22  -0.82  0.402326298376
0.22  -0.8  0.489740969571
0.22  -0.78  0.596148495002
0.22  -0.76  0.725675510473
0.22  -0.74  0.883345258631
0.22  -0.72  1.07527239749
0.22  -0.7  1.3089001356
0.22  -0.68  1.59328889031
0.22  -0.66  1.93946766368
0.22  -0.64  2.36086176294
0.22  -0.62  2.87381345309
0.22  -0.6  3.49821573326
0.22  -0.58  4.25828381563
0.22  -0.56  5.18349422594
0.22  -0.54  6.30972794527
0.22  -0.52  7.68066192571
0.22  -0.5  9.34946294495
0.22  -0.48  11.3808494899
0.22  -0.46  13.8536016318
0.22  -0.44  16.8636162304
0.22  -0.42  20.5276259507
0.22  -0.4  24.9877263223
0.22  -0.38  30.4168864075
0.22  -0.36  37.0256567882
0.22  -0.34  45.0703350183
0.22  -0.32  54.8629052087
0.22  -0.3  66.7831372169
0.22  -0.28  81.2933146643
0.22  -0.26  98.9561629555
0.22  -0.24  120.456672573
0.22  -0.22  146.628663986
0.22  -0.2  87.9374552747
0.22  -0.18  83.1516980951
0.22  -0.16  77.9558025951
0.22  -0.14  72.464176606
0.22  -0.12  66.8208108572
0.22  -0.1  61.2091683454
0.22  -0.08  55.8647945761
0.22  -0.06  51.0871838182
0.22  -0.04  47.2393438752
0.22  -0.02  44.7113885516
0.22  6.17561557e-16  43.8258990568
0.22  0.02  44.7113885516
0.22  0.04  47.2393438752
0.22  0.06  51.0871838182
0.22  0.08  55.8647945761
0.22  0.1  61.2091683454
0.22  0.12  66.8208108572
0.22  0.14  72.464176606
0.22  0.16  77.9558025951
0.22  0.18  83.1516980951
0.22  0.2  178.487124399
0.22  0.22  146.628663986
0.22  0.24  120.456672573
0.22  0.26  98.9561629555
0.22  0.28  81.2933146643
0.22  0.3  66.7831372169
0.22  0.32  54.8629052087
0.22  0.34  45.0703350183
0.22  0.36  37.0256567882
0.22  0.38  30.4168864075
0.22  0.4  24.9877263223
0.22  0.42  20.5276259507
0.22  0.44  16.8636162304
0.22  0.46  13.8536016318
0.22  0.48  11.3808494899
0.22  0.5  9.34946294495
0.22  0.52  7.68066192571
0.22  0.54  6.30972794527
0.22  0.56  5.18349422594
0.22  0.58  4.25828381563
0.22  0.6  3.49821573326
0.22  0.62  2.87381345309
0.22  0.64  2.36086176294
0.22  0.66  1.93946766368
0.22  0.68  1.59328889031
0.22  0.7  1.3089001356
0.22  0.72  1.07527239749
0.22  0.74  0.883345258631
0.22  0.76  0.725675510473
0.22  0.78  0.596148495002
0.22  0.8  0.489740969571
0.22  0.82  0.402326298376
0.22  0.84  0.330514415624
0.22  0.86  0.271520353942
0.22  0.88  0.223056239364
0.22  0.9  0.183242564312
0.22  0.92  0.150535297607
0.22  0.94  0.123666004733
0.22  0.96  0.10159265614
0.22  0.98  0.0834592158437
0.24  -1  0.0788670672294
0.24  -0.98  0.0960027572845
0.24  -0.96  0.116861571376
0.24  -0.94  0.142252444104
0.24  -0.92  0.173160069775
0.24  -0.9  0.210783090256
0.24  -0.88  0.256580580011
0.24  -0.86  0.312328631101
0.24  -0.84  0.380189232565
0.24  -0.82  0.462794115445
0.24  -0.8  0.563346815072
0.24  -0.78  0.685746908745
0.24  -0.76  0.834741246906
0.24  -0.74  1.01610804278
0.24  -0.72  1.23688095973
0.24  -0.7  1.50562188678
0.24  -0.68  1.83275298089
0.24  -0.66  2.23096085309
0.24  -0.64  2.71568857338
0.24  -0.62  3.30573457501
0.24  -0.6  4.02398168464
0.24  -0.58  4.89828455094
0.24  -0.56  5.96254988773
0.24  -0.54  7.25805142473
0.24  -0.52  8.83503056174
0.24  -0.5  10.7546448019
0.24  -0.48  13.091339527
0.24  -0.46  15.9357350957
0.24  -0.44  19.3981412303
0.24  -0.42  23.6128349859
0.24  -0.4  28.7432682054
0.24  -0.38  34.9884064163
0.24  -0.36  42.5904449977
0.24  -0.34  51.8442018626
0.24  -0.32  63.1085509183
0.24  -0.3  76.8203397086
0.24  -0.28  93.5113309857
0.24  -0.26  113.828825229
0.24  -0.24  138.560763882
0.24  -0.22  168.666286847
0.24  -0.2  88.3264425003
0.24  -0.18  84.1891651066
0.24  -0.16  79.7377742067
0.24  -0.14  75.0868822965
0.24  -0.12  70.3764712444
0.24  -0.1  65.776616998
0.24  -0.08  61.4910431914
0.24  -0.06  57.7557670733
0.24  -0.04  54.8263016788
0.24  -0.02  52.9461771699
0.24  6.17561557e-16  52.2968159772
0.24  0.02  52.9461771699
0.24  0.04  54.8263016788
0.24  0.06  57.7557670733
0.24  0.08  61.4910431914
0.24  0.1  65.776616998
0.24  0.12  70.3764712444
0.24  0.14  75.0868822965
0.24  0.16  79.7377742067
0.24  0.18  84.1891651066
0.24  0.2  205.312929301
0.24  0.22  168.666286847
0.24  0.24  138.560763882
0.24  0.26  113.828825229
0.24  0.28  93.5113309857
0.24  0.3  76.8203397086
0.24  0.32  63.1085509183
0.24  0.34  51.8442018626
0.24  0.36  42.5904449977
0.24  0.38  34.9884064163
0.24  0.4  28.7432682054
0.24  0.42  23.6128349859
0.24  0.44  19.3981412303
0.24  0.46  15.9357350957
0.24  0.48  13.091339527
0.24  0.5  10.7546448019
0.24  0.52  8.83503056174
0.24  0.54  7.25805142473
0.24  0.56  5.96254988773
0.24  0.58  4.89828455094
0.24  0.6  4.02398168464
0.24  0.62  3.30573457501
0.24  0.64  2.71568857338
0.24  0.66  2.23096085309
0.24  0.68  1.83275298089
0.24  0.7  1.50562188678
0.24  0.72  1.23688095973
0.24  0.74  1.01610804278
0.24  0.76  0.834741246906
0.24  0.78  0.685746908745
0.24  0.8  0.563346815072
0.24  0.82  0.462794115445
0.24  0.84  0.380189232565
0.24  0.86  0.312328631101
0.24  0.88  0.256580580011
0.24  0.9  0.210783090256
0.24  0.92  0.173160069775
0.24  0.94  0.142252444104
0.24  0.96  0.116861571376
0.24  0.98  0.0960027572845
0.26  -1  0.0871837172919
0.26  -0.98  0.106126391463
0.26  -0.96  0.129184798662
0.26  -0.94  0.157253176852
0.26  -0.92  0.191420057825
0.26  -0.9  0.233010482022
0.26  -0.88  0.283637385491
0.26  -0.86  0.345264151853
0.26  -0.84  0.420280755122
0.26  -0.82  0.511596446309
0.26  -0.8  0.622752578332
0.26  -0.78  0.758059944742
0.26  -0.76  0.922765958452
0.26  -0.74  1.1232581539
0.26  -0.72  1.36731190477
0.26  -0.7  1.66439196406
0.26  -0.68  2.02601952076
0.26  -0.66  2.46621900799
0.26  -0.64  3.00206199053
0.26  -0.62  3.65432922454
0.26  -0.6  4.4483165649
0.26  -0.58  5.41481597461
0.26  -0.56  6.59130968112
0.26  -0.54  8.02342379061
0.26  -0.52  9.76669773354
0.26  -0.5  11.8887381631
0.26  -0.48  14.4718408379
0.26  -0.46  17.6161821686
0.26  -0.44  21.4437042029
0.26  -0.42  26.1028437115
0.26  -0.4  31.7742887786
0.26  -0.38  38.6779861438
0.26  -0.36  47.0816710505
0.26  -0.34  57.3112504015
0.26  -0.32  69.7634418935
0.26  -0.3  84.9211592964
0.26  -0.28  103.372240539
0.26  -0.26  125.832244904
0.26  -0.24  153.172203436
0.26  -0.22  186.452398774
0.26  -0.2  88.6785586585
0.26  -0.18  85.1212712176
0.26  -0.16  81.3237471392
0.26  -0.14  77.3938928492
0.26  -0.12  73.4594546781
0.26  -0.1  69.6691833322
0.26  -0.08  66.1917589897
0.26  -0.06  63.2101262237
0.26  -0.04  60.9084399883
0.26  -0.02  59.4501541768
0.26  6.17561557e-16  58.9501750364
0.26  0.02  59.4501541768
0.26  0.04  60.9084399883
0.26  0.06  63.2101262237
0.26  0.08  66.1917589897
0.26  0.1  69.6691833322
0.26  0.12  73.4594546781
0.26  0.14  77.3938928492
0.26  0.16  81.3237471392
0.26  0.18  85.1212712177
0.26  0.2  226.963484423
0.26  0.22  186.452398774
0.26  0.24  153.172203436
0.26  0.26  125.832244904
0.26  0.28  103.372240539
0.26  0.3  84.9211592964
0.26  0.32  69.7634418935
0.26  0.34  57.3112504015
0.26  0.36  47.0816710505
0.26  0.38  38.6779861438
0.26  0.4  31.7742887786
0.26  0.42  26.1028437115
0.26  0.44  21.4437042029
0.26  0.46  17.6161821686
0.26  0.48  14.4718408379
0.26  0.5  11.8887381631
0.26  0.52  9.76669773354
0.26  0.54  8.02342379061
0.26  0.56  6.59130968112
0.26  0.58  5.41481597461
0.26  0.6  4.4483165649
0.26  0.62  3.65432922454
0.26  0.64  3.00206199053
0.26  0.66  2.46621900799
0.26  0.68  2.02601952076
0.26  0.7  1.66439196406
0.26  0.72  1.36731190477
0.26  0.74  1.1232581539
0.26  0.76  0.922765958452
0.26  0.78  0.758059944742
0.26  0.8  0.622752578332
0.26  0.82  0.511596446309
0.26  0.84  0.420280755122
0.26  0.86  0.345264151853
0.26  0.88  0.283637385491
0.26  0.9  0.233010482022
0.26  0.92  0.191420057825
0.26  0.94  0.157253176852
0.26  0.96  0.129184798662
0.26  0.98  0.106126391463
0.28  -1  0.0930239360215
0.28  -0.98  0.113235532463
0.28  -0.96  0.137838564574
0.28  -0.94  0.167787173076
0.28  -0.92  0.204242807779
0.28  -0.9  0.248619270263
0.28  -0.88  0.302637543119
0.28  -0.86  0.368392532117
0.28  -0.84  0.448434309638
0.28  -0.82  0.54586701013
0.28  -0.8  0.664469212869
0.28  -0.78  0.80884048066
0.28  -0.76  0.984579737457
0.28  -0.74  1.19850240262
0.28  -0.72  1.45890470263
0.28  -0.7  1.77588541058
0.28  -0.68  2.16173749103
0.28  -0.66  2.63142483872
0.28  -0.64  3.20316259978
0.28  -0.62  3.89912358115
0.28  -0.6  4.74629814361
0.28  -0.58  5.77754092663
0.28  -0.56  7.03284499812
0.28  -0.54  8.56089284277
0.28  -0.52  10.4209443383
0.28  -0.5  12.6851349382
0.28  -0.48  15.4412731876
0.28  -0.46  18.7962460641
0.28  -0.44  22.8801642072
0.28  -0.42  27.8514077951
0.28  -0.4  33.902768754
0.28  -0.38  41.2689275043
0.28  -0.36  50.2355542024
0.28  -0.34  61.1503874376
0.28  -0.32  74.4367200311
0.28  -0.3  90.609814936
0.28  -0.28  110.296887871
0.28  -0.26  134.26143164
0.28  -0.24  163.432825478
0.28  -0.22  198.942377698
0.28  -0.2  88.9459710543
0.28  -0.18  85.8248340002
0.28  -0.16  82.5119538705
0.28  -0.14  79.1069075622
0.28  -0.12  75.7247699202
0.28  -0.1  72.4955128148
0.28  -0.08  69.5612168227
0.28  -0.06  67.0697270568
0.28  -0.04  65.1635843257
0.28  -0.02  63.9643251306
0.28  6.17561557e-16  63.5547410277
0.28  0.02  63.9643251306
0.28  0.04  65.1635843257
0.28  0.06  67.0697270568
0.28  0.08  69.5612168227
0.28  0.1  72.4955128148
0.28  0.12  75.7247699202
0.28  0.14  79.1069075622
0.28  0.16  82.5119538705
0.28  0.18  85.8248340002
0.28  0.2  242.167199449
0.28  0.22  198.942377698
0.28  0.24  163.432825478
0.28  0.26  134.26143164
0.28  0.28  110.296887871
0.28  0.3  90.609814936
0.28  0.32  74.4367200311
0.28  0.34  61.1503874376
0.28  0.36  50.2355542024
0.28  0.38  41.2689275043
0.28  0.4  33.902768754
0.28  0.42  27.8514077951
0.28  0.44  22.8801642072
0.28  0.46  18.7962460641
0.28  0.48  15.4412731876
0.28  0.5  12.6851349382
0.28  0.52  10.4209443383
0.28  0.54  8.56089284277
0.28  0.56  7.03284499812
0.28  0.58  5.77754092663
0.28  0.6  4.74629814361
0.28  0.62  3.89912358115
0.28  0.64  3.20316259978
0.28  0.66  2.63142483872
0.28  0.68  2.16173749103
0.28  0.7  1.77588541058
0.28  0.72  1.45890470263
0.28  0.74  1.19850240262
0.28  0.76  0.984579737457
0.28  0.78  0.80884048066
0.28  0.8  0.664469212869
0.28  0.82  0.54586701013
0.28  0.84  0.448434309638
0.28  0.86  0.368392532117
0.28  0.88  0.302637543119
0.28  0.9  0.248619270263
0.28  0.92  0.204242807779
0.28  0.94  0.167787173076
0.28  0.96  0.137838564574
0.28  0.98  0.113235532463
0.3  -1  0.104309049466
0.3  -0.98  0.126972597185
0.3  -0.96  0.154560323562
0.3  -0.94  0.188142120025
0.3  -0.92  0.229020336603
0.3  -0.9  0.278780288916
0.3  -0.88  0.339351738979
0.3  -0.86  0.413083734134
0.3  -0.84  0.502835706454
0.3  -0.82  0.612088365607
0.3  -0.8  0.745078685748
0.3  -0.78  0.906964221424
0.3  -0.76  1.10402312491
0.3  -0.74  1.34389762192
0.3  -0.72  1.63589038802
0.3  -0.7  1.99132531972
0.3  -0.68  2.42398669127
0.3  -0.66  2.95065372858
0.3  -0.64  3.59175133153
0.3  -0.62  4.37214218077
0.3  -0.6  5.32209094797
0.3  -0.58  6.478438003
0.3  -0.56  7.88602813612
0.3  -0.54  9.59944970299
0.3  -0.52  11.685151639
0.3  -0.5  14.2240204441
0.3  -0.48  17.3145170763
0.3  -0.46  21.0764954089
0.3  -0.44  25.6558503344
0.3  -0.42  31.2301757769
0.3  -0.4  38.0156520381
0.3  -0.38  46.2754295784
0.3  -0.36  56.3298343671
0.3  -0.34  68.5687905815
0.3  -0.32  83.4669424227
0.3  -0.3  101.602061496
0.3  -0.28  123.677453621
0.3  -0.26  150.549234029
0.3  -0.24  183.259528744
0.3  -0.22  223.07688971
0.3  -0.2  138.225966398
0.3  -0.18  130.489730067
0.3  -0.16  122.074741356
0.3  -0.14  113.159020785
0.3  -0.12  103.96767928
0.3  -0.1  94.7901217529
0.3  -0.08  86.0034631227
0.3  -0.06  78.0978194009
0.3  -0.04  71.6845939925
0.3  -0.02  67.4426791938
0.3  6.17561557e-16  65.9504838428
0.3  0.02  67.4426791938
0.3  0.04  71.6845939925
0.3  0.06  78.0978194009
0.3  0.08  86.0034631227
0.3  0.1  94.7901217529
0.3  0.12  103.96767928
0.3  0.14  113.159020785
0.3  0.16  122.074741356
0.3  0.18  130.489730067
0.3  0.2  271.545491051
0.3  0.22  223.07688971
0.3  0.24  183.259528744
0.3  0.26  150.549234029
0.3  0.28  123.677453621
0.3  0.3  101.602061496
0.3  0.32  83.4669424227
0.3  0.34  68.5687905815
0.3  0.36  56.3298343671
0.3  0.38  46.2754295784
0.3  0.4  38.0156520381
0.3  0.42  31.2301757769
0.3  0.44  25.6558503344
0.3  0.46  21.0764954089
0.3  0.48  17.3145170763
0.3  0.5  14.2240204441
0.3  0.52  11.685151639
0.3  0.54  9.59944970299
0.3  0.56  7.88602813612
0.3  0.58  6.478438003
0.3  0.6  5.32209094797
0.3  0.62  4.37214218077
0.3  0.64  3.59175133153
0.3  0.66  2.95065372858
0.3  0.68  2.42398669127
0.3  0.7  1.99132531972
0.3  0.72  1.63589038802
0.3  0.74  1.34389762192
0.3  0.76  1.10402312491
0.3  0.78  0.906964221424
0.3  0.8  0.745078685748
0.3  0.82  0.612088365607
0.3  0.84  0.502835706454
0.3  0.86  0.413083734134
0.3  0.88  0.339351738979
0.3  0.9  0.278780288916
0.3  0.92  0.229020336603
0.3  0.94  0.188142120025
0.3  0.96  0.154560323562
0.3  0.98  0.126972597185
0.32  -1  0.0895654613106
0.32  -0.98  0.109025624324
0.32  -0.96  0.132713956756
0.32  -0.94  0.16154912597
0.32  -0.92  0.196649401009
0.32  -0.9  0.239376020669
0.32  -0.88  0.291385984282
0.32  -0.86  0.354696312514
0.32  -0.84  0.431762270315
0.32  -0.82  0.52557258559
0.32  -0.8  0.639765356344
0.32  -0.78  0.778769141313
0.32  -0.76  0.9479747058
0.32  -0.74  1.15394408325
0.32  -0.72  1.40466506029
0.32  -0.7  1.70986095446
0.32  -0.68  2.08136769844
0.32  -0.66  2.53359285431
0.32  -0.64  3.08407435949
0.32  -0.62  3.75416067292
0.32  -0.6  4.56983869885
0.32  -0.58  5.56274159605
0.32  -0.56  6.7713755569
0.32  -0.54  8.24261313256
0.32  -0.52  10.0335110174
0.32  -0.5  12.2135227891
0.32  -0.48  14.8671924176
0.32  -0.46  18.097433001
0.32  -0.44  22.0295178824
0.32  -0.42  26.8159389294
0.32  -0.4  32.6423203858
0.32  -0.38  39.7346176458
0.32  -0.36  48.367880126
0.32  -0.34  58.8769180753
0.32  -0.32  71.669286994
0.32  -0.3  87.2410932186
0.32  -0.28  106.196233634
0.32  -0.26  129.269815656
0.32  -0.24  157.356665749
0.32  -0.22  191.546032073
0.32  -0.2  118.688383308
0.32  -0.18  112.045627197
0.32  -0.16  104.820057127
0.32  -0.14  97.164531265
0.32  -0.12  89.2723421771
0.32  -0.1  81.3919887673
0.32  -0.08  73.8472825541
0.32  -0.06  67.0590639813
0.32  -0.04  61.5523174897
0.32  -0.02  57.9099771776
0.32  6.17561557e-16  56.6286965441
0.32  0.02  57.9099771776
0.32  0.04  61.5523174897
0.32  0.06  67.0590639813
0.32  0.08  73.8472825541
0.32  0.1  81.3919887673
0.32  0.12  89.2723421771
0.32  0.14  97.164531265
0.32  0.16  104.820057127
0.32  0.18  112.045627197
0.32  0.2  233.163827082
0.32  0.22  191.546032073
0.32  0.24  157.356665749
0.32  0.26  129.269815656
0.32  0.28  106.196233634
0.32  0.3  87.2410932186
0.32  0.32  71.669286994
0.32  0.34  58.8769180753
0.32  0.36  48.367880126
0.32  0.38  39.7346176458
0.32  0.4  32.6423203858
0.32  0.42  26.8159389294
0.32  0.44  22.0295178824
0.32  0.46  18.097433001
0.32  0.48  14.8671924176
0.32  0.5  12.2135227891
0.32  0.52  10.0335110174
0.32  0.54  8.24261313256
0.32  0.56  6.7713755569
0.32  0.58  5.56274159605
0.32  0.6  4.56983869885
0.32  0.62  3.75416067292
0.32  0.64  3.08407435949
0.32  0.66  2.53359285431
0.32  0.68  2.08136769844
0.32  0.7  1.70986095446
0.32  0.72  1.40466506029
0.32  0.74  1.15394408325
0.32  0.76  0.9479747058
0.32  0.78  0.778769141313
0.32  0.8  0.639765356344
0.32  0.82  0.52557258559
0.32  0.84  0.431762270315
0.32  0.86  0.354696312514
0.32  0.88  0.291385984282
0.32  0.9  0.239376020669
0.32  0.92  0.196649401009
0.32  0.94  0.16154912597
0.32  0.96  0.132713956756
0.32  0.98  0.109025624324
0.34  -1  0.0769058092353
0.34  -0.98  0.0936153707392
0.34  -0.96  0.113955470019
0.34  -0.94  0.138714925175
0.34  -0.92  0.168853943238
0.34  -0.9  0.205541358373
0.34  -0.88  0.250199960935
0.34  -0.86  0.304561675311
0.34  -0.84  0.370734726422
0.34  -0.82  0.451285399698
0.34  -0.8  0.549337565289
0.34  -0.78  0.668693826212
0.34  -0.76  0.813982988726
0.34  -0.74  0.990839574053
0.34  -0.72  1.20612233315
0.34  -0.7  1.46818023889
0.34  -0.68  1.7871762711
0.34  -0.66  2.17548155151
0.34  -0.64  2.64815511345
0.34  -0.62  3.22352791272
0.34  -0.6  3.92391372821
0.34  -0.58  4.77647452211
0.34  -0.56  5.81427381962
0.34  -0.54  7.07755895965
0.34  -0.52  8.61532194412
0.34  -0.5  10.4871994178
0.34  -0.48  12.7657854624
0.34  -0.46  15.539446899
0.34  -0.44  18.9157502794
0.34  -0.42  23.0256334707
0.34  -0.4  28.0284836125
0.34  -0.38  34.1183183784
0.34  -0.36  41.531310258
0.34  -0.34  50.5549456633
0.34  -0.32  61.5391740627
0.34  -0.3  74.9099795209
0.34  -0.28  91.1859009695
0.34  -0.26  110.998141887
0.34  -0.24  135.115049272
0.34  -0.22  164.471911235
0.34  -0.2  101.912344687
0.34  -0.18  96.2085105661
0.34  -0.16  90.0042404681
0.34  -0.14  83.430786785
0.34  -0.12  76.6541210976
0.34  -0.1  69.8876181714
0.34  -0.08  63.4093203066
0.34  -0.06  57.5805841513
0.34  -0.04  52.8521900919
0.34  -0.02  49.7246772637
0.34  6.17561557e-16  48.6244995553
0.34  0.02  49.7246772637
0.34  0.04  52.8521900919
0.34  0.06  57.5805841513
0.34  0.08  63.4093203066
0.34  0.1  69.8876181714
0.34  0.12  76.6541210976
0.34  0.14  83.430786785
0.34  0.16  90.0042404681
0.34  0.18  96.2085105661
0.34  0.2  200.207228811
0.34  0.22  164.471911235
0.34  0.24  135.115049272
0.34  0.26  110.998141887
0.34  0.28  91.1859009695
0.34  0.3  74.9099795209
0.34  0.32  61.5391740627
0.34  0.34  50.5549456633
0.34  0.36  41.531310258
0.34  0.38  34.1183183784
0.34  0.4  28.0284836125
0.34  0.42  23.0256334707
0.34  0.44  18.9157502794
0.34  0.46  15.539446899
0.34  0.48  12.7657854624
0.34  0.5  10.4871994178
0.34  0.52  8.61532194412
0.34  0.54  7.07755895965
0.34  0.56  5.81427381962
0.34  0.58  4.77647452211
0.34  0.6  3.92391372821
0.34  0.62  3.22352791272
0.34  0.64  2.64815511345
0.34  0.66  2.17548155151
0.34  0.68  1.7871762711
0.34  0.7  1.46818023889
0.34  0.72  1.20612233315
0.34  0.74  0.990839574053
0.34  0.76  0.813982988726
0.34  0.78  0.668693826212
0.34  0.8  0.549337565289
0.34  0.82  0.451285399698
0.34  0.84  0.370734726422
0.34  0.86  0.304561675311
0.34  0.88  0.250199960935
0.34  0.9  0.205541358373
0.34  0.92  0.168853943238
0.34  0.94  0.138714925175
0.34  0.96  0.113955470019
0.34  0.98  0.0936153707392
0.36  -1  0.0660355387847
0.36  -0.98  0.0803832832234
0.36  -0.96  0.0978484061868
0.36  -0.94  0.119108230087
0.36  -0.92  0.144987241257
0.36  -0.9  0.17648906471
0.36  -0.88  0.21483538615
0.36  -0.86  0.261513330687
0.36  -0.84  0.318333135675
0.36  -0.82  0.387498354299
0.36  -0.8  0.471691312519
0.36  -0.78  0.574177133495
0.36  -0.76  0.698930363734
0.36  -0.74  0.850789111672
0.36  -0.72  1.03564267644
0.36  -0.7  1.26065994327
0.36  -0.68  1.53456740315
0.36  -0.66  1.86798757855
0.36  -0.64  2.27385098006
0.36  -0.62  2.76789757004
0.36  -0.6  3.36928718082
0.36  -0.58  4.1013425604
0.36  -0.56  4.99245386191
0.36  -0.54  6.07717965427
0.36  -0.52  7.39758715291
0.36  -0.5  9.00488364638
0.36  -0.48  10.9614023882
0.36  -0.46  13.3430199694
0.36  -0.44  16.2420989212
0.36  -0.42  19.7710696658
0.36  -0.4  24.0667907285
0.36  -0.38  29.2958563072
0.36  -0.36  35.6610570331
0.36  -0.34  43.409244481
0.36  -0.32  52.8409044258
0.36  -0.3  64.3218101103
0.36  -0.28  78.2972074536
0.36  -0.26  95.309082324
0.36  -0.24  116.017179525
0.36  -0.22  141.224588641
0.36  -0.2  87.5075193554
0.36  -0.18  82.6098950661
0.36  -0.16  77.2825690453
0.36  -0.14  71.6382417838
0.36  -0.12  65.8194255685
0.36  -0.1  60.0093356563
0.36  -0.08  54.4467143907
0.36  -0.06  49.4418423754
0.36  -0.04  45.3817843329
0.36  -0.02  42.6963305718
0.36  6.17561557e-16  41.7516577512
0.36  0.02  42.6963305718
0.36  0.04  45.3817843329
0.36  0.06  49.4418423755
0.36  0.08  54.4467143907
0.36  0.1  60.0093356563
0.36  0.12  65.8194255685
0.36  0.14  71.6382417838
0.36  0.16  77.2825690453
0.36  0.18  82.6098950661
0.36  0.2  171.908888997
0.36  0.22  141.224588641
0.36  0.24  116.017179525
0.36  0.26  95.309082324
0.36  0.28  78.2972074536
0.36  0.3  64.3218101103
0.36  0.32  52.8409044258
0.36  0.34  43.409244481
0.36  0.36  35.6610570331
0.36  0.38  29.2958563072
0.36  0.4  24.0667907285
0.36  0.42  19.7710696658
0.36  0.44  16.2420989212
0.36  0.46  13.3430199694
0.36  0.48  10.9614023882
0.36  0.5  9.00488364638
0.36  0.52  7.39758715291
0.36  0.54  6.07717965427
0.36  0.56  4.99245386191
0.36  0.58  4.1013425604
0.36  0.6  3.36928718082
0.36  0.62  2.76789757004
0.36  0.64  2.27385098006
0.36  0.66  1.86798757855
0.36  0.68  1.53456740315
0.36  0.7  1.26065994327
0.36  0.72  1.03564267644
0.36  0.74  0.850789111672
0.36  0.76  0.698930363734
0.36  0.78  0.574177133495
0.36  0.8  0.471691312519
0.36  0.82  0.387498354299
0.36  0.84  0.318333135675
0.36  0.86  0.261513330687
0.36  0.88  0.21483538615
0.36  0.9  0.17648906471
0.36  0.92  0.144987241257
0.36  0.94  0.119108230087
0.36  0.96  0.0978484061868
0.36  0.98  0.0803832832234
0.38  -1  0.0567017293744
0.38  -0.98  0.0690214883598
0.38  -0.96  0.0840179992385
0.38  -0.94  0.10227284812
0.38  -0.92  0.124493984115
0.38  -0.9  0.151543174613
0.38  -0.88  0.184469425853
0.38  -0.86  0.224549664882
0.38  -0.84  0.273338260611
0.38  -0.82  0.332727304462
0.38  -0.8  0.405019988372
0.38  -0.78  0.49301992587
0.38  -0.76  0.600139880212
0.38  -0.74  0.730534116214
0.38  -0.72  0.889259508572
0.38  -0.7  1.08247165469
0.38  -0.68  1.31766359754
0.38  -0.66  1.60395641655
0.38  -0.64  1.95245295612
0.38  -0.62  2.37666840978
0.38  -0.6  2.89305445867
0.38  -0.58  3.52163729124
0.38  -0.56  4.28679424749
0.38  -0.54  5.21819920694
0.38  -0.52  6.35197338414
0.38  -0.5  7.73208616091
0.38  -0.48  9.41206028176
0.38  -0.46  11.4570475424
0.38  -0.44  13.9463554694
0.38  -0.42  16.9765229793
0.38  -0.4  20.6650642958
0.38  -0.38  25.1550263191
0.38  -0.36  30.6205361887
0.38  -0.34  37.2735541832
0.38  -0.32  45.3720938421
0.38  -0.3  55.2302280994
0.38  -0.28  67.2302694808
0.38  -0.26  81.8375967293
0.38  -0.24  99.6187028573
0.38  -0.22  121.263164555
0.38  -0.2  75.13874759
0.38  -0.18  70.933379206
0.38  -0.16  66.359045387
0.38  -0.14  61.5125169453
0.38  -0.12  56.5161627337
0.38  -0.1  51.5273014039
0.38  -0.08  46.750930204
0.38  -0.06  42.4534730501
0.38  -0.04  38.9672849065
0.38  -0.02  36.6614072652
0.38  6.17561557e-16  35.8502594559
0.38  0.02  36.6614072652
0.38  0.04  38.9672849065
0.38  0.06  42.4534730501
0.38  0.08  46.750930204
0.38  0.1  51.5273014039
0.38  0.12  56.5161627337
0.38  0.14  61.5125169453
0.38  0.16  66.359045387
0.38  0.18  70.933379206
0.38  0.2  147.610384959
0.38  0.22  121.263164555
0.38  0.24  99.6187028573
0.38  0.26  81.8375967293
0.38  0.28  67.2302694808
0.38  0.3  55.2302280994
0.38  0.32  45.3720938421
0.38  0.34  37.2735541832
0.38  0.36  30.6205361887
0.38  0.38  25.1550263191
0.38  0.4  20.6650642958
0.38  0.42  16.9765229793
0.38  0.44  13.9463554694
0.38  0.46  11.4570475424
0.38  0.48  9.41206028176
0.38  0.5  7.73208616091
0.38  0.52  6.35197338414
0.38  0.54  5.21819920694
0.38  0.56  4.28679424749
0.38  0.58  3.52163729124
0.38  0.6  2.89305445867
0.38  0.62  2.37666840978
0.38  0.64  1.95245295612
0.38  0.66  1.60395641655
0.38  0.68  1.31766359754
0.38  0.7  1.08247165469
0.38  0.72  0.889259508572
0.38  0.74  0.730534116214
0.38  0.76  0.600139880212
0.38  0.78  0.49301992587
0.38  0.8  0.405019988372
0.38  0.82  0.332727304462
0.38  0.84  0.273338260611
0.38  0.86  0.224549664882
0.38  0.88  0.184469425853
0.38  0.9  0.151543174613
0.38  0.92  0.124493984115
0.38  0.94  0.10227284812
0.38  0.96  0.0840179992385
0.38  0.98  0.0690214883598
0.4  -1  0.0486872095423
0.4  -0.98  0.0592656291752
0.4  -0.96  0.0721424545491
0.4  -0.94  0.0878170673425
0.4  -0.92  0.106897351426
0.4  -0.9  0.130123267465
0.4  -0.88  0.158395549655
0.4  -0.86  0.192810637478
0.4  -0.84  0.234703197189
0.4  -0.82  0.285697882084
0.4  -0.8  0.347772338873
0.4  -0.78  0.423333903643
0.4  -0.76  0.515312961791
0.4  -0.74  0.627276592554
0.4  -0.72  0.763566905437
0.4  -0.7  0.929469433419
0.4  -0.68  1.13141811347
0.4  -0.66  1.37724480383
0.4  -0.64  1.67648301463
0.4  -0.62  2.04073763104
0.4  -0.6  2.48413496732
0.4  -0.58  3.0238706054
0.4  -0.56  3.68087626418
0.4  -0.54  4.48063156142
0.4  -0.52  5.45415214973
0.4  -0.5  6.63919254789
0.4  -0.48  8.08171031499
0.4  -0.46  9.83764835019
0.4  -0.44  11.9751044383
0.4  -0.42  14.576972179
0.4  -0.4  17.7441557194
0.4  -0.38  21.5994829602
0.4  -0.36  26.2924689981
0.4  -0.34  32.005114534
0.4  -0.32  38.9589641204
0.4  -0.3  47.4236979756
0.4  -0.28  57.7275905676
0.4  -0.26  70.2702415669
0.4  -0.24  85.5380728923
0.4  -0.22  104.123192848
0.4  -0.2  64.5182429006
0.4  -0.18  60.9072833413
0.4  -0.16  56.9795098567
0.4  -0.14  52.8180151652
0.4  -0.12  48.5278718639
0.4  -0.1  44.2441623612
0.4  -0.08  40.1429085189
0.4  -0.06  36.4528764994
0.4  -0.04  33.4594444732
0.4  -0.02  31.4794916722
0.4  6.17561557e-16  30.7829957487
0.4  0.02  31.4794916722
0.4  0.04  33.4594444732
0.4  0.06  36.4528764994
0.4  0.08  40.1429085189
0.4  0.1  44.2441623612
0.4  0.12  48.5278718639
0.4  0.14  52.8180151652
0.4  0.16  56.9795098567
0.4  0.18  60.9072833413
0.4  0.2  126.746358928
0.4  0.22  104.123192848
0.4  0.24  85.5380728923
0.4  0.26  70.2702415669
0.4  0.28  57.7275905676
0.4  0.3  47.4236979756
0.4  0.32  38.9589641204
0.4  0.34  32.005114534
0.4  0.36  26.2924689981
0.4  0.38  21.5994829602
0.4  0.4  17.7441557194
0.4  0.42  14.576972179
0.4  0.44  11.9751044383
0.4  0.46  9.83764835019
0.4  0.48  8.08171031499
0.4  0.5  6.63919254789
0.4  0.52  5.45415214973
0.4  0.54  4.48063156142
0.4  0.56  3.68087626418
0.4  0.58  3.0238706054
0.4  0.6  2.48413496732
0.4  0.62  2.04073763104
0.4  0.64  1.67648301463
0.4  0.66  1.37724480383
0.4  0.68  1.13141811347
0.4  0.7  0.929469433419
0.4  0.72  0.763566905437
0.4  0.74  0.627276592554
0.4  0.76  0.515312961791
0.4  0.78  0.423333903643
0.4  0.8  0.347772338873
0.4  0.82  0.285697882084
0.4  0.84  0.234703197189
0.4  0.86  0.192810637478
0.4  0.88  0.158395549655
0.4  0.9  0.130123267465
0.4  0.92  0.106897351426
0.4  0.94  0.0878170673425
0.4  0.96  0.0721424545491
0.4  0.98  0.0592656291752
0.42  -1  0.0418055039797
0.42  -0.98  0.0508887142975
0.42  -0.96  0.0619454616338
0.42  -0.94  0.0754045424411
0.42  -0.92  0.0917879190951
0.42  -0.9  0.111730962341
0.42  -0.88  0.136007091877
0.42  -0.86  0.165557770679
0.42  -0.84  0.201529016273
0.42  -0.82  0.245315844936
0.42  -0.8  0.29861637242
0.42  -0.78  0.363497669303
0.42  -0.76  0.442475924939
0.42  -0.74  0.538614028877
0.42  -0.72  0.65564035409
0.42  -0.7  0.798093348604
0.42  -0.68  0.971497542993
0.42  -0.66  1.18257779957
0.42  -0.64  1.43952011214
0.42  -0.62  1.75228907054
0.42  -0.6  2.13301430167
0.42  -0.58  2.59646087374
0.42  -0.56  3.16060190669
0.42  -0.54  3.84731559548
0.42  -0.52  4.68323367769
0.42  -0.5  5.70077425041
0.42  -0.48  6.93939899025
0.42  -0.46  8.4471435336
0.42  -0.44  10.2824803672
0.42  -0.42  12.5165864746
0.42  -0.4  15.2361036813
0.42  -0.38  18.5464987487
0.42  -0.36  22.5761535251
0.42  -0.34  27.481343778
0.42  -0.32  33.4522997907
0.42  -0.3  40.720583765
0.42  -0.28  49.5680701338
0.42  -0.26  60.3378770542
0.42  -0.24  73.4476730199
0.42  -0.22  89.4058746413
0.42  -0.2  55.3988960489
0.42  -0.18  52.2983284532
0.42  -0.16  48.9257270743
0.42  -0.14  45.3524398696
0.42  -0.12  41.6686879245
0.42  -0.1  37.990460391
0.42  -0.08  34.468899278
0.42  -0.06  31.3004357386
0.42  -0.04  28.7301110955
0.42  -0.02  27.0300152083
0.42  6.17561557e-16  26.4319656718
0.42  0.02  27.0300152083
0.42  0.04  28.7301110955
0.42  0.06  31.3004357386
0.42  0.08  34.468899278
0.42  0.1  37.990460391
0.42  0.12  41.6686879245
0.42  0.14  45.3524398696
0.42  0.16  48.9257270743
0.42  0.18  52.2983284532
0.42  0.2  108.831363769
0.42  0.22  89.4058746413
0.42  0.24  73.4476730199
0.42  0.26  60.3378770542
0.42  0.28  49.5680701338
0.42  0.3  40.720583765
0.42  0.32  33.4522997907
0.42  0.34  27.481343778
0.42  0.36  22.5761535251
0.42  0.38  18.5464987487
0.42  0.4  15.2361036813
0.42  0.42  12.5165864746
0.42  0.44  10.2824803672
0.42  0.46  8.4471435336
0.42  0.48  6.93939899025
0.42  0.5  5.7007742504
0.42  0.52  4.68323367769
0.42  0.54  3.84731559548
0.42  0.56  3.16060190669
0.42  0.58  2.59646087374
0.42  0.6  2.13301430167
0.42  0.62  1.75228907054
0.42  0.64  1.43952011214
0.42  0.66  1.18257779957
0.42  0.68  0.971497542993
0.42  0.7  0.798093348604
0.42  0.72  0.65564035409
0.42  0.74  0.538614028877
0.42  0.76  0.442475924939
0.42  0.78  0.363497669303
0.42  0.8  0.29861637242
0.42  0.82  0.245315844936
0.42  0.84  0.201529016273
0.42  0.86  0.165557770679
0.42  0.88  0.136007091877
0.42  0.9  0.111730962341
0.42  0.92  0.0917879190951
0.42  0.94  0.0754045424411
0.42  0.96  0.0619454616338
0.42  0.98  0.0508887142975
0.44  -1  0.0358964947761
0.44  -0.98  0.0436958365058
0.44  -0.96  0.0531897651806
0.44  -0.94  0.0647464689133
0.44  -0.92  0.0788141331798
0.44  -0.9  0.0959383220913
0.44  -0.88  0.11678313615
0.44  -0.86  0.142156967016
0.44  -0.84  0.173043848087
0.44  -0.82  0.210641616724
0.44  -0.8  0.25640836809
0.44  -0.78  0.312119002167
0.44  -0.76  0.379934056908
0.44  -0.74  0.462483496989
0.44  -0.72  0.562968707589
0.44  -0.7  0.685286648688
0.44  -0.68  0.834180984732
0.44  -0.66  1.01542605072
0.44  -0.64  1.23605078916
0.44  -0.62  1.5046113425
0.44  -0.6  1.83152287255
0.44  -0.58  2.22946347533
0.44  -0.56  2.71386585575
0.44  -0.54  3.30351582992
0.44  -0.52  4.02128086598
0.44  -0.5  4.89499691712
0.44  -0.48  5.9585479396
0.44  -0.46  7.25317996104
0.44  -0.44  8.82910066017
0.44  -0.42  10.7474264924
0.44  -0.4  13.0825528732
0.44  -0.38  15.9250393386
0.44  -0.36  19.3851215733
0.44  -0.34  23.5969865079
0.44  -0.32  28.7239762799
0.44  -0.3  34.9649228749
0.44  -0.28  42.561859115
0.44  -0.26  51.8094050374
0.44  -0.24  63.0661936799
0.44  -0.22  76.7687793829
0.44  -0.2  47.5685255124
0.44  -0.18  44.9062084033
0.44  -0.16  42.0103081927
0.44  -0.14  38.9420881435
0.44  -0.12  35.7790170197
0.44  -0.1  32.6206894582
0.44  -0.08  29.5968842636
0.44  -0.06  26.8762679795
0.44  -0.04  24.669246503
0.44  -0.02  23.2094510855
0.44  6.17561557e-16  22.6959330073
0.44  0.02  23.2094510855
0.44  0.04  24.669246503
0.44  0.06  26.8762679795
0.44  0.08  29.5968842636
0.44  0.1  32.6206894582
0.44  0.12  35.7790170197
0.44  0.14  38.9420881435
0.44  0.16  42.0103081927
0.44  0.18  44.9062084033
0.44  0.2  93.4485679896
0.44  0.22  76.7687793829
0.44  0.24  63.0661936799
0.44  0.26  51.8094050374
0.44  0.28  42.561859115
0.44  0.3  34.9649228749
0.44  0.32  28.7239762799
0.44  0.34  23.5969865079
0.44  0.36  19.3851215733
0.44  0.38  15.9250393386
0.44  0.4  13.0825528732
0.44  0.42  10.7474264924
0.44  0.44  8.82910066017
0.44  0.46  7.25317996104
0.44  0.48  5.9585479396
0.44  0.5  4.89499691712
0.44  0.52  4.02128086598
0.44  0.54  3.30351582992
0.44  0.56  2.71386585575
0.44  0.58  2.22946347533
0.44  0.6  1.83152287255
0.44  0.62  1.5046113425
0.44  0.64  1.23605078916
0.44  0.66  1.01542605072
0.44  0.68  0.834180984732
0.44  0.7  0.685286648688
0.44  0.72  0.562968707589
0.44  0.74  0.462483496989
0.44  0.76  0.379934056908
0.44  0.78  0.312119002167
0.44  0.8  0.25640836809
0.44  0.82  0.210641616724
0.44  0.84  0.173043848087
0.44  0.86  0.142156967016
0.44  0.88  0.11678313615
0.44  0.9  0.0959383220912
0.44  0.92  0.0788141331798
0.44  0.94  0.0647464689133
0.44  0.96  0.0531897651806
0.44  0.98  0.0436958365058
0.46  -1  0.0308226959262
0.46  -0.98  0.0375196377881
0.46  -0.96  0.045671644788
0.46  -0.94  0.0555948633999
0.46  -0.92  0.0676741302136
0.46  -0.9  0.0823778964474
0.46  -0.88  0.100276395156
0.46  -0.86  0.12206375568
0.46  -0.84  0.148584922978
0.46  -0.82  0.180868425794
0.46  -0.8  0.220166264475
0.46  -0.78  0.268002465327
0.46  -0.76  0.326232184539
0.46  -0.74  0.397113653784
0.46  -0.72  0.48339575767
0.46  -0.7  0.588424639413
0.46  -0.68  0.716273469045
0.46  -0.66  0.87190040677
0.46  -0.64  1.06134088749
0.46  -0.62  1.29194168362
0.46  -0.6  1.57264582335
0.46  -0.58  1.91433941412
0.46  -0.56  2.33027382139
0.46  -0.54  2.83657957548
0.46  -0.52  3.45289193664
0.46  -0.5  4.20311237844
0.46  -0.48  5.11633552105
0.46  -0.46  6.22797746219
0.46  -0.44  7.58114926395
0.46  -0.42  9.22832886137
0.46  -0.4  11.2333962317
0.46  -0.38  13.6741107511
0.46  -0.36  16.6451268145
0.46  -0.34  20.2616646679
0.46  -0.32  24.6639788144
0.46  -0.3  30.0227972837
0.46  -0.28  36.5459427094
0.46  -0.26  44.4863919875
0.46  -0.24  54.1520870811
0.46  -0.22  65.9178774503
0.46  -0.2  40.8449406181
0.46  -0.18  38.5589293731
0.46  -0.16  36.0723508874
0.46  -0.14  33.4378091529
0.46  -0.12  30.7218230921
0.46  -0.1  28.0099101137
0.46  -0.08  25.4135054053
0.46  -0.06  23.0774352964
0.46  -0.04  21.1823658113
0.46  -0.02  19.9289055348
0.46  6.17561557e-16  19.4879707952
0.46  0.02  19.9289055348
0.46  0.04  21.1823658113
0.46  0.06  23.0774352964
0.46  0.08  25.4135054053
0.46  0.1  28.0099101137
0.46  0.12  30.7218230921
0.46  0.14  33.4378091529
0.46  0.16  36.0723508874
0.46  0.18  38.5589293731
0.46  0.2  80.2400572493
0.46  0.22  65.9178774503
0.46  0.24  54.1520870811
0.46  0.26  44.4863919875
0.46  0.28  36.5459427094
0.46  0.3  30.0227972837
0.46  0.32  24.6639788144
0.46  0.34  20.2616646679
0.46  0.36  16.6451268145
0.46  0.38  13.6741107511
0.46  0.4  11.2333962317
0.46  0.42  9.22832886137
0.46  0.44  7.58114926395
0.46  0.46  6.22797746219
0.46  0.48  5.11633552105
0.46  0.5  4.20311237844
0.46  0.52  3.45289193664
0.46  0.54  2.83657957548
0.46  0.56  2.33027382139
0.46  0.58  1.91433941412
0.46  0.6  1.57264582335
0.46  0.62  1.29194168362
0.46  0.64  1.06134088749
0.46  0.66  0.87190040677
0.46  0.68  0.716273469045
0.46  0.7  0.588424639413
0.46  0.72  0.48339575767
0.46  0.74  0.397113653784
0.46  0.76  0.326232184539
0.46  0.78  0.268002465327
0.46  0.8  0.220166264475
0.46  0.82  0.180868425794
0.46  0.84  0.148584922978
0.46  0.86  0.12206375568
0.46  0.88  0.100276395156
0.46  0.9  0.0823778964474
0.46  0.92  0.0676741302136
0.46  0.94  0.0555948633999
0.46  0.96  0.045671644788
0.46  0.98  0.0375196377881
0.48  -1  0.026466054418
0.48  -0.98  0.0322164153915
0.48  -0.96  0.0392161749645
0.48  -0.94  0.0477367938102
0.48  -0.92  0.0581087136963
0.48  -0.9  0.0707341724889
0.48  -0.88  0.0861028035114
0.48  -0.86  0.104810624224
0.48  -0.84  0.127583150632
0.48  -0.82  0.155303533832
0.48  -0.8  0.189046809875
0.48  -0.78  0.230121591196
0.48  -0.76  0.280120816478
0.48  -0.74  0.340983527085
0.48  -0.72  0.415070065856
0.48  -0.7  0.505253614573
0.48  -0.68  0.615031620054
0.48  -0.66  0.748661430132
0.48  -0.64  0.911325399691
0.48  -0.62  1.10933186978
0.48  -0.6  1.3503598141
0.48  -0.58  1.64375664056
0.48  -0.56  2.00090069711
0.48  -0.54  2.43564254034
0.48  -0.52  2.96484207979
0.48  -0.5  3.60902242942
0.48  -0.48  4.39316582317
0.48  -0.46  5.34768246175
0.48  -0.44  6.50958986362
0.48  -0.42  7.92394845724
0.48  -0.4  9.64560908881
0.48  -0.38  11.7413402164
0.48  -0.36  14.2924172864
0.48  -0.34  17.3977747107
0.48  -0.32  21.1778426854
0.48  -0.3  25.7792176451
0.48  -0.28  31.3803474823
0.48  -0.26  38.1984520114
0.48  -0.24  46.4979470637
0.48  -0.22  56.6006989102
0.48  -0.2  35.0717024782
0.48  -0.18  33.1088080528
0.48  -0.16  30.9736956124
0.48  -0.14  28.7115338248
0.48  -0.12  26.3794394793
0.48  -0.1  24.0508425054
0.48  -0.08  21.8214272567
0.48  -0.06  19.8155495498
0.48  -0.04  18.1883391253
0.48  -0.02  17.1120494988
0.48  6.17561557e-16  16.733438788
0.48  0.02  17.1120494988
0.48  0.04  18.1883391253
0.48  0.06  19.8155495498
0.48  0.08  21.8214272567
0.48  0.1  24.0508425054
0.48  0.12  26.3794394793
0.48  0.14  28.7115338248
0.48  0.16  30.9736956124
0.48  0.18  33.1088080528
0.48  0.2  68.8985066961
0.48  0.22  56.6006989102
0.48  0.24  46.4979470637
0.48  0.26  38.1984520114
0.48  0.28  31.3803474823
0.48  0.3  25.7792176451
0.48  0.32  21.1778426854
0.48  0.34  17.3977747107
0.48  0.36  14.2924172864
0.48  0.38  11.7413402164
0.48  0.4  9.6456090888
0.48  0.42  7.92394845724
0.48  0.44  6.50958986362
0.48  0.46  5.34768246175
0.48  0.48  4.39316582317
0.48  0.5  3.60902242942
0.48  0.52  2.96484207979
0.48  0.54  2.43564254034
0.48  0.56  2.00090069711
0.48  0.58  1.64375664056
0.48  0.6  1.3503598141
0.48  0.62  1.10933186978
0.48  0.64  0.911325399691
0.48  0.66  0.748661430132
0.48  0.68  0.615031620054
0.48  0.7  0.505253614573
0.48  0.72  0.415070065856
0.48  0.74  0.340983527085
0.48  0.76  0.280120816478
0.48  0.78  0.230121591196
0.48  0.8  0.189046809875
0.48  0.82  0.155303533832
0.48  0.84  0.127583150632
0.48  0.86  0.104810624224
0.48  0.88  0.0861028035114
0.48  0.9  0.0707341724889
0.48  0.92  0.0581087136963
0.48  0.94  0.0477367938102
0.48  0.96  0.0392161749645
0.48  0.98  0.0322164153915
0.5  -1  0.0227252034713
0.5  -0.98  0.0276627782639
0.5  -0.96  0.033673155105
0.5  -0.94  0.0409894249921
0.5  -0.92  0.0498953233205
0.5  -0.9  0.0607362335464
0.5  -0.88  0.0739325816513
0.5  -0.86  0.0899961408612
0.5  -0.84  0.109549878944
0.5  -0.82  0.133352117788
0.5  -0.8  0.162325942211
0.5  -0.78  0.197594998502
0.5  -0.76  0.240527071035
0.5  -0.74  0.292787126898
0.5  -0.72  0.356401885692
0.5  -0.7  0.433838418618
0.5  -0.68  0.528099825015
0.5  -0.66  0.642841696845
0.5  -0.64  0.782513887769
0.5  -0.62  0.952533084826
0.5  -0.6  1.1594928753
0.5  -0.58  1.41141945543
0.5  -0.56  1.7180828978
0.5  -0.54  2.09137604866
0.5  -0.52  2.54577574955
0.5  -0.5  3.09890426981
0.5  -0.48  3.77221272343
0.5  -0.46  4.59181297385
0.5  -0.44  5.5894902893
0.5  -0.42  6.80393602094
0.5  -0.4  8.28224810868
0.5  -0.38  10.0817576066
0.5  -0.36  12.2722520629
0.5  -0.34  14.9386819812
0.5  -0.32  18.1844553218
0.5  -0.3  22.1354478104
0.5  -0.28  26.9448845783
0.5  -0.26  32.7992824521
0.5  -0.24  39.9256833425
0.5  -0.22  48.6004592538
0.5  -0.2  30.1144840977
0.5  -0.18  28.4290354659
0.5  -0.16  26.5957110165
0.5  -0.14  24.6532950412
0.5  -0.12  22.6508311424
0.5  -0.1  20.6513702783
0.5  -0.08  18.7370722741
0.5  -0.06  17.0147158432
0.5  -0.04  15.617503875
0.5  -0.02  14.6933426694
0.5  6.17561557e-16  14.3682467823
0.5  0.02  14.6933426694
0.5  0.04  15.617503875
0.5  0.06  17.0147158432
0.5  0.08  18.7370722741
0.5  0.1  20.6513702783
0.5  0.12  22.6508311424
0.5  0.14  24.6532950412
0.5  0.16  26.5957110165
0.5  0.18  28.4290354659
0.5  0.2  59.1600303849
0.5  0.22  48.6004592538
0.5  0.24  39.9256833425
0.5  0.26  32.7992824521
0.5  0.28  26.9448845783
0.5  0.3  22.1354478104
0.5  0.32  18.1844553218
0.5  0.34  14.9386819812
0.5  0.36  12.2722520629
0.5  0.38  10.0817576066
0.5  0.4  8.28224810868
0.5  0.42  6.80393602094
0.5  0.44  5.5894902893
0.5  0.46  4.59181297385
0.5  0.48  3.77221272343
0.5  0.5  3.09890426981
0.5  0.52  2.54577574955
0.5  0.54  2.09137604866
0.5  0.56  1.7180828978
0.5  0.58  1.41141945543
0.5  0.6  1.1594928753
0.5  0.62  0.952533084826
0.5  0.64  0.782513887769
0.5  0.66  0.642841696845
0.5  0.68  0.528099825015
0.5  0.7  0.433838418618
0.5  0.72  0.356401885692
0.5  0.74  0.292787126898
0.5  0.76  0.240527071035
0.5  0.78  0.197594998502
0.5  0.8  0.162325942211
0.5  0.82  0.133352117788
0.5  0.84  0.109549878944
0.5  0.86  0.0899961408612
0.5  0.88  0.0739325816513
0.5  0.9  0.0607362335464
0.5  0.92  0.0498953233205
0.5  0.94  0.0409894249921
0.5  0.96  0.033673155105
0.5  0.98  0.0276627782639
0.52  -1  0.0195131040183
0.52  -0.98  0.023752776092
0.52  -0.96  0.0289136147457
0.52  -0.94  0.0351957646729
0.52  -0.92  0.0428428566198
0.52  -0.9  0.0521514557336
0.52  -0.88  0.063482562782
0.52  -0.86  0.0772756142793
0.52  -0.84  0.0940655244615
0.52  -0.82  0.114503430024
0.52  -0.8  0.139381942134
0.52  -0.78  0.169665885022
0.52  -0.76  0.206529713243
0.52  -0.74  0.251403058704
0.52  -0.72  0.30602617383
0.52  -0.7  0.372517421035
0.52  -0.68  0.453455425848
0.52  -0.66  0.551979079689
0.52  -0.64  0.671909270562
0.52  -0.62  0.817897062552
0.52  -0.6  0.995604070727
0.52  -0.58  1.21192202666
0.52  -0.56  1.47524004963
0.52  -0.54  1.79576998861
0.52  -0.52  2.18594245243
0.52  -0.5  2.66088888647
0.52  -0.48  3.23902839173
0.52  -0.46  3.94278204392
0.52  -0.44  4.79944241476
0.52  -0.42  5.84223201689
0.52  -0.4  7.11159172035
0.52  -0.38  8.65674910732
0.52  -0.36  10.537627588
0.52  -0.34  12.8271703162
0.52  -0.32  15.6141690286
0.52  -0.3  19.0067075157
0.52  -0.28  23.1363532652
0.52  -0.26  28.1632598371
0.52  -0.24  34.2823778475
0.52  -0.22  41.731015432
0.52  -0.2  25.857944964
0.52  -0.18  24.410726482
0.52  -0.16  22.8365337261
0.52  -0.14  21.1686690128
0.52  -0.12  19.4492438644
0.52  -0.1  17.7323972861
0.52  -0.08  16.0886762024
0.52  -0.06  14.6097666633
0.52  -0.04  13.410043963
0.52  -0.02  12.6165085495
0.52  6.17561557e-16  12.3373634202
0.52  0.02  12.6165085495
0.52  0.04  13.410043963
0.52  0.06  14.6097666633
0.52  0.08  16.0886762024
0.52  0.1  17.7323972861
0.52  0.12  19.4492438644
0.52  0.14  21.1686690128
0.52  0.16  22.8365337261
0.52  0.18  24.410726482
0.52  0.2  50.7980413941
