-0.56  0.6  0.0655703986949
-0.56  0.62  0.0529547397343
-0.56  0.64  0.0427663170598
-0.56  0.66  0.0345381335843
-0.56  0.68  0.0278930418492
-0.56  0.7  0.0225264570739
-0.56  0.72  0.0181923961914
-0.56  0.74  0.0146922029549
-0.56  0.76  0.0118654423198
-0.56  0.78  0.00958254673423
-0.56  0.8  0.00773887727394
-0.56  0.82  0.00624992740679
-0.56  0.84  0.00504744954693
-0.56  0.86  0.0040763268548
-0.56  0.88  0.00329204689866
-0.56  0.9  0.00265866138046
-0.56  0.92  0.00214713840767
-0.56  0.94  0.00173403178591
-0.56  0.96  0.00140040633794
-0.56  0.98  0.00113096998988
-0.54  -1  0.00105759260982
-0.54  -0.98  0.0013095479164
-0.54  -0.96  0.00162152773141
-0.54  -0.94  0.00200783197834
-0.54  -0.92  0.00248616731935
-0.54  -0.9  0.00307845875875
-0.54  -0.88  0.00381185459865
-0.54  -0.86  0.00471997081007
-0.54  -0.84  0.00584443185629
-0.54  -0.82  0.00723677859404
-0.54  -0.8  0.00896083070295
-0.54  -0.78  0.0110956119278
-0.54  -0.76  0.0137389722152
-0.54  -0.74  0.0170120727687
-0.54  -0.72  0.0210649396006
-0.54  -0.7  0.0260833401321
-0.54  -0.68  0.0322972980386
-0.54  -0.66  0.0399916366275
-0.54  -0.64  0.0495190340144
-0.54  -0.62  0.0613161884962
-0.54  -0.6  0.0759238350772
-0.54  -0.58  0.0940115306286
-0.54  -0.56  0.116408343732
-0.54  -0.54  0.144140855913
-0.54  -0.52  0.178480216083
-0.54  -0.5  0.221000404996
-0.54  -0.48  0.273650380306
-0.54  -0.46  0.338843409102
-0.54  -0.44  0.419567682543
-0.54  -0.42  0.519523282748
-0.54  -0.4  0.643291779962
-0.54  -0.38  0.796546233649
-0.54  -0.36  0.986311223157
-0.54  -0.34  1.22128482671
-0.54  -0.32  1.51223730697
-0.54  -0.3  1.87250477742
-0.54  -0.28  2.31860047711
-0.54  -0.26  2.87097167244
-0.54  -0.24  3.55493687908
-0.54  -0.22  4.40184636288
-0.54  -0.2  2.7193504364
-0.54  -0.18  2.53301991338
-0.54  -0.16  2.336188603
-0.54  -0.14  2.13170136263
-0.54  -0.12  1.92319694619
-0.54  -0.1  1.71552226737
-0.54  -0.08  1.51541273697
-0.54  -0.06  1.3325187627
-0.54  -0.04  1.18056558679
-0.54  -0.02  1.07732673208
-0.54  6.17561557e-16  1.04031906815
-0.54  0.02  1.07732673208
-0.54  0.04  1.18056558679
-0.54  0.06  1.3325187627
-0.54  0.08  1.51541273697
-0.54  0.1  1.71552226737
-0.54  0.12  1.92319694619
-0.54  0.14  2.13170136263
-0.54  0.16  2.336188603
-0.54  0.18  2.53301991338
-0.54  0.2  5.45051911228
-0.54  0.22  4.40184636288
-0.54  0.24  3.55493687908
-0.54  0.26  2.87097167244
-0.54  0.28  2.31860047711
-0.54  0.3  1.87250477742
-0.54  0.32  1.51223730697
-0.54  0.34  1.22128482671
-0.54  0.36  0.986311223157
-0.54  0.38  0.796546233649
-0.54  0.4  0.643291779962
-0.54  0.42  0.519523282748
-0.54  0.44  0.419567682543
-0.54  0.46  0.338843409102
-0.54  0.48  0.273650380306
-0.54  0.5  0.221000404996
-0.54  0.52  0.178480216083
-0.54  0.54  0.144140855913
-0.54  0.56  0.116408343732
-0.54  0.58  0.0940115306286
-0.54  0.6  0.0759238350772
-0.54  0.62  0.0613161884962
-0.54  0.64  0.0495190340144
-0.54  0.66  0.0399916366275
-0.54  0.68  0.0322972980386
-0.54  0.7  0.0260833401321
-0.54  0.72  0.0210649396006
-0.54  0.74  0.0170120727687
-0.54  0.76  0.0137389722152
-0.54  0.78  0.0110956119278
-0.54  0.8  0.00896083070295
-0.54  0.82  0.00723677859404
-0.54  0.84  0.00584443185629
-0.54  0.86  0.00471997081007
-0.54  0.88  0.00381185459865
-0.54  0.9  0.00307845875875
-0.54  0.92  0.00248616731935
-0.54  0.94  0.00200783197834
-0.54  0.96  0.00162152773141
-0.54  0.98  0.0013095479164
-0.52  -1  0.00122458439304
-0.52  -0.98  0.00151632294465
-0.52  -0.96  0.00187756375595
-0.52  -0.94  0.00232486468011
-0.52  -0.92  0.00287872822624
-0.52  -0.9  0.00356454131351
-0.52  -0.88  0.0044137389073
-0.52  -0.86  0.005465244874
-0.52  -0.84  0.00676725609741
-0.52  -0.82  0.00837945163368
-0.52  -0.8  0.0103757281637
-0.52  -0.78  0.0128475871255
-0.52  -0.76  0.0159083287788
-0.52  -0.74  0.0196982454418
-0.52  -0.72  0.0243910519378
-0.52  -0.7  0.0302018479965
-0.52  -0.68  0.0373969775773
-0.52  -0.66  0.0463062370248
-0.52  -0.64  0.0573379916324
-0.52  -0.62  0.0709978934948
-0.52  -0.6  0.0879120586053
-0.52  -0.58  0.108855765542
-0.52  -0.56  0.134788991177
-0.52  -0.54  0.166900412229
-0.52  -0.52  0.206661889514
-0.52  -0.5  0.255895932233
-0.52  -0.48  0.316859234605
-0.52  -0.46  0.392346113822
-0.52  -0.44  0.485816590523
-0.52  -0.42  0.601554982481
-0.52  -0.4  0.74486628083
-0.52  -0.38  0.922319309914
-0.52  -0.36  1.14204781628
-0.52  -0.34  1.4141232875
-0.52  -0.32  1.75101658946
-0.52  -0.3  2.16816958158
-0.52  -0.28  2.68470291074
-0.52  -0.26  3.32429242629
-0.52  -0.24  4.11625438749
-0.52  -0.22  5.09688920523
-0.52  -0.2  3.14873049668
-0.52  -0.18  2.93297875228
-0.52  -0.16  2.70506816695
-0.52  -0.14  2.4682927954
-0.52  -0.12  2.22686594363
-0.52  -0.1  1.9863998434
-0.52  -0.08  1.75469341358
-0.52  -0.06  1.54292084219
-0.52  -0.04  1.36697456007
-0.52  -0.02  1.24743449421
-0.52  6.17561557e-16  1.20458339327
-0.52  0.02  1.24743449421
-0.52  0.04  1.36697456007
-0.52  0.06  1.54292084219
-0.52  0.08  1.75469341358
-0.52  0.1  1.9863998434
-0.52  0.12  2.22686594363
-0.52  0.14  2.4682927954
-0.52  0.16  2.70506816695
-0.52  0.18  2.93297875228
-0.52  0.2  6.31114530952
-0.52  0.22  5.09688920523
-0.52  0.24  4.11625438749
-0.52  0.26  3.32429242628
-0.52  0.28  2.68470291074
-0.52  0.3  2.16816958158
-0.52  0.32  1.75101658946
-0.52  0.34  1.4141232875
-0.52  0.36  1.14204781628
-0.52  0.38  0.922319309914
-0.52  0.4  0.74486628083
-0.52  0.42  0.601554982481
-0.52  0.44  0.485816590522
-0.52  0.46  0.392346113822
-0.52  0.48  0.316859234605
-0.52  0.5  0.255895932233
-0.52  0.52  0.206661889514
-0.52  0.54  0.166900412229
-0.52  0.56  0.134788991177
-0.52  0.58  0.108855765542
-0.52  0.6  0.0879120586053
-0.52  0.62  0.0709978934948
-0.52  0.64  0.0573379916324
-0.52  0.66  0.0463062370248
-0.52  0.68  0.0373969775773
-0.52  0.7  0.0302018479965
-0.52  0.72  0.0243910519378
-0.52  0.74  0.0196982454418
-0.52  0.76  0.0159083287788
-0.52  0.78  0.0128475871255
-0.52  0.8  0.0103757281637
-0.52  0.82  0.00837945163368
-0.52  0.84  0.00676725609741
-0.52  0.86  0.005465244874
-0.52  0.88  0.0044137389073
-0.52  0.9  0.00356454131351
-0.52  0.92  0.00287872822624
-0.52  0.94  0.00232486468011
-0.52  0.96  0.00187756375595
-0.52  0.98  0.00151632294465
-0.5  -1  0.00141794384884
-0.5  -0.98  0.00175574734125
-0.5  -0.96  0.00217402736282
-0.5  -0.94  0.00269195621901
-0.5  -0.92  0.00333327372461
-0.5  -0.9  0.00412737534314
-0.5  -0.88  0.00511065955892
-0.5  -0.86  0.00632819623991
-0.5  -0.84  0.00783579246263
-0.5  -0.82  0.00970255048827
-0.5  -0.8  0.0120140351377
-0.5  -0.78  0.014876195745
-0.5  -0.76  0.018420222457
-0.5  -0.74  0.0228085594721
-0.5  -0.72  0.0282423508404
-0.5  -0.7  0.0349706601143
-0.5  -0.68  0.0433018864378
-0.5  -0.66  0.0536179003468
-0.5  -0.64  0.0663915472074
-0.5  -0.62  0.082208320581
-0.5  -0.6  0.101793198939
-0.5  -0.58  0.126043875814
-0.5  -0.56  0.156071906531
-0.5  -0.54  0.193253657514
-0.5  -0.52  0.23929339349
-0.5  -0.5  0.296301394265
-0.5  -0.48  0.366890681614
-0.5  -0.46  0.454296789892
-0.5  -0.44  0.56252607016
-0.5  -0.42  0.696539325502
-0.5  -0.4  0.862479194667
-0.5  -0.38  1.06795170638
-0.5  -0.36  1.3223749097
-0.5  -0.34  1.6374105602
-0.5  -0.32  2.02749864881
-0.5  -0.3  2.51051927406
-0.5  -0.28  3.10861219519
-0.5  -0.26  3.84919163137
-0.5  -0.24  4.76620282128
-0.5  -0.22  5.90167793894
-0.5  -0.2  3.64590882001
-0.5  -0.18  3.39609030151
-0.5  -0.16  3.13219308511
-0.5  -0.14  2.85803135028
-0.5  -0.12  2.57848367569
-0.5  -0.1  2.30004845342
-0.5  -0.08  2.0317560362
-0.5  -0.06  1.78654499425
-0.5  -0.04  1.58281714187
-0.5  -0.02  1.44440193583
-0.5  6.17561557e-16  1.39478473073
-0.5  0.02  1.44440193583
-0.5  0.04  1.58281714187
-0.5  0.06  1.78654499425
-0.5  0.08  2.0317560362
-0.5  0.1  2.30004845342
-0.5  0.12  2.57848367569
-0.5  0.14  2.85803135028
-0.5  0.16  3.13219308511
-0.5  0.18  3.39609030151
-0.5  0.2  7.30766268264
-0.5  0.22  5.90167793894
-0.5  0.24  4.76620282128
-0.5  0.26  3.84919163137
-0.5  0.28  3.10861219519
-0.5  0.3  2.51051927406
-0.5  0.32  2.02749864881
-0.5  0.34  1.6374105602
-0.5  0.36  1.3223749097
-0.5  0.38  1.06795170638
-0.5  0.4  0.862479194667
-0.5  0.42  0.696539325502
-0.5  0.44  0.56252607016
-0.5  0.46  0.454296789892
-0.5  0.48  0.366890681614
-0.5  0.5  0.296301394265
-0.5  0.52  0.23929339349
-0.5  0.54  0.193253657514
-0.5  0.56  0.156071906531
-0.5  0.58  0.126043875814
-0.5  0.6  0.101793198939
-0.5  0.62  0.082208320581
-0.5  0.64  0.0663915472074
-0.5  0.66  0.0536179003468
-0.5  0.68  0.0433018864378
-0.5  0.7  0.0349706601143
-0.5  0.72  0.0282423508404
-0.5  0.74  0.0228085594721
-0.5  0.76  0.018420222457
-0.5  0.78  0.014876195745
-0.5  0.8  0.0120140351377
-0.5  0.82  0.00970255048827
-0.5  0.84  0.00783579246263
-0.5  0.86  0.00632819623991
-0.5  0.88  0.00511065955892
-0.5  0.9  0.00412737534314
-0.5  0.92  0.00333327372461
-0.5  0.94  0.00269195621901
-0.5  0.96  0.00217402736282
-0.5  0.98  0.00175574734125
-0.48  -1  0.00164183438062
-0.48  -0.98  0.00203297637696
-0.48  -0.96  0.00251730198739
-0.48  -0.94  0.0031170107865
-0.48  -0.92  0.00385959105895
-0.48  -0.9  0.00477907975385
-0.48  -0.88  0.00591762260426
-0.48  -0.86  0.00732740592125
-0.48  -0.84  0.00907304860843
-0.48  -0.82  0.0112345640375
-0.48  -0.8  0.0139110275454
-0.48  -0.78  0.0172251176567
-0.48  -0.76  0.0213287391834
-0.48  -0.74  0.0264099859414
-0.48  -0.72  0.0327017622293
-0.48  -0.7  0.0404924582419
-0.48  -0.68  0.0501391687388
-0.48  -0.66  0.062084060859
-0.48  -0.64  0.0768746413173
-0.48  -0.62  0.0951888519515
-0.48  -0.6  0.117866143901
-0.48  -0.58  0.145945954734
-0.48  -0.56  0.180715352164
-0.48  -0.54  0.223768028153
-0.48  -0.52  0.277077347463
-0.48  -0.5  0.343086798908
-0.48  -0.48  0.42482199524
-0.48  -0.46  0.526029355295
-0.48  -0.44  0.651347825048
-0.48  -0.42  0.80652150859
-0.48  -0.4  0.998662955188
-0.48  -0.38  1.23657917048
-0.48  -0.36  1.53117529484
-0.48  -0.34  1.89595445202
-0.48  -0.32  2.34763667898
-0.48  -0.3  2.90692530648
-0.48  -0.28  3.59945591799
-0.48  -0.26  4.4569713837
-0.48  -0.24  5.51877682843
-0.48  -0.22  6.83354122339
-0.48  -0.2  4.22159061813
-0.48  -0.18  3.93232624921
-0.48  -0.16  3.62676018383
-0.48  -0.14  3.30930885283
-0.48  -0.12  2.98562115283
-0.48  -0.1  2.66322155916
-0.48  -0.08  2.35256629943
-0.48  -0.06  2.06863691851
-0.48  -0.04  1.83274084081
-0.48  -0.02  1.67247014726
-0.48  6.17561557e-16  1.61501848353
-0.48  0.02  1.67247014726
-0.48  0.04  1.83274084081
-0.48  0.06  2.06863691851
-0.48  0.08  2.35256629943
-0.48  0.1  2.66322155916
-0.48  0.12  2.98562115283
-0.48  0.14  3.30930885283
-0.48  0.16  3.62676018383
-0.48  0.18  3.93232624921
-0.48  0.2  8.4615281798
-0.48  0.22  6.83354122339
-0.48  0.24  5.51877682843
-0.48  0.26  4.4569713837
-0.48  0.28  3.59945591799
-0.48  0.3  2.90692530648
-0.48  0.32  2.34763667898
-0.48  0.34  1.89595445202
-0.48  0.36  1.53117529484
-0.48  0.38  1.23657917048
-0.48  0.4  0.998662955188
-0.48  0.42  0.80652150859
-0.48  0.44  0.651347825048
-0.48  0.46  0.526029355295
-0.48  0.48  0.42482199524
-0.48  0.5  0.343086798908
-0.48  0.52  0.277077347463
-0.48  0.54  0.223768028153
-0.48  0.56  0.180715352164
-0.48  0.58  0.145945954734
-0.48  0.6  0.117866143901
-0.48  0.62  0.0951888519515
-0.48  0.64  0.0768746413173
-0.48  0.66  0.062084060859
-0.48  0.68  0.0501391687388
-0.48  0.7  0.0404924582419
-0.48  0.72  0.0327017622293
-0.48  0.74  0.0264099859414
-0.48  0.76  0.0213287391834
-0.48  0.78  0.0172251176567
-0.48  0.8  0.0139110275454
-0.48  0.82  0.0112345640375
-0.48  0.84  0.00907304860843
-0.48  0.86  0.00732740592125
-0.48  0.88  0.00591762260426
-0.48  0.9  0.00477907975385
-0.48  0.92  0.00385959105895
-0.48  0.94  0.0031170107865
-0.48  0.96  0.00251730198739
-0.48  0.98  0.00203297637696
-0.46  -1  0.00190107678494
-0.46  -0.98  0.00235397932958
-0.46  -0.96  0.00291477899684
-0.46  -0.94  0.00360918063027
-0.46  -0.92  0.00446901286034
-0.46  -0.9  0.0055336870032
-0.46  -0.88  0.00685200351986
-0.46  -0.86  0.00848438883677
-0.46  -0.84  0.0105056650547
-0.46  -0.82  0.0130084794987
-0.46  -0.8  0.0161075513056
-0.46  -0.78  0.0199449296967
-0.46  -0.76  0.0246965049534
-0.46  -0.74  0.0305800705337
-0.46  -0.72  0.0378653058645
-0.46  -0.7  0.0468861373825
-0.46  -0.68  0.0580560444043
-0.46  -0.66  0.0718870113864
-0.46  -0.64  0.0890129952718
-0.46  -0.62  0.110218983575
-0.46  -0.6  0.136476975112
-0.46  -0.58  0.168990532588
-0.46  -0.56  0.209249949165
-0.46  -0.54  0.259100557617
-0.46  -0.52  0.320827313103
-0.46  -0.5  0.397259526493
-0.46  -0.48  0.491900548812
-0.46  -0.46  0.609088351027
-0.46  -0.44  0.754194359516
-0.46  -0.42  0.933869661055
-0.46  -0.4  1.15634986239
-0.46  -0.38  1.43183257793
-0.46  -0.36  1.77294484819
-0.46  -0.34  2.19532191346
-0.46  -0.32  2.7183238715
-0.46  -0.3  3.36592306809
-0.46  -0.28  4.16780289467
-0.46  -0.26  5.16071835791
-0.46  -0.24  6.39018078416
-0.46  -0.22  7.91254387902
-0.46  -0.2  4.88817143458
-0.46  -0.18  4.55323279342
-0.46  -0.16  4.19941845013
-0.46  -0.14  3.83184218127
-0.46  -0.12  3.45704483307
-0.46  -0.1  3.08373898065
-0.46  -0.08  2.72403186928
-0.46  -0.06  2.39527060018
-0.46  -0.04  2.12212699796
-0.46  -0.02  1.9365498786
-0.46  6.17561557e-16  1.87002671069
-0.46  0.02  1.9365498786
-0.46  0.04  2.12212699796
-0.46  0.06  2.39527060018
-0.46  0.08  2.72403186928
-0.46  0.1  3.08373898065
-0.46  0.12  3.45704483307
-0.46  0.14  3.83184218127
-0.46  0.16  4.19941845013
-0.46  0.18  4.55323279342
-0.46  0.2  9.79758675884
-0.46  0.22  7.91254387902
-0.46  0.24  6.39018078416
-0.46  0.26  5.16071835791
-0.46  0.28  4.16780289467
-0.46  0.3  3.36592306809
-0.46  0.32  2.7183238715
-0.46  0.34  2.19532191346
-0.46  0.36  1.77294484819
-0.46  0.38  1.43183257793
-0.46  0.4  1.15634986239
-0.46  0.42  0.933869661055
-0.46  0.44  0.754194359516
-0.46  0.46  0.609088351027
-0.46  0.48  0.491900548812
-0.46  0.5  0.397259526493
-0.46  0.52  0.320827313103
-0.46  0.54  0.259100557617
-0.46  0.56  0.209249949165
-0.46  0.58  0.168990532588
-0.46  0.6  0.136476975112
-0.46  0.62  0.110218983575
-0.46  0.64  0.0890129952718
-0.46  0.66  0.0718870113864
-0.46  0.68  0.0580560444043
-0.46  0.7  0.0468861373825
-0.46  0.72  0.0378653058645
-0.46  0.74  0.0305800705337
-0.46  0.76  0.0246965049534
-0.46  0.78  0.0199449296967
-0.46  0.8  0.0161075513056
-0.46  0.82  0.0130084794987
-0.46  0.84  0.0105056650547
-0.46  0.86  0.00848438883677
-0.46  0.88  0.00685200351986
-0.46  0.9  0.0055336870032
-0.46  0.92  0.00446901286034
-0.46  0.94  0.00360918063027
-0.46  0.96  0.00291477899684
-0.46  0.98  0.00235397932958
-0.44  -1  0.00220125305262
-0.44  -0.98  0.0027256680141
-0.44  -0.96  0.00337501684064
-0.44  -0.94  0.00417906311981
-0.44  -0.92  0.00517466115992
-0.44  -0.9  0.00640744524606
-0.44  -0.88  0.00793392133562
-0.44  -0.86  0.00982405706837
-0.44  -0.84  0.012164488807
-0.44  -0.82  0.015062492706
-0.44  -0.8  0.0186509018272
-0.44  -0.78  0.0230941946833
-0.44  -0.76  0.0285960342836
-0.44  -0.74  0.0354086032427
-0.44  -0.72  0.0438441628361
-0.44  -0.7  0.054289365825
-0.44  -0.68  0.0672229790931
-0.44  -0.66  0.0832378284307
-0.44  -0.64  0.10306797133
-0.44  -0.62  0.127622343281
-0.44  -0.6  0.158026419794
-0.44  -0.58  0.195673803747
-0.44  -0.56  0.242290102646
-0.44  -0.54  0.300012023665
-0.44  -0.52  0.371485311866
-0.44  -0.5  0.459986020715
-0.44  -0.48  0.569570673441
-0.44  -0.46  0.705262198055
-0.44  -0.44  0.873280158545
-0.44  -0.42  1.08132583515
-0.44  -0.4  1.33893522063
-0.44  -0.38  1.65791611259
-0.44  -0.36  2.05288933626
-0.44  -0.34  2.54195890549
-0.44  -0.32  3.14754183922
-0.44  -0.3  3.89739566925
-0.44  -0.28  4.82589073588
-0.44  -0.26  5.9755855887
-0.44  -0.24  7.39917770255
-0.44  -0.22  9.1619189218
-0.44  -0.2  5.66000404474
-0.44  -0.18  5.27217925401
-0.44  -0.16  4.86249832508
-0.44  -0.14  4.43688248971
-0.44  -0.12  4.00290538086
-0.44  -0.1  3.57065527202
-0.44  -0.08  3.15415111856
-0.44  -0.06  2.77347909473
-0.44  -0.04  2.45720665747
-0.44  -0.02  2.24232727768
-0.44  6.17561557e-16  2.16530023301
-0.44  0.02  2.24232727768
-0.44  0.04  2.45720665747
-0.44  0.06  2.77347909473
-0.44  0.08  3.15415111856
-0.44  0.1  3.57065527202
-0.44  0.12  4.00290538086
-0.44  0.14  4.43688248971
-0.44  0.16  4.86249832508
-0.44  0.18  5.27217925401
-0.44  0.2  11.3446063474
-0.44  0.22  9.1619189218
-0.44  0.24  7.39917770255
-0.44  0.26  5.9755855887
-0.44  0.28  4.82589073588
-0.44  0.3  3.89739566925
-0.44  0.32  3.14754183922
-0.44  0.34  2.54195890549
-0.44  0.36  2.05288933626
-0.44  0.38  1.65791611259
-0.44  0.4  1.33893522063
-0.44  0.42  1.08132583515
-0.44  0.44  0.873280158545
-0.44  0.46  0.705262198055
-0.44  0.48  0.569570673441
-0.44  0.5  0.459986020715
-0.44  0.52  0.371485311866
-0.44  0.54  0.300012023665
-0.44  0.56  0.242290102646
-0.44  0.58  0.195673803747
-0.44  0.6  0.158026419794
-0.44  0.62  0.127622343281
-0.44  0.64  0.10306797133
-0.44  0.66  0.0832378284307
-0.44  0.68  0.0672229790931
-0.44  0.7  0.054289365825
-0.44  0.72  0.0438441628361
-0.44  0.74  0.0354086032427
-0.44  0.76  0.0285960342836
-0.44  0.78  0.0230941946833
-0.44  0.8  0.0186509018272
-0.44  0.82  0.015062492706
-0.44  0.84  0.012164488807
-0.44  0.86  0.00982405706837
-0.44  0.88  0.00793392133562
-0.44  0.9  0.00640744524606
-0.44  0.92  0.00517466115992
-0.44  0.94  0.00417906311981
-0.44  0.96  0.00337501684064
-0.44  0.98  0.0027256680141
-0.42  -1  0.00254882655981
-0.42  -0.98  0.00315604560743
-0.42  -0.96  0.00390792533051
-0.42  -0.94  0.00483892892831
-0.42  -0.92  0.00599172993159
-0.42  -0.9  0.00741916818887
-0.42  -0.88  0.00918667183655
-0.42  -0.86  0.0113752562665
-0.42  -0.84  0.0140852375518
-0.42  -0.82  0.0174408305397
-0.42  -0.8  0.0215958423703
-0.42  -0.78  0.0267407223881
-0.42  -0.76  0.0331112915893
-0.42  -0.74  0.0409995517249
-0.42  -0.72  0.0507670695088
-0.42  -0.7  0.0628615494093
-0.42  -0.68  0.0778373546548
-0.42  -0.66  0.0963809170563
-0.42  -0.64  0.119342200333
-0.42  -0.62  0.147773659095
-0.42  -0.6  0.182978479209
-0.42  -0.58  0.226570310694
-0.42  -0.56  0.280547231072
-0.42  -0.54  0.347383329358
-0.42  -0.52  0.43014210853
-0.42  -0.5  0.532616904422
-0.42  -0.48  0.659504757267
-0.42  -0.46  0.816621705482
-0.42  -0.44  1.01116936992
-0.42  -0.42  1.25206504774
-0.42  -0.4  1.55035044614
-0.42  -0.38  1.91969779061
-0.42  -0.36  2.37703650581
-0.42  -0.34  2.94332919358
-0.42  -0.32  3.64453247588
-0.42  -0.3  4.51278674391
-0.42  -0.28  5.58788934679
-0.42  -0.26  6.91911874499
-0.42  -0.24  8.56749324051
-0.42  -0.22  10.608567815
-0.42  -0.2  6.55370749886
-0.42  -0.18  6.10464594003
-0.42  -0.16  5.63027720198
-0.42  -0.14  5.13745746726
-0.42  -0.12  4.63495623049
-0.42  -0.1  4.13445468361
-0.42  -0.08  3.65218534737
-0.42  -0.06  3.21140596321
-0.42  -0.04  2.84519473308
-0.42  -0.02  2.59638632383
-0.42  6.17561557e-16  2.50719686102
-0.42  0.02  2.59638632383
-0.42  0.04  2.84519473308
-0.42  0.06  3.21140596321
-0.42  0.08  3.65218534737
-0.42  0.1  4.13445468361
-0.42  0.12  4.63495623049
-0.42  0.14  5.13745746726
-0.42  0.16  5.63027720198
-0.42  0.18  6.10464594003
-0.42  0.2  13.1358972719
-0.42  0.22  10.608567815
-0.42  0.24  8.56749324051
-0.42  0.26  6.91911874499
-0.42  0.28  5.58788934679
-0.42  0.3  4.51278674391
-0.42  0.32  3.64453247588
-0.42  0.34  2.94332919358
-0.42  0.36  2.37703650581
-0.42  0.38  1.91969779061
-0.42  0.4  1.55035044614
-0.42  0.42  1.25206504774
-0.42  0.44  1.01116936992
-0.42  0.46  0.816621705482
-0.42  0.48  0.659504757267
-0.42  0.5  0.532616904422
-0.42  0.52  0.43014210853
-0.42  0.54  0.347383329358
-0.42  0.56  0.280547231072
-0.42  0.58  0.226570310694
-0.42  0.6  0.182978479209
-0.42  0.62  0.147773659095
-0.42  0.64  0.119342200333
-0.42  0.66  0.0963809170563
-0.42  0.68  0.0778373546548
-0.42  0.7  0.0628615494093
-0.42  0.72  0.0507670695088
-0.42  0.74  0.0409995517249
-0.42  0.76  0.0331112915893
-0.42  0.78  0.0267407223881
-0.42  0.8  0.0215958423703
-0.42  0.82  0.0174408305397
-0.42  0.84  0.0140852375518
-0.42  0.86  0.0113752562665
-0.42  0.88  0.00918667183655
-0.42  0.9  0.00741916818887
-0.42  0.92  0.00599172993159
-0.42  0.94  0.00483892892831
-0.42  0.96  0.00390792533051
-0.42  0.98  0.00315604560743
-0.4  -1  0.00295128123695
-0.4  -0.98  0.00365437897228
-0.4  -0.96  0.00452497901788
-0.4  -0.94  0.00560298624404
-0.4  -0.92  0.00693781224773
-0.4  -0.9  0.00859064018512
-0.4  -0.88  0.0106372291661
-0.4  -0.86  0.0131713867527
-0.4  -0.84  0.0163092687278
-0.4  -0.82  0.0201947032177
-0.4  -0.8  0.0250057832057
-0.4  -0.78  0.0309630296117
-0.4  -0.76  0.0383394991011
-0.4  -0.74  0.0474732999244
-0.4  -0.72  0.0587830894651
-0.4  -0.7  0.0727872638424
-0.4  -0.68  0.0901277191429
-0.4  -0.66  0.111599273404
-0.4  -0.64  0.138186097938
-0.4  -0.62  0.171106827856
-0.4  -0.6  0.211870419498
-0.4  -0.58  0.262345315034
-0.4  -0.56  0.324845084479
-0.4  -0.54  0.40223447061
-0.4  -0.52  0.498060697477
-0.4  -0.5  0.616716061143
-0.4  -0.48  0.763639255213
-0.4  -0.46  0.945564659078
-0.4  -0.44  1.17083101529
-0.4  -0.42  1.44976364462
-0.4  -0.4  1.79514771799
-0.4  -0.38  2.2228142783
-0.4  -0.36  2.7523658729
-0.4  -0.34  3.40807505703
-0.4  -0.32  4.21999695198
-0.4  -0.3  5.2253468532
-0.4  -0.28  6.4702060326
-0.4  -0.26  8.01163392218
-0.4  -0.24  9.92028349324
-0.4  -0.22  12.2836397097
-0.4  -0.2  7.58852496236
-0.4  -0.18  7.06855747077
-0.4  -0.16  6.51928684637
-0.4  -0.14  5.94865184938
-0.4  -0.12  5.3668066603
-0.4  -0.1  4.78727690819
-0.4  -0.08  4.22885819675
-0.4  -0.06  3.71848061884
-0.4  -0.04  3.29444535914
-0.4  -0.02  3.00635059373
-0.4  6.17561557e-16  2.90307829099
-0.4  0.02  3.00635059373
-0.4  0.04  3.29444535914
-0.4  0.06  3.71848061884
-0.4  0.08  4.22885819675
-0.4  0.1  4.78727690819
-0.4  0.12  5.3668066603
-0.4  0.14  5.94865184938
-0.4  0.16  6.51928684637
-0.4  0.18  7.06855747077
-0.4  0.2  15.2100294937
-0.4  0.22  12.2836397097
-0.4  0.24  9.92028349324
-0.4  0.26  8.01163392218
-0.4  0.28  6.4702060326
-0.4  0.3  5.2253468532
-0.4  0.32  4.21999695198
-0.4  0.34  3.40807505703
-0.4  0.36  2.7523658729
-0.4  0.38  2.2228142783
-0.4  0.4  1.79514771799
-0.4  0.42  1.44976364462
-0.4  0.44  1.17083101529
-0.4  0.46  0.945564659078
-0.4  0.48  0.763639255213
-0.4  0.5  0.616716061143
-0.4  0.52  0.498060697477
-0.4  0.54  0.40223447061
-0.4  0.56  0.324845084479
-0.4  0.58  0.262345315034
-0.4  0.6  0.211870419498
-0.4  0.62  0.171106827856
-0.4  0.64  0.138186097938
-0.4  0.66  0.111599273404
-0.4  0.68  0.0901277191429
-0.4  0.7  0.0727872638424
-0.4  0.72  0.0587830894651
-0.4  0.74  0.0474732999244
-0.4  0.76  0.0383394991011
-0.4  0.78  0.0309630296117
-0.4  0.8  0.0250057832057
-0.4  0.82  0.0201947032177
-0.4  0.84  0.0163092687278
-0.4  0.86  0.0131713867527
-0.4  0.88  0.0106372291661
-0.4  0.9  0.00859064018512
-0.4  0.92  0.00693781224773
-0.4  0.94  0.00560298624404
-0.4  0.96  0.00452497901788
-0.4  0.98  0.00365437897228
-0.38  -1  0.00341728271233
-0.38  -0.98  0.00423139819071
-0.38  -0.96  0.00523946426313
-0.38  -0.94  0.0064876867001
-0.38  -0.92  0.00803327909206
-0.38  -0.9  0.00994708529467
-0.38  -0.88  0.0123168266315
-0.38  -0.86  0.0152511226934
-0.38  -0.84  0.0188844700317
-0.38  -0.82  0.0233834069497
-0.38  -0.8  0.0289541469607
-0.38  -0.78  0.0358520308024
-0.38  -0.76  0.0443932302478
-0.38  -0.74  0.054969240172
-0.38  -0.72  0.0680648231323
-0.38  -0.7  0.0842802289706
-0.38  -0.68  0.104358707897
-0.38  -0.66  0.129220578147
-0.38  -0.64  0.160005409737
-0.38  -0.62  0.198124257855
-0.38  -0.6  0.245324340067
-0.38  -0.58  0.303769121866
-0.38  -0.56  0.376137481402
-0.38  -0.54  0.465746498677
-0.38  -0.52  0.576703497407
-0.38  -0.5  0.714094308525
-0.38  -0.48  0.884216384609
-0.38  -0.46  1.09486745025
-0.38  -0.44  1.35570291896
-0.38  -0.42  1.67867845927
-0.38  -0.4  2.07859799533
-0.38  -0.38  2.57379226041
-0.38  -0.36  3.18695900537
-0.38  -0.34  3.94620337395
-0.38  -0.32  4.8863261317
-0.38  -0.3  6.05041879568
-0.38  -0.28  7.49183877958
-0.38  -0.26  9.27665508697
-0.38  -0.24  11.4866766537
-0.38  -0.22  14.2232021466
-0.38  -0.2  8.78673805848
-0.38  -0.18  8.18466872746
-0.38  -0.16  7.54866935686
-0.38  -0.14  6.88793222146
-0.38  -0.12  6.21421482679
-0.38  -0.1  5.54317847201
-0.38  -0.08  4.89658654951
-0.38  -0.06  4.30562136059
-0.38  -0.04  3.8146317713
-0.38  -0.02  3.48104741173
-0.38  6.17561557e-16  3.36146861645
-0.38  0.02  3.48104741173
-0.38  0.04  3.8146317713
-0.38  0.06  4.30562136059
-0.38  0.08  4.89658654951
-0.38  0.1  5.54317847201
-0.38  0.12  6.21421482679
-0.38  0.14  6.88793222146
-0.38  0.16  7.54866935686
-0.38  0.18  8.18466872746
-0.38  0.2  17.6116630947
-0.38  0.22  14.2232021466
-0.38  0.24  11.4866766537
-0.38  0.26  9.27665508697
-0.38  0.28  7.49183877958
-0.38  0.3  6.05041879568
-0.38  0.32  4.8863261317
-0.38  0.34  3.94620337395
-0.38  0.36  3.18695900537
-0.38  0.38  2.57379226041
-0.38  0.4  2.07859799533
-0.38  0.42  1.67867845927
-0.38  0.44  1.35570291896
-0.38  0.46  1.09486745025
-0.38  0.48  0.884216384609
-0.38  0.5  0.714094308525
-0.38  0.52  0.576703497407
-0.38  0.54  0.465746498677
-0.38  0.56  0.376137481402
-0.38  0.58  0.303769121866
-0.38  0.6  0.245324340067
-0.38  0.62  0.198124257855
-0.38  0.64  0.160005409737
-0.38  0.66  0.129220578147
-0.38  0.68  0.104358707897
-0.38  0.7  0.0842802289706
-0.38  0.72  0.0680648231323
-0.38  0.74  0.054969240172
-0.38  0.76  0.0443932302478
-0.38  0.78  0.0358520308024
-0.38  0.8  0.0289541469607
-0.38  0.82  0.0233834069497
-0.38  0.84  0.0188844700317
-0.38  0.86  0.0152511226934
-0.38  0.88  0.0123168266315
-0.38  0.9  0.00994708529467
-0.38  0.92  0.00803327909206
-0.38  0.94  0.0064876867001
-0.38  0.96  0.00523946426313
-0.38  0.98  0.00423139819071
-0.36  -1  0.00395686489983
-0.36  -0.98  0.00489952760349
-0.36  -0.96  0.00606676531675
-0.36  -0.94  0.00751207960994
-0.36  -0.92  0.0093017179864
-0.36  -0.9  0.0115177104066
-0.36  -0.88  0.0142616292177
-0.36  -0.86  0.0176592448294
-0.36  -0.84  0.0218662905327
-0.36  -0.82  0.0270756006998
-0.36  -0.8  0.0335259495505
-0.36  -0.78  0.0415129956201
-0.36  -0.76  0.0514028335799
-0.36  -0.74  0.0636487745722
-0.36  -0.72  0.0788121242043
-0.36  -0.7  0.0975879105817
-0.36  -0.68  0.120836741654
-0.36  -0.66  0.149624252088
-0.36  -0.64  0.185269947753
-0.36  -0.62  0.229407686664
-0.36  -0.6  0.284060568586
-0.36  -0.58  0.35173366594
-0.36  -0.56  0.435528846442
-0.36  -0.54  0.539286950472
-0.36  -0.52  0.667763840042
-0.36  -0.5  0.826848388743
-0.36  -0.48  1.02383240447
-0.36  -0.46  1.26774485711
-0.36  -0.44  1.56976573091
-0.36  -0.42  1.94373847081
-0.36  -0.4  2.40680451134
-0.36  -0.38  2.98018897234
-0.36  -0.36  3.69017353467
-0.36  -0.34  4.56930108873
-0.36  -0.32  5.65786737219
-0.36  -0.3  7.00576796749
-0.36  -0.28  8.6747853185
-0.36  -0.26  10.7414205939
-0.36  -0.24  13.3004001988
-0.36  -0.22  16.4690176595
-0.36  -0.2  10.1741466347
-0.36  -0.18  9.47701174607
-0.36  -0.16  8.74058933163
-0.36  -0.14  7.97552310821
-0.36  -0.12  7.19542706823
-0.36  -0.1  6.41843539905
-0.36  -0.08  5.6697478897
-0.36  -0.06  4.98547046523
-0.36  -0.04  4.41695459001
-0.36  -0.02  4.03069791926
-0.36  6.17561557e-16  3.8922378685
-0.36  0.02  4.03069791926
-0.36  0.04  4.41695459001
-0.36  0.06  4.98547046523
-0.36  0.08  5.6697478897
-0.36  0.1  6.41843539905
-0.36  0.12  7.19542706823
-0.36  0.14  7.97552310821
-0.36  0.16  8.74058933163
-0.36  0.18  9.47701174607
-0.36  0.2  20.3925098956
-0.36  0.22  16.4690176595
-0.36  0.24  13.3004001988
-0.36  0.26  10.7414205939
-0.36  0.28  8.6747853185
-0.36  0.3  7.00576796749
-0.36  0.32  5.65786737219
-0.36  0.34  4.56930108873
-0.36  0.36  3.69017353467
-0.36  0.38  2.98018897234
-0.36  0.4  2.40680451134
-0.36  0.42  1.94373847081
-0.36  0.44  1.56976573091
-0.36  0.46  1.26774485711
-0.36  0.48  1.02383240447
-0.36  0.5  0.826848388743
-0.36  0.52  0.667763840042
-0.36  0.54  0.539286950472
-0.36  0.56  0.435528846442
-0.36  0.58  0.35173366594
-0.36  0.6  0.284060568586
-0.36  0.62  0.229407686664
-0.36  0.64  0.185269947753
-0.36  0.66  0.149624252088
-0.36  0.68  0.120836741654
-0.36  0.7  0.0975879105817
-0.36  0.72  0.0788121242043
-0.36  0.74  0.0636487745722
-0.36  0.76  0.0514028335799
-0.36  0.78  0.0415129956201
-0.36  0.8  0.0335259495505
-0.36  0.82  0.0270756006998
-0.36  0.84  0.0218662905327
-0.36  0.86  0.0176592448294
-0.36  0.88  0.0142616292177
-0.36  0.9  0.0115177104066
-0.36  0.92  0.0093017179864
-0.36  0.94  0.00751207960994
-0.36  0.96  0.00606676531675
-0.36  0.98  0.00489952760349
-0.34  -1  0.00458164604848
-0.34  -0.98  0.00567315333028
-0.34  -0.96  0.00702469557193
-0.34  -0.94  0.00869822213597
-0.34  -0.92  0.0107704408756
-0.34  -0.9  0.01333633412
-0.34  -0.88  0.0165135122893
-0.34  -0.86  0.0204476046921
-0.34  -0.84  0.0253189345986
-0.34  -0.82  0.0313507845471
-0.34  -0.8  0.038819630735
-0.34  -0.78  0.048067815596
-0.34  -0.76  0.0595192394267
-0.34  -0.74  0.0736987903029
-0.34  -0.72  0.091256402878
-0.34  -0.7  0.112996848822
-0.34  -0.68  0.13991662438
-0.34  -0.66  0.173249625825
-0.34  -0.64  0.214523706397
-0.34  -0.62  0.265630707063
-0.34  -0.6  0.328913171043
-0.34  -0.58  0.407271716743
-0.34  -0.56  0.504297990661
-0.34  -0.54  0.624439294284
-0.34  -0.52  0.773202430839
-0.34  -0.5  0.957406115417
-0.34  -0.48  1.18549351797
-0.34  -0.46  1.4679192649
-0.34  -0.44  1.81762863786
-0.34  -0.42  2.25065093439
-0.34  -0.4  2.78683418768
-0.34  -0.38  3.45075492202
-0.34  -0.36  4.27284464376
-0.34  -0.34  5.2907847014
-0.34  -0.32  6.55123344993
-0.34  -0.3  8.11196488568
-0.34  -0.28  10.0445167783
-0.34  -0.26  12.4374696799
-0.34  -0.24  15.4005071078
-0.34  -0.22  19.0694430041
-0.34  -0.2  11.7806242836
-0.34  -0.18  10.9734131736
-0.34  -0.16  10.1207111151
-0.34  -0.14  9.23484244682
-0.34  -0.12  8.33157078365
-0.34  -0.1  7.4318936653
-0.34  -0.08  6.56498987768
-0.34  -0.06  5.77266640007
-0.34  -0.04  5.11438299158
-0.34  -0.02  4.66713715578
-0.34  6.17561557e-16  4.50681453662
-0.34  0.02  4.66713715578
-0.34  0.04  5.11438299158
-0.34  0.06  5.77266640006
-0.34  0.08  6.56498987768
-0.34  0.1  7.4318936653
-0.34  0.12  8.33157078365
-0.34  0.14  9.23484244682
-0.34  0.16  10.1207111151
-0.34  0.18  10.9734131736
-0.34  0.2  23.6124469111
-0.34  0.22  19.0694430041
-0.34  0.24  15.4005071078
-0.34  0.26  12.4374696799
-0.34  0.28  10.0445167783
-0.34  0.3  8.11196488568
-0.34  0.32  6.55123344993
-0.34  0.34  5.2907847014
-0.34  0.36  4.27284464376
-0.34  0.38  3.45075492202
-0.34  0.4  2.78683418768
-0.34  0.42  2.25065093439
-0.34  0.44  1.81762863786
-0.34  0.46  1.4679192649
-0.34  0.48  1.18549351797
-0.34  0.5  0.957406115417
-0.34  0.52  0.773202430839
-0.34  0.54  0.624439294284
-0.34  0.56  0.504297990661
-0.34  0.58  0.407271716743
-0.34  0.6  0.328913171043
-0.34  0.62  0.265630707063
-0.34  0.64  0.214523706397
-0.34  0.66  0.173249625825
-0.34  0.68  0.13991662438
-0.34  0.7  0.112996848822
-0.34  0.72  0.091256402878
-0.34  0.74  0.0736987903029
-0.34  0.76  0.0595192394267
-0.34  0.78  0.048067815596
-0.34  0.8  0.038819630735
-0.34  0.82  0.0313507845471
-0.34  0.84  0.0253189345986
-0.34  0.86  0.0204476046921
-0.34  0.88  0.0165135122893
-0.34  0.9  0.01333633412
-0.34  0.92  0.0107704408756
-0.34  0.94  0.00869822213597
-0.34  0.96  0.00702469557193
-0.34  0.98  0.00567315333028
-0.32  -1  0.0053050789059
-0.32  -0.98  0.0065689330306
-0.32  -0.96  0.00813388112146
-0.32  -0.94  0.010071654223
-0.32  -0.92  0.0124710722068
-0.32  -0.9  0.0154421149241
-0.32  -0.88  0.0191209632479
-0.32  -0.86  0.0236762410672
-0.32  -0.84  0.0293167443398
-0.32  -0.82  0.0363010114759
-0.32  -0.8  0.0449491737178
-0.32  -0.78  0.0556576286934
-0.32  -0.76  0.0689172097181
-0.32  -0.74  0.085335683658
-0.32  -0.72  0.105665608564
-0.32  -0.7  0.130838827962
-0.32  -0.68  0.162009182885
-0.32  -0.66  0.20060539939
-0.32  -0.64  0.248396575724
-0.32  -0.62  0.307573270804
-0.32  -0.6  0.380847910796
-0.32  -0.58  0.47157911602
-0.32  -0.56  0.58392564686
-0.32  -0.54  0.723037024918
-0.32  -0.52  0.895289566768
-0.32  -0.5  1.10857864914
-0.32  -0.48  1.37268060184
-0.32  -0.46  1.69970081612
-0.32  -0.44  2.10462860802
-0.32  -0.42  2.60602426949
-0.32  -0.4  3.22686979894
-0.32  -0.38  3.99562230529
-0.32  -0.36  4.94751836958
-0.32  -0.34  6.1261891508
-0.32  -0.32  7.58566026599
-0.32  -0.3  9.39282811134
-0.32  -0.28  11.630526129
-0.32  -0.26  14.4013215651
-0.32  -0.24  17.8322167476
-0.32  -0.22  22.0804703719
-0.32  -0.2  13.6407615786
-0.32  -0.18  12.7060934295
-0.32  -0.16  11.718751401
-0.32  -0.14  10.6930058205
-0.32  -0.12  9.64710934664
-0.32  -0.1  8.60537498913
-0.32  -0.08  7.6015888065
-0.32  -0.06  6.68415901746
-0.32  -0.04  5.92193395958
-0.32  -0.02  5.40406889009
-0.32  6.17561557e-16  5.21843164618
-0.32  0.02  5.40406889009
-0.32  0.04  5.92193395958
-0.32  0.06  6.68415901746
-0.32  0.08  7.6015888065
-0.32  0.1  8.60537498913
-0.32  0.12  9.64710934664
-0.32  0.14  10.6930058205
-0.32  0.16  11.718751401
-0.32  0.18  12.7060934295
-0.32  0.2  27.3408056186
-0.32  0.22  22.0804703719
-0.32  0.24  17.8322167476
-0.32  0.26  14.4013215651
-0.32  0.28  11.630526129
-0.32  0.3  9.39282811134
-0.32  0.32  7.58566026599
-0.32  0.34  6.1261891508
-0.32  0.36  4.94751836958
-0.32  0.38  3.99562230529
-0.32  0.4  3.22686979894
-0.32  0.42  2.60602426949
-0.32  0.44  2.10462860802
-0.32  0.46  1.69970081612
-0.32  0.48  1.37268060184
-0.32  0.5  1.10857864914
-0.32  0.52  0.895289566768
-0.32  0.54  0.723037024918
-0.32  0.56  0.58392564686
-0.32  0.58  0.47157911602
-0.32  0.6  0.380847910796
-0.32  0.62  0.307573270804
-0.32  0.64  0.248396575724
-0.32  0.66  0.20060539939
-0.32  0.68  0.162009182885
-0.32  0.7  0.130838827962
-0.32  0.72  0.105665608564
-0.32  0.74  0.085335683658
-0.32  0.76  0.0689172097181
-0.32  0.78  0.0556576286934
-0.32  0.8  0.0449491737178
-0.32  0.82  0.0363010114759
-0.32  0.84  0.0293167443398
-0.32  0.86  0.0236762410672
-0.32  0.88  0.0191209632479
-0.32  0.9  0.0154421149241
-0.32  0.92  0.0124710722068
-0.32  0.94  0.010071654223
-0.32  0.96  0.00813388112146
-0.32  0.98  0.0065689330306
-0.3  -1  0.00614274038195
-0.3  -0.98  0.00760615457548
-0.3  -0.96  0.00941820487744
-0.3  -0.94  0.0116619485225
-0.3  -0.92  0.0144402298645
-0.3  -0.9  0.0178803943559
-0.3  -0.88  0.0221401255605
-0.3  -0.86  0.0274146727458
-0.3  -0.84  0.0339458003392
-0.3  -0.82  0.0420328694546
-0.3  -0.8  0.0520465594253
-0.3  -0.78  0.0644458582808
-0.3  -0.76  0.0797991009476
-0.3  -0.74  0.0988100194785
-0.3  -0.72  0.122349999354
-0.3  -0.7  0.151498020351
-0.3  -0.68  0.187590112721
-0.3  -0.66  0.232280595544
-0.3  -0.64  0.287617904182
-0.3  -0.62  0.356138482479
-0.3  -0.6  0.440983043329
-0.3  -0.58  0.546040526568
-0.3  -0.56  0.676126352623
-0.3  -0.54  0.837203142382
-0.3  -0.52  1.03665402021
-0.3  -0.5  1.28362102722
-0.3  -0.48  1.58942415637
-0.3  -0.46  1.96808021626
-0.3  -0.44  2.43694530633
-0.3  -0.42  3.01751035197
-0.3  -0.4  3.73638616368
-0.3  -0.38  4.62652317167
-0.3  -0.36  5.72872174351
-0.3  -0.34  7.09350231195
-0.3  -0.32  8.78342103222
-0.3  -0.3  10.8759371093
-0.3  -0.28  13.4669632221
-0.3  -0.26  16.6752617822
-0.3  -0.24  20.6478885344
-0.3  -0.22  25.5669330112
-0.3  -0.2  15.7946108768
-0.3  -0.18  14.7123604739
-0.3  -0.16  13.5691190901
-0.3  -0.14  12.3814103095
-0.3  -0.12  11.1703688491
-0.3  -0.1  9.96414669511
-0.3  -0.08  8.80186465779
-0.3  -0.06  7.73957451797
-0.3  -0.04  6.85699562966
-0.3  -0.02  6.25736068904
-0.3  6.17561557e-16  6.04241169114
-0.3  0.02  6.25736068904
-0.3  0.04  6.85699562966
-0.3  0.06  7.73957451797
-0.3  0.08  8.80186465779
-0.3  0.1  9.96414669511
-0.3  0.12  11.1703688491
-0.3  0.14  12.3814103095
-0.3  0.16  13.5691190901
-0.3  0.18  14.7123604739
-0.3  0.2  31.6578647985
-0.3  0.22  25.5669330112
-0.3  0.24  20.6478885344
-0.3  0.26  16.6752617822
-0.3  0.28  13.4669632221
-0.3  0.3  10.8759371093
-0.3  0.32  8.78342103222
-0.3  0.34  7.09350231195
-0.3  0.36  5.72872174351
-0.3  0.38  4.62652317167
-0.3  0.4  3.73638616368
-0.3  0.42  3.01751035197
-0.3  0.44  2.43694530633
-0.3  0.46  1.96808021626
-0.3  0.48  1.58942415637
-0.3  0.5  1.28362102722
-0.3  0.52  1.03665402021
-0.3  0.54  0.837203142382
-0.3  0.56  0.676126352623
-0.3  0.58  0.546040526568
-0.3  0.6  0.440983043329
-0.3  0.62  0.356138482479
-0.3  0.64  0.287617904182
-0.3  0.66  0.232280595544
-0.3  0.68  0.187590112721
-0.3  0.7  0.151498020351
-0.3  0.72  0.122349999354
-0.3  0.74  0.0988100194785
-0.3  0.76  0.0797991009476
-0.3  0.78  0.0644458582808
-0.3  0.8  0.0520465594253
-0.3  0.82  0.0420328694546
-0.3  0.84  0.0339458003392
-0.3  0.86  0.0274146727458
-0.3  0.88  0.0221401255605
-0.3  0.9  0.0178803943559
-0.3  0.92  0.0144402298645
-0.3  0.94  0.0116619485225
-0.3  0.96  0.00941820487744
-0.3  0.98  0.00760615457548
-0.28  -1  0.00711266694979
-0.28  -0.98  0.00880715135267
-0.28  -0.96  0.0109053208166
-0.28  -0.94  0.0135033471494
-0.28  -0.92  0.0167203136253
-0.28  -0.9  0.0207036732919
-0.28  -0.88  0.0256360076361
-0.28  -0.86  0.0317433953991
-0.28  -0.84  0.0393057751335
-0.28  -0.82  0.0486697764818
-0.28  -0.8  0.060264608311
-0.28  -0.78  0.074621731954
-0.28  -0.76  0.0923992212988
-0.28  -0.74  0.114411926299
-0.28  -0.72  0.14166882248
-0.28  -0.7  0.175419258394
-0.28  -0.68  0.217210220829
-0.28  -0.66  0.268957242578
-0.28  -0.64  0.3330322029
-0.28  -0.62  0.412372045109
-0.28  -0.6  0.510613394459
-0.28  -0.58  0.6322592467
-0.28  -0.56  0.78288536763
-0.28  -0.54  0.969395864195
-0.28  -0.52  1.2003396415
-0.28  -0.5  1.48630225089
-0.28  -0.48  1.84039108985
-0.28  -0.46  2.27883619335
-0.28  -0.44  2.82173415464
-0.28  -0.42  3.49396927374
-0.28  -0.4  4.32635415557
-0.28  -0.38  5.35704203816
-0.28  -0.36  6.63327558647
-0.28  -0.34  8.21355230977
-0.28  -0.32  10.1703058566
-0.28  -0.3  12.5932260872
-0.28  -0.28  15.5933701032
-0.28  -0.26  19.3082526662
-0.28  -0.24  23.9081493324
-0.28  -0.22  29.6039012116
-0.28  -0.2  18.2885487231
-0.28  -0.18  17.0354131201
-0.28  -0.16  15.711656181
-0.28  -0.14  14.3364105308
-0.28  -0.12  12.934148017
-0.28  -0.1  11.5374657684
-0.28  -0.08  10.1916616942
-0.28  -0.06  8.96163804043
-0.28  -0.04  7.9397016897
-0.28  -0.02  7.24538557687
-0.28  6.17561557e-16  6.99649655695
-0.28  0.02  7.24538557687
-0.28  0.04  7.9397016897
-0.28  0.06  8.96163804043
-0.28  0.08  10.1916616942
-0.28  0.1  11.5374657684
-0.28  0.12  12.934148017
-0.28  0.14  14.3364105308
-0.28  0.16  15.711656181
-0.28  0.18  17.0354131201
-0.28  0.2  36.6565790921
-0.28  0.22  29.6039012116
-0.28  0.24  23.9081493324
-0.28  0.26  19.3082526662
-0.28  0.28  15.5933701032
-0.28  0.3  12.5932260872
-0.28  0.32  10.1703058566
-0.28  0.34  8.21355230977
-0.28  0.36  6.63327558647
-0.28  0.38  5.35704203816
-0.28  0.4  4.32635415557
-0.28  0.42  3.49396927374
-0.28  0.44  2.82173415464
-0.28  0.46  2.27883619335
-0.28  0.48  1.84039108985
-0.28  0.5  1.48630225089
-0.28  0.52  1.2003396415
-0.28  0.54  0.969395864195
-0.28  0.56  0.78288536763
-0.28  0.58  0.6322592467
-0.28  0.6  0.510613394459
-0.28  0.62  0.412372045109
-0.28  0.64  0.3330322029
-0.28  0.66  0.268957242578
-0.28  0.68  0.217210220829
-0.28  0.7  0.175419258394
-0.28  0.72  0.14166882248
-0.28  0.74  0.114411926299
-0.28  0.76  0.0923992212988
-0.28  0.78  0.074621731954
-0.28  0.8  0.060264608311
-0.28  0.82  0.0486697764818
-0.28  0.84  0.0393057751335
-0.28  0.86  0.0317433953991
-0.28  0.88  0.0256360076361
-0.28  0.9  0.0207036732918
-0.28  0.92  0.0167203136253
-0.28  0.94  0.0135033471494
-0.28  0.96  0.0109053208166
-0.28  0.98  0.00880715135267
-0.26  -1  0.00823574300605
-0.26  -0.98  0.0101977831477
-0.26  -0.96  0.0126272494239
-0.26  -0.94  0.0156354989808
-0.26  -0.92  0.0193604181063
-0.26  -0.9  0.0239727423928
-0.26  -0.88  0.0296838825833
-0.26  -0.86  0.0367556148056
-0.26  -0.84  0.0455120793563
-0.26  -0.82  0.0563546380135
-0.26  -0.8  0.0697802708764
-0.26  -0.78  0.086404355972
-0.26  -0.76  0.106988875755
-0.26  -0.74  0.132477343376
-0.26  -0.72  0.164038049602
-0.26  -0.7  0.203117612654
-0.26  -0.68  0.251507285476
-0.26  -0.66  0.311425059704
-0.26  -0.64  0.385617329644
-0.26  -0.62  0.477484776156
-0.26  -0.6  0.591238240437
-0.26  -0.58  0.732091732367
-0.26  -0.56  0.906501420145
-0.26  -0.54  1.12246155556
-0.26  -0.52  1.38987089894
-0.26  -0.5  1.72098643927
-0.26  -0.48  2.1309852062
-0.26  -0.46  2.63865992514
-0.26  -0.44  3.26728040172
-0.26  -0.42  4.04566011774
-0.26  -0.4  5.00947692757
-0.26  -0.38  6.20290839011
-0.26  -0.36  7.68065669377
-0.26  -0.34  9.51045598895
-0.26  -0.32  11.7761770541
-0.26  -0.3  14.5816716013
-0.26  -0.28  18.0555324289
-0.26  -0.26  22.3569876078
-0.26  -0.24  27.6831988679
-0.26  -0.22  34.2782987136
-0.26  -0.2  21.176274427
-0.26  -0.18  19.7252711886
-0.26  -0.16  18.1924956447
-0.26  -0.14  16.6001014239
-0.26  -0.12  14.9764244302
-0.26  -0.1  13.3592088145
-0.26  -0.08  11.8009049363
-0.26  -0.06  10.3766629782
-0.26  -0.04  9.19336489712
-0.26  -0.02  8.38941764209
-0.26  6.17561557e-16  8.10122953775
-0.26  0.02  8.38941764209
-0.26  0.04  9.19336489712
-0.26  0.06  10.3766629782
-0.26  0.08  11.8009049363
-0.26  0.1  13.3592088145
-0.26  0.12  14.9764244302
-0.26  0.14  16.6001014239
-0.26  0.16  18.1924956447
-0.26  0.18  19.7252711886
-0.26  0.2  42.4445804949
-0.26  0.22  34.2782987136
-0.26  0.24  27.6831988679
-0.26  0.26  22.3569876078
-0.26  0.28  18.0555324289
-0.26  0.3  14.5816716013
-0.26  0.32  11.7761770541
-0.26  0.34  9.51045598895
-0.26  0.36  7.68065669377
-0.26  0.38  6.20290839011
-0.26  0.4  5.00947692757
-0.26  0.42  4.04566011774
-0.26  0.44  3.26728040172
-0.26  0.46  2.63865992514
-0.26  0.48  2.1309852062
-0.26  0.5  1.72098643927
-0.26  0.52  1.38987089894
-0.26  0.54  1.12246155556
-0.26  0.56  0.906501420145
-0.26  0.58  0.732091732367
-0.26  0.6  0.591238240437
-0.26  0.62  0.477484776156
-0.26  0.64  0.385617329644
-0.26  0.66  0.311425059704
-0.26  0.68  0.251507285476
-0.26  0.7  0.203117612654
-0.26  0.72  0.164038049602
-0.26  0.74  0.132477343376
-0.26  0.76  0.106988875755
-0.26  0.78  0.086404355972
-0.26  0.8  0.0697802708764
-0.26  0.82  0.0563546380135
-0.26  0.84  0.0455120793563
-0.26  0.86  0.0367556148056
-0.26  0.88  0.0296838825833
-0.26  0.9  0.0239727423928
-0.26  0.92  0.0193604181063
-0.26  0.94  0.0156354989808
-0.26  0.96  0.0126272494239
-0.26  0.98  0.0101977831477
-0.24  -1  0.00953615055232
-0.24  -0.98  0.0118079929553
-0.24  -0.96  0.0146210671556
-0.24  -0.94  0.0181043133731
-0.24  -0.92  0.0224173898677
-0.24  -0.9  0.0277579910448
-0.24  -0.88  0.0343709089859
-0.24  -0.86  0.0425592537518
-0.24  -0.84  0.0526983467517
-0.24  -0.82  0.0652529239952
-0.24  -0.8  0.0807984377573
-0.24  -0.78  0.100047433039
-0.24  -0.76  0.123882207819
-0.24  -0.74  0.153395254111
-0.24  -0.72  0.189939333484
-0.24  -0.7  0.235189482318
-0.24  -0.68  0.291219788857
-0.24  -0.66  0.360598461234
-0.24  -0.64  0.446505543989
-0.24  -0.62  0.552878678769
-0.24  -0.6  0.684593590275
-0.24  -0.58  0.847687570245
-0.24  -0.56  1.04963620308
-0.24  -0.54  1.29969601712
-0.24  -0.52  1.60932876741
-0.24  -0.5  1.99272679725
-0.24  -0.48  2.46746355928
-0.24  -0.46  3.05529911315
-0.24  -0.44  3.78317752078
-0.24  -0.42  4.68446185584
-0.24  -0.4  5.80046343537
-0.24  -0.38  7.18233536754
-0.24  -0.36  8.89341720822
-0.24  -0.34  11.0121381963
-0.24  -0.32  13.6356121404
-0.24  -0.3  16.8840887328
-0.24  -0.28  20.9064653205
-0.24  -0.26  25.8871117722
-0.24  -0.24  32.0543212652
-0.24  -0.22  39.6907743443
-0.24  -0.2  24.5199663133
-0.24  -0.18  22.8398525308
-0.24  -0.16  21.0650547573
-0.24  -0.14  19.2212246358
-0.24  -0.12  17.3411722533
-0.24  -0.1  15.4686014876
-0.24  -0.08  13.6642445063
-0.24  -0.06  12.0151175575
-0.24  -0.04  10.6449790477
-0.24  -0.02  9.71409010972
-0.24  6.17561557e-16  9.38039767318
-0.24  0.02  9.71409010972
-0.24  0.04  10.6449790477
-0.24  0.06  12.0151175575
-0.24  0.08  13.6642445063
-0.24  0.1  15.4686014876
-0.24  0.12  17.3411722533
-0.24  0.14  19.2212246358
-0.24  0.16  21.0650547573
-0.24  0.18  22.8398525308
-0.24  0.2  49.1464958816
-0.24  0.22  39.6907743443
-0.24  0.24  32.0543212652
-0.24  0.26  25.8871117722
-0.24  0.28  20.9064653205
-0.24  0.3  16.8840887328
-0.24  0.32  13.6356121404
-0.24  0.34  11.0121381963
-0.24  0.36  8.89341720822
-0.24  0.38  7.18233536754
-0.24  0.4  5.80046343537
-0.24  0.42  4.68446185584
-0.24  0.44  3.78317752078
-0.24  0.46  3.05529911315
-0.24  0.48  2.46746355928
-0.24  0.5  1.99272679725
-0.24  0.52  1.60932876741
-0.24  0.54  1.29969601712
-0.24  0.56  1.04963620308
-0.24  0.58  0.847687570245
-0.24  0.6  0.684593590275
-0.24  0.62  0.552878678769
-0.24  0.64  0.446505543989
-0.24  0.66  0.360598461234
-0.24  0.68  0.291219788857
-0.24  0.7  0.235189482318
-0.24  0.72  0.189939333484
-0.24  0.74  0.153395254111
-0.24  0.76  0.123882207819
-0.24  0.78  0.100047433039
-0.24  0.8  0.0807984377573
-0.24  0.82  0.0652529239952
-0.24  0.84  0.0526983467517
-0.24  0.86  0.0425592537518
-0.24  0.88  0.0343709089859
-0.24  0.9  0.0277579910448
-0.24  0.92  0.0224173898677
-0.24  0.94  0.0181043133731
-0.24  0.96  0.0146210671556
-0.24  0.98  0.0118079929553
-0.22  -1  0.0110418898805
-0.22  -0.98  0.0136724517095
-0.22  -0.96  0.0169297047673
-0.22  -0.94  0.0209629486793
-0.22  -0.92  0.0259570514296
-0.22  -0.9  0.0321409229792
-0.22  -0.88  0.0397980075955
-0.22  -0.86  0.0492792758192
-0.22  -0.84  0.0610193115683
-0.22  -0.82  0.0755562317499
-0.22  -0.8  0.093556351416
-0.22  -0.78  0.115844725016
-0.22  -0.76  0.143442963634
-0.22  -0.74  0.177616061615
-0.22  -0.72  0.219930378908
-0.22  -0.7  0.272325436826
-0.22  -0.68  0.337202818048
-0.22  -0.66  0.417536245696
-0.22  -0.64  0.51700788706
-0.22  -0.62  0.640177129621
-0.22  -0.6  0.792689565377
-0.22  -0.58  0.981535762499
-0.22  -0.56  1.21537168539
-0.22  -0.54  1.50491544994
-0.22  -0.52  1.86343859964
-0.22  -0.5  2.30737442077
-0.22  -0.48  2.85707117942
-0.22  -0.46  3.53772480564
-0.22  -0.44  4.3805337755
-0.22  -0.42  5.42412912606
-0.22  -0.4  6.71634514971
-0.22  -0.38  8.31641192929
-0.22  -0.36  10.2976702114
-0.22  -0.34  12.7509330568
-0.22  -0.32  15.7886483525
-0.22  -0.3  19.5500529796
-0.22  -0.28  24.207554882
-0.22  -0.26  29.9746355663
-0.22  -0.24  37.1156352515
-0.22  -0.22  45.9578691816
-0.22  -0.2  28.3916205411
-0.22  -0.18  26.4462201124
-0.22  -0.16  24.3911852776
-0.22  -0.14  22.2562180234
-0.22  -0.12  20.0793090847
-0.22  -0.1  17.9110630955
-0.22  -0.08  15.8218017124
-0.22  -0.06  13.9122808771
-0.22  -0.04  12.3258002041
-0.22  -0.02  11.2479257423
-0.22  6.17561557e-16  10.8615439295
-0.22  0.02  11.2479257423
-0.22  0.04  12.3258002041
-0.22  0.06  13.9122808771
-0.22  0.08  15.8218017124
-0.22  0.1  17.9110630955
-0.22  0.12  20.0793090847
-0.22  0.14  22.2562180234
-0.22  0.16  24.3911852776
-0.22  0.18  26.4462201124
-0.22  0.2  56.9066304646
-0.22  0.22  45.9578691816
-0.22  0.24  37.1156352515
-0.22  0.26  29.9746355663
-0.22  0.28  24.207554882
-0.22  0.3  19.5500529796
-0.22  0.32  15.7886483525
-0.22  0.34  12.7509330568
-0.22  0.36  10.2976702114
-0.22  0.38  8.31641192929
-0.22  0.4  6.71634514971
-0.22  0.42  5.42412912606
-0.22  0.44  4.3805337755
-0.22  0.46  3.53772480564
-0.22  0.48  2.85707117942
-0.22  0.5  2.30737442077
-0.22  0.52  1.86343859964
-0.22  0.54  1.50491544994
-0.22  0.56  1.21537168539
-0.22  0.58  0.981535762499
-0.22  0.6  0.792689565377
-0.22  0.62  0.640177129621
-0.22  0.64  0.51700788706
-0.22  0.66  0.417536245696
-0.22  0.68  0.337202818048
-0.22  0.7  0.272325436825
-0.22  0.72  0.219930378908
-0.22  0.74  0.177616061615
-0.22  0.76  0.143442963634
-0.22  0.78  0.115844725016
