0.36  0.62  1.20531468483
0.36  0.64  0.948870848816
0.36  0.66  0.746988233912
0.36  0.68  0.588058345663
0.36  0.7  0.462942523329
0.36  0.72  0.364446455843
0.36  0.74  0.286906500232
0.36  0.76  0.225864015291
0.36  0.78  0.177808984328
0.36  0.8  0.139978184958
0.36  0.82  0.110196300475
0.36  0.84  0.0867508365107
0.36  0.86  0.0682936505388
0.36  0.88  0.0537634320488
0.36  0.9  0.0423246759085
0.36  0.92  0.033319639809
0.36  0.94  0.0262305232862
0.36  0.96  0.0206496935685
0.36  0.98  0.0162562461992
0.38  -1  0.0106251099917
0.38  -0.98  0.013496674618
0.38  -0.96  0.0171443143541
0.38  -0.94  0.0217777728952
0.38  -0.92  0.02766347971
0.38  -0.9  0.0351398700568
0.38  -0.88  0.0446368454205
0.38  -0.86  0.0567004933677
0.38  -0.84  0.0720244882417
0.38  -0.82  0.0914899782765
0.38  -0.8  0.116216252686
0.38  -0.78  0.147625102144
0.38  -0.76  0.187522573475
0.38  -0.74  0.238202819518
0.38  -0.72  0.302580015703
0.38  -0.7  0.384355928648
0.38  -0.68  0.488232772227
0.38  -0.66  0.620183590546
0.38  -0.64  0.787795715204
0.38  -0.62  1.00070704603
0.38  -0.6  1.27116024199
0.38  -0.58  1.61470668886
0.38  -0.56  2.05110072273
0.38  -0.54  2.60543552821
0.38  -0.52  3.30958602687
0.38  -0.5  4.20404172378
0.38  -0.48  5.34023490305
0.38  -0.46  6.78349804628
0.38  -0.44  8.6168205293
0.38  -0.42  10.9456206116
0.38  -0.4  13.9038071137
0.38  -0.38  17.6614793364
0.38  -0.36  22.434707976
0.38  -0.34  28.4979594506
0.38  -0.32  36.1998780514
0.38  -0.3  45.9833334104
0.38  -0.28  58.4108860404
0.38  -0.26  74.197135244
0.38  -0.24  94.2498094381
0.38  -0.22  119.721961635
0.38  -0.2  63.2605350708
0.38  -0.18  57.9487736243
0.38  -0.16  52.621811271
0.38  -0.14  47.3187914657
0.38  -0.12  42.0935674616
0.38  -0.1  37.0240291659
0.38  -0.08  32.2281142581
0.38  -0.06  27.8899302701
0.38  -0.04  24.294527021
0.38  -0.02  21.8429199219
0.38  6.17561557e-16  20.959960164
0.38  0.02  21.8429199219
0.38  0.04  24.294527021
0.38  0.06  27.8899302701
0.38  0.08  32.2281142581
0.38  0.1  37.0240291659
0.38  0.12  42.0935674616
0.38  0.14  47.3187914657
0.38  0.16  52.621811271
0.38  0.18  57.9487736243
0.38  0.2  152.078271385
0.38  0.22  119.721961635
0.38  0.24  94.2498094381
0.38  0.26  74.197135244
0.38  0.28  58.4108860404
0.38  0.3  45.9833334104
0.38  0.32  36.1998780514
0.38  0.34  28.4979594506
0.38  0.36  22.434707976
0.38  0.38  17.6614793364
0.38  0.4  13.9038071137
0.38  0.42  10.9456206116
0.38  0.44  8.61682052929
0.38  0.46  6.78349804628
0.38  0.48  5.34023490305
0.38  0.5  4.20404172378
0.38  0.52  3.30958602687
0.38  0.54  2.60543552821
0.38  0.56  2.05110072273
0.38  0.58  1.61470668886
0.38  0.6  1.27116024199
0.38  0.62  1.00070704603
0.38  0.64  0.787795715203
0.38  0.66  0.620183590546
0.38  0.68  0.488232772227
0.38  0.7  0.384355928648
0.38  0.72  0.302580015703
0.38  0.74  0.238202819518
0.38  0.76  0.187522573475
0.38  0.78  0.147625102144
0.38  0.8  0.116216252686
0.38  0.82  0.0914899782765
0.38  0.84  0.0720244882417
0.38  0.86  0.0567004933677
0.38  0.88  0.0446368454205
0.38  0.9  0.0351398700568
0.38  0.92  0.02766347971
0.38  0.94  0.0217777728952
0.38  0.96  0.0171443143541
0.38  0.98  0.013496674618
0.4  -1  0.00882144934212
0.4  -0.98  0.0112055528388
0.4  -0.96  0.0142339891726
0.4  -0.94  0.0180808970946
0.4  -0.92  0.0229674784617
0.4  -0.9  0.0291747176111
0.4  -0.88  0.037059538299
0.4  -0.86  0.0470753272489
0.4  -0.84  0.0597980044358
0.4  -0.82  0.0759591391814
0.4  -0.8  0.0964880162742
0.4  -0.78  0.122565070969
0.4  -0.76  0.155689765442
0.4  -0.74  0.197766809677
0.4  -0.72  0.251215684594
0.4  -0.7  0.319109765128
0.4  -0.68  0.405353043001
0.4  -0.66  0.514904610972
0.4  -0.64  0.654063816659
0.4  -0.62  0.830832482652
0.4  -0.6  1.05537502098
0.4  -0.58  1.3406028991
0.4  -0.56  1.70291706489
0.4  -0.54  2.16315102095
0.4  -0.52  2.74776877624
0.4  -0.5  3.49038655858
0.4  -0.48  4.43370578836
0.4  -0.46  5.6319684619
0.4  -0.44  7.15407613178
0.4  -0.42  9.08755182944
0.4  -0.4  11.5435727453
0.4  -0.38  14.6633630517
0.4  -0.36  18.6263144635
0.4  -0.34  23.6603014786
0.4  -0.32  30.0547844371
0.4  -0.3  38.1774538408
0.4  -0.28  48.4953730018
0.4  -0.26  61.6018347476
0.4  -0.24  78.2504764761
0.4  -0.22  99.3986152168
0.4  -0.2  52.5217720962
0.4  -0.18  48.111706266
0.4  -0.16  43.6890199518
0.4  -0.14  39.2862118294
0.4  -0.12  34.9479933178
0.4  -0.1  30.7390321589
0.4  -0.08  26.7572455759
0.4  -0.06  23.1554880114
0.4  -0.04  20.1704207837
0.4  -0.02  18.1349851178
0.4  6.17561557e-16  17.4019117867
0.4  0.02  18.1349851178
0.4  0.04  20.1704207837
0.4  0.06  23.1554880114
0.4  0.08  26.7572455759
0.4  0.1  30.739032159
0.4  0.12  34.9479933178
0.4  0.14  39.2862118294
0.4  0.16  43.6890199518
0.4  0.18  48.111706266
0.4  0.2  126.262294518
0.4  0.22  99.3986152168
0.4  0.24  78.2504764761
0.4  0.26  61.6018347476
0.4  0.28  48.4953730018
0.4  0.3  38.1774538408
0.4  0.32  30.0547844371
0.4  0.34  23.6603014786
0.4  0.36  18.6263144635
0.4  0.38  14.6633630517
0.4  0.4  11.5435727453
0.4  0.42  9.08755182944
0.4  0.44  7.15407613178
0.4  0.46  5.6319684619
0.4  0.48  4.43370578836
0.4  0.5  3.49038655858
0.4  0.52  2.74776877624
0.4  0.54  2.16315102095
0.4  0.56  1.70291706489
0.4  0.58  1.3406028991
0.4  0.6  1.05537502098
0.4  0.62  0.830832482652
0.4  0.64  0.654063816659
0.4  0.66  0.514904610972
0.4  0.68  0.405353043001
0.4  0.7  0.319109765128
0.4  0.72  0.251215684594
0.4  0.74  0.197766809677
0.4  0.76  0.155689765442
0.4  0.78  0.122565070969
0.4  0.8  0.0964880162742
0.4  0.82  0.0759591391814
0.4  0.84  0.0597980044358
0.4  0.86  0.0470753272489
0.4  0.88  0.037059538299
0.4  0.9  0.0291747176111
0.4  0.92  0.0229674784617
0.4  0.94  0.0180808970946
0.4  0.96  0.0142339891726
0.4  0.98  0.0112055528388
0.42  -1  0.0073239682748
0.42  -0.98  0.0093033593812
0.42  -0.96  0.011817704901
0.42  -0.94  0.0150115827417
0.42  -0.92  0.019068644741
0.42  -0.9  0.0242221768694
0.42  -0.88  0.0307685134556
0.42  -0.86  0.0390840767685
0.42  -0.84  0.0496470217534
0.42  -0.82  0.0630647305187
0.42  -0.8  0.0801087375423
0.42  -0.78  0.101759093836
0.42  -0.76  0.129260721066
0.42  -0.74  0.16419499605
0.42  -0.72  0.20857068184
0.42  -0.7  0.264939434024
0.42  -0.68  0.336542524011
0.42  -0.66  0.427497216052
0.42  -0.64  0.543033514916
0.42  -0.62  0.689794897485
0.42  -0.6  0.876220320711
0.42  -0.58  1.11302947184
0.42  -0.56  1.4138391634
0.42  -0.54  1.79594631637
0.42  -0.52  2.28132255406
0.42  -0.5  2.89787759702
0.42  -0.48  3.68106410573
0.42  -0.46  4.67591625139
0.42  -0.44  5.9396392353
0.42  -0.42  7.54489865703
0.42  -0.4  9.5839988743
0.42  -0.38  12.1741906151
0.42  -0.36  15.4644130365
0.42  -0.34  19.643857906
0.42  -0.32  24.952848357
0.42  -0.3  31.6966577598
0.42  -0.28  40.2630633091
0.42  -0.26  51.1446436819
0.42  -0.24  64.967102907
0.42  -0.22  82.5252491029
0.42  -0.2  43.605962881
0.42  -0.18  39.9445257432
0.42  -0.16  36.2726105059
0.42  -0.14  32.617199047
0.42  -0.12  29.0154128194
0.42  -0.1  25.5209419222
0.42  -0.08  22.2150816854
0.42  -0.06  19.2247388163
0.42  -0.04  16.7464003
0.42  -0.02  15.0564890774
0.42  6.17561557e-16  14.4478582718
0.42  0.02  15.0564890774
0.42  0.04  16.7464003
0.42  0.06  19.2247388163
0.42  0.08  22.2150816854
0.42  0.1  25.5209419222
0.42  0.12  29.0154128194
0.42  0.14  32.617199047
0.42  0.16  36.2726105059
0.42  0.18  39.9445257432
0.42  0.2  104.828696906
0.42  0.22  82.5252491029
0.42  0.24  64.967102907
0.42  0.26  51.1446436819
0.42  0.28  40.2630633091
0.42  0.3  31.6966577598
0.42  0.32  24.952848357
0.42  0.34  19.643857906
0.42  0.36  15.4644130365
0.42  0.38  12.1741906151
0.42  0.4  9.5839988743
0.42  0.42  7.54489865703
0.42  0.44  5.9396392353
0.42  0.46  4.67591625139
0.42  0.48  3.68106410573
0.42  0.5  2.89787759702
0.42  0.52  2.28132255406
0.42  0.54  1.79594631637
0.42  0.56  1.4138391634
0.42  0.58  1.11302947184
0.42  0.6  0.876220320711
0.42  0.62  0.689794897485
0.42  0.64  0.543033514916
0.42  0.66  0.427497216052
0.42  0.68  0.336542524011
0.42  0.7  0.264939434024
0.42  0.72  0.20857068184
0.42  0.74  0.16419499605
0.42  0.76  0.129260721066
0.42  0.78  0.101759093836
0.42  0.8  0.0801087375423
0.42  0.82  0.0630647305187
0.42  0.84  0.0496470217534
0.42  0.86  0.0390840767685
0.42  0.88  0.0307685134556
0.42  0.9  0.0242221768694
0.42  0.92  0.019068644741
0.42  0.94  0.0150115827417
0.42  0.96  0.011817704901
0.42  0.98  0.0093033593812
0.44  -1  0.00608069141588
0.44  -0.98  0.0077240718973
0.44  -0.96  0.00981159585222
0.44  -0.94  0.0124632984321
0.44  -0.92  0.0158316557416
0.44  -0.9  0.0201103523988
0.44  -0.88  0.0255454186349
0.44  -0.86  0.0324493773303
0.44  -0.84  0.0412192144576
0.44  -0.82  0.0523592062556
0.44  -0.8  0.0665099157224
0.44  -0.78  0.0844850257623
0.44  -0.76  0.107318126937
0.44  -0.74  0.136322150172
0.44  -0.72  0.173164861873
0.44  -0.7  0.21996476251
0.44  -0.68  0.279412902958
0.44  -0.66  0.354927623172
0.44  -0.64  0.450851110872
0.44  -0.62  0.572699082585
0.44  -0.6  0.727477944013
0.44  -0.58  0.924087666837
0.44  -0.56  1.17383354785
0.44  -0.54  1.49107627717
0.44  -0.52  1.89405769534
0.44  -0.5  2.40594972115
0.44  -0.48  3.05618676504
0.44  -0.46  3.88215824324
0.44  -0.44  4.93135851445
0.44  -0.42  6.2641178629
0.44  -0.4  7.9570715626
0.44  -0.38  10.1075664983
0.44  -0.36  12.839258729
0.44  -0.34  16.3092238609
0.44  -0.32  20.7169890848
0.44  -0.3  26.3160062305
0.44  -0.28  33.428225554
0.44  -0.26  42.462608266
0.44  -0.24  53.938642296
0.44  -0.22  68.5162134768
0.44  -0.2  36.2036527498
0.44  -0.18  33.1637611858
0.44  -0.16  30.1151702272
0.44  -0.14  27.0802814559
0.44  -0.12  24.0899147893
0.44  -0.1  21.1886461887
0.44  -0.08  18.4439707327
0.44  -0.06  15.9612521391
0.44  -0.04  13.9036228354
0.44  -0.02  12.5005817135
0.44  6.17561557e-16  11.9952687498
0.44  0.02  12.5005817135
0.44  0.04  13.9036228354
0.44  0.06  15.9612521391
0.44  0.08  18.4439707327
0.44  0.1  21.1886461887
0.44  0.12  24.0899147893
0.44  0.14  27.0802814559
0.44  0.16  30.1151702272
0.44  0.18  33.1637611858
0.44  0.2  87.0335497775
0.44  0.22  68.5162134768
0.44  0.24  53.938642296
0.44  0.26  42.462608266
0.44  0.28  33.428225554
0.44  0.3  26.3160062305
0.44  0.32  20.7169890848
0.44  0.34  16.3092238609
0.44  0.36  12.839258729
0.44  0.38  10.1075664983
0.44  0.4  7.9570715626
0.44  0.42  6.2641178629
0.44  0.44  4.93135851445
0.44  0.46  3.88215824324
0.44  0.48  3.05618676504
0.44  0.5  2.40594972115
0.44  0.52  1.89405769534
0.44  0.54  1.49107627717
0.44  0.56  1.17383354785
0.44  0.58  0.924087666837
0.44  0.6  0.727477944013
0.44  0.62  0.572699082585
0.44  0.64  0.450851110872
0.44  0.66  0.354927623172
0.44  0.68  0.279412902958
0.44  0.7  0.21996476251
0.44  0.72  0.173164861873
0.44  0.74  0.136322150172
0.44  0.76  0.107318126937
0.44  0.78  0.0844850257623
0.44  0.8  0.0665099157224
0.44  0.82  0.0523592062556
0.44  0.84  0.0412192144576
0.44  0.86  0.0324493773303
0.44  0.88  0.0255454186349
0.44  0.9  0.0201103523988
0.44  0.92  0.0158316557416
0.44  0.94  0.0124632984321
0.44  0.96  0.00981159585222
0.44  0.98  0.0077240718973
0.46  -1  0.00504846644713
0.46  -0.98  0.00641287563235
0.46  -0.96  0.00814603292043
0.46  -0.94  0.010347596951
0.46  -0.92  0.0131441603179
0.46  -0.9  0.0166965287961
0.46  -0.88  0.0212089678683
0.46  -0.86  0.0269409482373
0.46  -0.84  0.034222065705
0.46  -0.82  0.0434709933297
0.46  -0.8  0.0552195556329
0.46  -0.78  0.0701433091526
0.46  -0.76  0.089100387761
0.46  -0.74  0.113180846399
0.46  -0.72  0.143769340556
0.46  -0.7  0.182624745631
0.46  -0.68  0.231981294396
0.46  -0.66  0.294677048084
0.46  -0.64  0.37431708834
0.46  -0.62  0.475480813774
0.46  -0.6  0.603985260917
0.46  -0.58  0.767219590859
0.46  -0.56  0.974569974944
0.46  -0.54  1.23795931097
0.46  -0.52  1.57253280423
0.46  -0.5  1.99752883513
0.46  -0.48  2.53738518932
0.46  -0.46  3.22314425992
0.46  -0.44  4.09423802266
0.46  -0.42  5.20075542218
0.46  -0.4  6.60632254685
0.46  -0.38  8.39176120587
0.46  -0.36  10.659736281
0.46  -0.34  13.5406590812
0.46  -0.32  17.200186151
0.46  -0.3  21.8487447218
0.46  -0.28  27.753632532
0.46  -0.26  35.2543877705
0.46  -0.24  44.782312933
0.46  -0.22  56.8852752367
0.46  -0.2  30.0579183633
0.46  -0.18  27.5340621907
0.46  -0.16  25.0029833852
0.46  -0.14  22.4832807585
0.46  -0.12  20.0005424071
0.46  -0.1  17.5917773206
0.46  -0.08  15.3130229817
0.46  -0.06  13.2517571386
0.46  -0.04  11.5434197491
0.46  -0.02  10.3785512262
0.46  6.17561557e-16  9.95901743169
0.46  0.02  10.3785512262
0.46  0.04  11.5434197491
0.46  0.06  13.2517571386
0.46  0.08  15.3130229817
0.46  0.1  17.5917773206
0.46  0.12  20.0005424071
0.46  0.14  22.4832807585
0.46  0.16  25.0029833852
0.46  0.18  27.5340621907
0.46  0.2  72.2592096482
0.46  0.22  56.8852752367
0.46  0.24  44.782312933
0.46  0.26  35.2543877705
0.46  0.28  27.753632532
0.46  0.3  21.8487447218
0.46  0.32  17.200186151
0.46  0.34  13.5406590812
0.46  0.36  10.659736281
0.46  0.38  8.39176120587
0.46  0.4  6.60632254685
0.46  0.42  5.20075542218
0.46  0.44  4.09423802266
0.46  0.46  3.22314425992
0.46  0.48  2.53738518932
0.46  0.5  1.99752883513
0.46  0.52  1.57253280423
0.46  0.54  1.23795931097
0.46  0.56  0.974569974944
0.46  0.58  0.767219590859
0.46  0.6  0.603985260917
0.46  0.62  0.475480813774
0.46  0.64  0.37431708834
0.46  0.66  0.294677048084
0.46  0.68  0.231981294396
0.46  0.7  0.182624745631
0.46  0.72  0.143769340556
0.46  0.74  0.113180846399
0.46  0.76  0.089100387761
0.46  0.78  0.0701433091526
0.46  0.8  0.0552195556329
0.46  0.82  0.0434709933297
0.46  0.84  0.034222065705
0.46  0.86  0.0269409482373
0.46  0.88  0.0212089678683
0.46  0.9  0.0166965287961
0.46  0.92  0.0131441603179
0.46  0.94  0.010347596951
0.46  0.96  0.00814603292043
0.46  0.98  0.00641287563235
0.48  -1  0.0041914663522
0.48  -0.98  0.00532426088503
0.48  -0.96  0.00676320685648
0.48  -0.94  0.00859104539976
0.48  -0.92  0.0109128794412
0.48  -0.9  0.0138622172456
0.48  -0.88  0.0176086493029
0.48  -0.86  0.0223675999862
0.48  -0.84  0.028412714714
0.48  -0.82  0.0360915948925
0.48  -0.8  0.0458457854168
0.48  -0.78  0.058236164036
0.48  -0.76  0.0739751925024
0.48  -0.74  0.0939678839832
0.48  -0.72  0.119363842412
0.48  -0.7  0.151623366107
0.48  -0.68  0.192601416684
0.48  -0.66  0.244654281602
0.48  -0.64  0.310775063529
0.48  -0.62  0.394765787378
0.48  -0.6  0.501456021323
0.48  -0.58  0.63698058282
0.48  -0.56  0.80913229802
0.48  -0.54  1.0278100987
0.48  -0.52  1.30558822282
0.48  -0.5  1.65843924837
0.48  -0.48  2.10665253597
0.48  -0.46  2.6760008916
0.48  -0.44  3.39922253413
0.48  -0.42  4.31790358248
0.48  -0.4  5.48486930772
0.48  -0.38  6.96722165008
0.48  -0.36  8.85019766158
0.48  -0.34  11.2420707397
0.48  -0.32  14.2803764784
0.48  -0.3  18.1398211315
0.48  -0.28  23.042327433
0.48  -0.26  29.269795423
0.48  -0.24  37.1803120409
0.48  -0.22  47.228741557
0.48  -0.2  24.955450285
0.48  -0.18  22.8600301538
0.48  -0.16  20.7586134644
0.48  -0.14  18.6666417957
0.48  -0.12  16.6053595489
0.48  -0.1  14.6054932695
0.48  -0.08  12.7135678231
0.48  -0.06  11.0022112132
0.48  -0.04  9.58387184985
0.48  -0.02  8.6167450462
0.48  6.17561557e-16  8.26842901762
0.48  0.02  8.6167450462
0.48  0.04  9.58387184985
0.48  0.06  11.0022112132
0.48  0.08  12.7135678231
0.48  0.1  14.6054932695
0.48  0.12  16.6053595489
0.48  0.14  18.6666417957
0.48  0.16  20.7586134644
0.48  0.18  22.8600301538
0.48  0.2  59.9928808182
0.48  0.22  47.228741557
0.48  0.24  37.1803120409
0.48  0.26  29.269795423
0.48  0.28  23.042327433
0.48  0.3  18.1398211315
0.48  0.32  14.2803764784
0.48  0.34  11.2420707397
0.48  0.36  8.85019766158
0.48  0.38  6.96722165008
0.48  0.4  5.48486930772
0.48  0.42  4.31790358248
0.48  0.44  3.39922253413
0.48  0.46  2.6760008916
0.48  0.48  2.10665253597
0.48  0.5  1.65843924837
0.48  0.52  1.30558822282
0.48  0.54  1.0278100987
0.48  0.56  0.80913229802
0.48  0.58  0.63698058282
0.48  0.6  0.501456021323
0.48  0.62  0.394765787378
0.48  0.64  0.310775063529
0.48  0.66  0.244654281602
0.48  0.68  0.192601416684
0.48  0.7  0.151623366107
0.48  0.72  0.119363842412
0.48  0.74  0.0939678839832
0.48  0.76  0.0739751925024
0.48  0.78  0.058236164036
0.48  0.8  0.0458457854168
0.48  0.82  0.0360915948925
0.48  0.84  0.028412714714
0.48  0.86  0.0223675999862
0.48  0.88  0.0176086493029
0.48  0.9  0.0138622172456
0.48  0.92  0.0109128794412
0.48  0.94  0.00859104539976
0.48  0.96  0.00676320685648
0.48  0.98  0.00532426088503
0.5  -1  0.0034799459134
0.5  -0.98  0.00442044343241
0.5  -0.96  0.00561512179367
0.5  -0.94  0.00713267644748
0.5  -0.92  0.00906036862135
0.5  -0.9  0.0115090429461
0.5  -0.88  0.0146195011562
0.5  -0.86  0.0185705983596
0.5  -0.84  0.023589527423
0.5  -0.82  0.0299648828359
0.5  -0.8  0.0380632552434
0.5  -0.78  0.0483503108508
0.5  -0.76  0.0614175677938
0.5  -0.74  0.0780164091469
0.5  -0.72  0.0991012883578
0.5  -0.7  0.125884611476
0.5  -0.68  0.159906451964
0.5  -0.66  0.203123106788
0.5  -0.64  0.258019585854
0.5  -0.62  0.327752503086
0.5  -0.6  0.416331585541
0.5  -0.58  0.528850237563
0.5  -0.56  0.671778417694
0.5  -0.54  0.853334669109
0.5  -0.52  1.08395869579
0.5  -0.5  1.37691165813
0.5  -0.48  1.74903870567
0.5  -0.46  2.2217375936
0.5  -0.44  2.82218907953
0.5  -0.42  3.58491984993
0.5  -0.4  4.55378784633
0.5  -0.38  5.78450415001
0.5  -0.36  7.34783643654
0.5  -0.34  9.33367820265
0.5  -0.32  11.856217751
0.5  -0.3  15.0605041558
0.5  -0.28  19.1307877597
0.5  -0.26  24.3011147913
0.5  -0.24  30.8687853066
0.5  -0.22  39.2114483014
0.5  -0.2  20.7191493237
0.5  -0.18  18.9794362711
0.5  -0.16  17.2347446032
0.5  -0.14  15.497894621
0.5  -0.12  13.786524392
0.5  -0.1  12.1261444911
0.5  -0.08  10.5553819769
0.5  -0.06  9.13453591957
0.5  -0.04  7.95696610112
0.5  -0.02  7.15401346228
0.5  6.17561557e-16  6.8648256606
0.5  0.02  7.15401346228
0.5  0.04  7.95696610112
0.5  0.06  9.13453591957
0.5  0.08  10.5553819769
0.5  0.1  12.1261444911
0.5  0.12  13.786524392
0.5  0.14  15.497894621
0.5  0.16  17.2347446032
0.5  0.18  18.9794362711
0.5  0.2  49.8088169852
0.5  0.22  39.2114483014
0.5  0.24  30.8687853066
0.5  0.26  24.3011147913
0.5  0.28  19.1307877597
0.5  0.3  15.0605041558
0.5  0.32  11.856217751
0.5  0.34  9.33367820265
0.5  0.36  7.34783643654
0.5  0.38  5.78450415001
0.5  0.4  4.55378784633
0.5  0.42  3.58491984993
0.5  0.44  2.82218907953
0.5  0.46  2.2217375936
0.5  0.48  1.74903870567
0.5  0.5  1.37691165813
0.5  0.52  1.08395869579
0.5  0.54  0.853334669109
0.5  0.56  0.671778417694
0.5  0.58  0.528850237563
0.5  0.6  0.416331585541
0.5  0.62  0.327752503086
0.5  0.64  0.258019585854
0.5  0.66  0.203123106788
0.5  0.68  0.159906451964
0.5  0.7  0.125884611476
0.5  0.72  0.0991012883578
0.5  0.74  0.0780164091469
0.5  0.76  0.0614175677938
0.5  0.78  0.0483503108508
0.5  0.8  0.0380632552434
0.5  0.82  0.0299648828359
0.5  0.84  0.023589527423
0.5  0.86  0.0185705983596
0.5  0.88  0.0146195011562
0.5  0.9  0.0115090429461
0.5  0.92  0.00906036862135
0.5  0.94  0.00713267644748
0.5  0.96  0.00561512179367
0.5  0.98  0.00442044343241
0.52  -1  0.00288920929876
0.52  -0.98  0.0036700530949
0.52  -0.96  0.00466192938156
0.52  -0.94  0.00592187224454
0.52  -0.92  0.0075223299219
0.52  -0.9  0.00955533066523
0.52  -0.88  0.0121377744754
0.52  -0.86  0.0154181549941
0.52  -0.84  0.0195850980675
0.52  -0.82  0.0248782079607
0.52  -0.8  0.0316018448927
0.52  -0.78  0.0401426261166
0.52  -0.76  0.05099165688
0.52  -0.74  0.0647727695694
0.52  -0.72  0.0822783948277
0.52  -0.7  0.104515127274
0.52  -0.68  0.132761605911
0.52  -0.66  0.168642037413
0.52  -0.64  0.214219589977
0.52  -0.62  0.272115027984
0.52  -0.6  0.345657409122
0.52  -0.58  0.439075509229
0.52  -0.56  0.557740982017
0.52  -0.54  0.708477235651
0.52  -0.52  0.899951786976
0.52  -0.5  1.14317465421
0.52  -0.48  1.45213144631
0.52  -0.46  1.84458755238
0.52  -0.44  2.34310967306
0.52  -0.42  2.97636343307
0.52  -0.4  3.78076168929
0.52  -0.38  4.80255831407
0.52  -0.36  6.10050784883
0.52  -0.34  7.74924396119
0.52  -0.32  9.84357097117
0.52  -0.3  12.5039152141
0.52  -0.28  15.8832497008
0.52  -0.26  20.1758902501
0.52  -0.24  25.6286688841
0.52  -0.22  32.5551269673
0.52  -0.2  17.2019796796
0.52  -0.18  15.7575908144
0.52  -0.16  14.3090684765
0.52  -0.14  12.8670566625
0.52  -0.12  11.446199298
0.52  -0.1  10.0676764219
0.52  -0.08  8.76355797431
0.52  -0.06  7.58390698459
0.52  -0.04  6.60623498794
0.52  -0.02  5.93958720423
0.52  6.17561557e-16  5.69949034454
0.52  0.02  5.93958720423
0.52  0.04  6.60623498794
0.52  0.06  7.58390698459
0.52  0.08  8.76355797431
0.52  0.1  10.0676764219
0.52  0.12  11.446199298
0.52  0.14  12.8670566625
0.52  0.16  14.3090684765
0.52  0.18  15.7575908144
0.52  0.2  41.3535442145
0.52  0.22  32.5551269673
0.52  0.24  25.6286688841
0.52  0.26  20.1758902501
0.52  0.28  15.8832497008
0.52  0.3  12.5039152141
0.52  0.32  9.84357097117
0.52  0.34  7.74924396119
0.52  0.36  6.10050784883
0.52  0.38  4.80255831407
0.52  0.4  3.78076168929
0.52  0.42  2.97636343307
0.52  0.44  2.34310967306
0.52  0.46  1.84458755238
0.52  0.48  1.45213144631
0.52  0.5  1.14317465421
0.52  0.52  0.899951786976
0.52  0.54  0.708477235651
0.52  0.56  0.557740982017
0.52  0.58  0.439075509229
0.52  0.6  0.345657409122
0.52  0.62  0.272115027984
0.52  0.64  0.214219589977
0.52  0.66  0.168642037413
0.52  0.68  0.132761605911
0.52  0.7  0.104515127274
0.52  0.72  0.0822783948277
0.52  0.74  0.0647727695694
0.52  0.76  0.05099165688
0.52  0.78  0.0401426261166
0.52  0.8  0.0316018448927
0.52  0.82  0.0248782079607
0.52  0.84  0.0195850980675
0.52  0.86  0.0154181549941
0.52  0.88  0.0121377744754
0.52  0.9  0.00955533066523
0.52  0.92  0.00752232992189
0.52  0.94  0.00592187224454
0.52  0.96  0.00466192938156
0.52  0.98  0.0036700530949
0.54  -1  0.00239875290587
0.54  -0.98  0.00304704492328
0.54  -0.96  0.00387054570805
0.54  -0.94  0.00491660755102
0.54  -0.92  0.006245380273
0.54  -0.9  0.00793326991214
0.54  -0.88  0.0100773321636
0.54  -0.86  0.0128008531992
0.54  -0.84  0.0162604387717
0.54  -0.82  0.0206550192346
0.54  -0.8  0.026237288278
0.54  -0.78  0.0333282331217
0.54  -0.76  0.042335591668
0.54  -0.74  0.0537772979245
0.54  -0.72  0.0683112638353
0.54  -0.7  0.0867732100139
0.54  -0.68  0.110224720688
0.54  -0.66  0.140014286078
0.54  -0.64  0.177854842213
0.54  -0.62  0.225922266825
0.54  -0.6  0.286980494948
0.54  -0.58  0.364540448527
0.54  -0.56  0.463061918674
0.54  -0.54  0.588210009045
0.54  -0.52  0.74718088616
0.54  -0.5  0.949115567666
0.54  -0.48  1.20562554192
0.54  -0.46  1.53146044259
0.54  -0.44  1.94535617044
0.54  -0.42  2.47111223028
0.54  -0.4  3.13896023125
0.54  -0.38  3.98730224093
0.54  -0.36  5.06491895063
0.54  -0.34  6.43377462414
0.54  -0.32  8.1725801178
0.54  -0.3  10.3813188499
0.54  -0.28  13.1869959683
0.54  -0.26  16.7509412996
0.54  -0.24  21.2780860098
0.54  -0.22  27.0287463934
0.54  -0.2  14.2818655474
0.54  -0.18  13.0826682482
0.54  -0.16  11.8800391522
0.54  -0.14  10.6828153891
0.54  -0.12  9.50315501161
0.54  -0.1  8.35864265101
0.54  -0.08  7.27590422945
0.54  -0.06  6.29650434979
0.54  -0.04  5.48479661233
0.54  -0.02  4.93131531589
0.54  6.17561557e-16  4.73197598796
0.54  0.02  4.93131531589
0.54  0.04  5.48479661233
0.54  0.06  6.29650434979
0.54  0.08  7.27590422945
0.54  0.1  8.35864265101
0.54  0.12  9.50315501161
0.54  0.14  10.6828153891
0.54  0.16  11.8800391522
0.54  0.18  13.0826682482
0.54  0.2  34.3335923759
0.54  0.22  27.0287463934
0.54  0.24  21.2780860098
0.54  0.26  16.7509412996
0.54  0.28  13.1869959683
0.54  0.3  10.3813188499
0.54  0.32  8.1725801178
0.54  0.34  6.43377462414
0.54  0.36  5.06491895063
0.54  0.38  3.98730224093
0.54  0.4  3.13896023125
0.54  0.42  2.47111223028
0.54  0.44  1.94535617044
0.54  0.46  1.53146044259
0.54  0.48  1.20562554192
0.54  0.5  0.949115567666
0.54  0.52  0.74718088616
0.54  0.54  0.588210009045
0.54  0.56  0.463061918674
0.54  0.58  0.364540448527
0.54  0.6  0.286980494948
0.54  0.62  0.225922266825
0.54  0.64  0.177854842213
0.54  0.66  0.140014286078
0.54  0.68  0.110224720688
0.54  0.7  0.0867732100139
0.54  0.72  0.0683112638353
0.54  0.74  0.0537772979245
0.54  0.76  0.042335591668
0.54  0.78  0.0333282331217
0.54  0.8  0.026237288278
0.54  0.82  0.0206550192346
0.54  0.84  0.0162604387717
0.54  0.86  0.0128008531992
0.54  0.88  0.0100773321636
0.54  0.9  0.00793326991214
0.54  0.92  0.006245380273
0.54  0.94  0.00491660755102
0.54  0.96  0.00387054570805
0.54  0.98  0.00304704492328
0.56  -1  0.0019915537119
0.56  -0.98  0.00252979521669
0.56  -0.96  0.00321350300529
0.56  -0.94  0.00408199110223
0.56  -0.92  0.00518519862321
0.56  -0.9  0.0065865613346
0.56  -0.88  0.00836665928673
0.56  -0.86  0.0106278502642
0.56  -0.84  0.0135001554824
0.56  -0.82  0.0171487359642
0.56  -0.8  0.021783389499
0.56  -0.78  0.0276706142689
0.56  -0.76  0.0351489328166
0.56  -0.74  0.0446483575009
0.56  -0.72  0.0567151167272
0.56  -0.7  0.0720430637412
0.56  -0.68  0.0915135740297
0.56  -0.66  0.116246225477
0.56  -0.64  0.147663175445
0.56  -0.62  0.187570936546
0.56  -0.6  0.238264253295
0.56  -0.58  0.302658052702
0.56  -0.56  0.384455056091
0.56  -0.54  0.488358690062
0.56  -0.52  0.6203435392
0.56  -0.5  0.787998891918
0.56  -0.48  1.00096513371
0.56  -0.46  1.271488081
0.56  -0.44  1.61512313033
0.56  -0.42  2.05162971255
0.56  -0.4  2.60610748392
0.56  -0.38  3.31043958675
0.56  -0.36  4.20512596856
0.56  -0.34  5.3416121781
0.56  -0.32  6.78524754659
0.56  -0.3  8.61904285325
0.56  -0.28  10.9484435455
0.56  -0.26  13.9073929797
0.56  -0.24  17.6660343261
0.56  -0.22  22.4404940068
0.56  -0.2  11.8574540438
0.56  -0.18  10.8618259295
0.56  -0.16  9.86334858137
0.56  -0.14  8.86935898636
0.56  -0.12  7.88995131256
0.56  -0.1  6.93972512023
0.56  -0.08  6.0407864604
0.56  -0.06  5.22764415591
0.56  -0.04  4.55372749131
0.56  -0.02  4.09420215726
0.56  6.17561557e-16  3.92870158506
0.56  0.02  4.09420215726
0.56  0.04  4.55372749132
0.56  0.06  5.22764415591
0.56  0.08  6.0407864604
0.56  0.1  6.93972512023
0.56  0.12  7.88995131256
0.56  0.14  8.86935898637
0.56  0.16  9.86334858137
0.56  0.18  10.8618259295
0.56  0.2  28.5053092263
0.56  0.22  22.4404940068
0.56  0.24  17.6660343261
0.56  0.26  13.9073929797
0.56  0.28  10.9484435455
0.56  0.3  8.61904285325
0.56  0.32  6.78524754659
0.56  0.34  5.3416121781
0.56  0.36  4.20512596856
0.56  0.38  3.31043958675
0.56  0.4  2.60610748392
0.56  0.42  2.05162971255
0.56  0.44  1.61512313033
0.56  0.46  1.271488081
0.56  0.48  1.00096513371
0.56  0.5  0.787998891918
0.56  0.52  0.6203435392
0.56  0.54  0.488358690062
0.56  0.56  0.384455056091
0.56  0.58  0.302658052702
0.56  0.6  0.238264253295
0.56  0.62  0.187570936546
0.56  0.64  0.147663175445
0.56  0.66  0.116246225477
0.56  0.68  0.0915135740297
0.56  0.7  0.0720430637412
0.56  0.72  0.0567151167272
0.56  0.74  0.0446483575009
0.56  0.76  0.0351489328166
0.56  0.78  0.0276706142689
0.56  0.8  0.021783389499
0.56  0.82  0.0171487359642
0.56  0.84  0.0135001554824
0.56  0.86  0.0106278502642
0.56  0.88  0.00836665928673
0.56  0.9  0.0065865613346
0.56  0.92  0.00518519862321
0.56  0.94  0.00408199110223
0.56  0.96  0.00321350300529
0.56  0.98  0.00252979521669
0.58  -1  0.00165347842943
0.58  -0.98  0.00210035099565
0.58  -0.96  0.00266799628371
0.58  -0.94  0.00338905458404
0.58  -0.92  0.00430498762075
0.58  -0.9  0.00546846265095
0.58  -0.88  0.00694638089565
0.58  -0.86  0.00882372444093
0.58  -0.84  0.0112084428106
0.58  -0.82  0.0142376601943
0.58  -0.8  0.0180855602544
0.58  -0.78  0.0229734018969
0.58  -0.76  0.0291822419263
0.58  -0.74  0.0370690961515
0.58  -0.72  0.0470874682268
0.58  -0.7  0.05981342666
0.58  -0.68  0.0759787294483
0.58  -0.66  0.096512901048
0.58  -0.64  0.122596681155
0.58  -0.62  0.155729918663
0.58  -0.6  0.197817814792
0.58  -0.58  0.251280474459
0.58  -0.56  0.319192065237
0.58  -0.54  0.405457585712
0.58  -0.52  0.515037407616
0.58  -0.5  0.654232503204
0.58  -0.48  0.831046758779
0.58  -0.46  1.05564720783
0.58  -0.44  1.34094864774
0.58  -0.42  1.70335625628
0.58  -0.4  2.16370890913
0.58  -0.38  2.74847744046
0.58  -0.36  3.49128674788
0.58  -0.34  4.43484926472
0.58  -0.32  5.63342097659
0.58  -0.3  7.15592120616
0.58  -0.28  9.08989555751
0.58  -0.26  11.5465498943
0.58  -0.24  14.6671448112
0.58  -0.22  18.6311182893
0.58  -0.2  9.84459739761
0.58  -0.18  9.01798167497
0.58  -0.16  8.1890003889
0.58  -0.14  7.36374503946
0.58  -0.12  6.55059626392
0.58  -0.1  5.76167528092
0.58  -0.08  5.01533553897
0.58  -0.06  4.34022783161
0.58  -0.04  3.78071157981
0.58  -0.02  3.39919275704
0.58  6.17561557e-16  3.2617866582
0.58  0.02  3.39919275704
0.58  0.04  3.78071157981
0.58  0.06  4.34022783161
0.58  0.08  5.01533553897
0.58  0.1  5.76167528092
0.58  0.12  6.55059626392
0.58  0.14  7.36374503947
0.58  0.16  8.1890003889
0.58  0.18  9.01798167497
0.58  0.2  23.6664035965
0.58  0.22  18.6311182893
0.58  0.24  14.6671448112
0.58  0.26  11.5465498943
0.58  0.28  9.08989555751
0.58  0.3  7.15592120616
0.58  0.32  5.63342097659
0.58  0.34  4.43484926472
0.58  0.36  3.49128674788
0.58  0.38  2.74847744046
0.58  0.4  2.16370890913
0.58  0.42  1.70335625628
0.58  0.44  1.34094864774
0.58  0.46  1.05564720783
0.58  0.48  0.831046758779
0.58  0.5  0.654232503204
0.58  0.52  0.515037407616
0.58  0.54  0.405457585712
0.58  0.56  0.319192065237
0.58  0.58  0.251280474459
0.58  0.6  0.197817814792
0.58  0.62  0.155729918663
0.58  0.64  0.122596681155
0.58  0.66  0.096512901048
0.58  0.68  0.0759787294483
0.58  0.7  0.05981342666
0.58  0.72  0.0470874682268
0.58  0.74  0.0370690961515
0.58  0.76  0.0291822419263
0.58  0.78  0.0229734018969
0.58  0.8  0.0180855602544
0.58  0.82  0.0142376601943
0.58  0.84  0.0112084428106
0.58  0.86  0.00882372444093
0.58  0.88  0.00694638089565
0.58  0.9  0.00546846265095
0.58  0.92  0.00430498762075
0.58  0.94  0.00338905458404
0.58  0.96  0.00266799628371
0.58  0.98  0.00210035099565
0.6  -1  0.00137279296072
0.6  -0.98  0.00174380688042
0.6  -0.96  0.00221509180423
0.6  -0.94  0.00281374718512
0.6  -0.92  0.00357419643133
0.6  -0.9  0.00454016629402
0.6  -0.88  0.00576720120825
0.6  -0.86  0.00732585716526
0.6  -0.84  0.00930575876718
0.6  -0.82  0.0118207527501
0.6  -0.8  0.0150154543089
0.6  -0.78  0.0190735626462
0.6  -0.76  0.024228423898
0.6  -0.74  0.0307764488192
0.6  -0.72  0.0390941567603
0.6  -0.7  0.0496598259849
0.6  -0.68  0.0630809952489
0.6  -0.66  0.0801293980128
0.6  -0.64  0.101785338049
0.6  -0.62  0.129294058095
0.6  -0.6  0.164237342815
0.6  -0.58  0.20862447333
0.6  -0.56  0.265007763317
0.6  -0.54  0.336629320122
0.6  -0.52  0.427607469863
0.6  -0.5  0.543173566154
0.6  -0.48  0.689972799267
0.6  -0.46  0.876446302603
0.6  -0.44  1.11331652808
0.6  -0.42  1.41420380006
0.6  -0.4  1.7964095005
0.6  -0.38  2.28191091931
0.6  -0.36  2.89862497511
0.6  -0.34  3.68201347178
0.6  -0.32  4.67712219512
0.6  -0.3  5.94117109992
0.6  -0.28  7.54684452662
0.6  -0.26  9.5864706387
0.6  -0.24  12.1773304038
0.6  -0.22  15.4684013911
0.6  -0.2  8.17343230369
0.6  -0.18  7.48713835206
0.6  -0.16  6.79888040214
0.6  -0.14  6.11371589419
0.6  -0.12  5.43860281427
0.6  -0.1  4.78360474913
0.6  -0.08  4.16395956609
0.6  -0.06  3.60345445644
0.6  -0.04  3.13891862809
0.6  -0.02  2.82216435724
0.6  6.17561557e-16  2.70808356737
0.6  0.02  2.82216435724
0.6  0.04  3.13891862809
0.6  0.06  3.60345445644
0.6  0.08  4.16395956609
0.6  0.1  4.78360474913
0.6  0.12  5.43860281427
0.6  0.14  6.11371589419
0.6  0.16  6.79888040214
0.6  0.18  7.48713835206
0.6  0.2  19.6489241617
0.6  0.22  15.4684013911
0.6  0.24  12.1773304038
0.6  0.26  9.5864706387
0.6  0.28  7.54684452662
0.6  0.3  5.94117109992
0.6  0.32  4.67712219512
0.6  0.34  3.68201347178
0.6  0.36  2.89862497511
0.6  0.38  2.28191091931
0.6  0.4  1.7964095005
0.6  0.42  1.41420380006
0.6  0.44  1.11331652808
0.6  0.46  0.876446302603
0.6  0.48  0.689972799267
0.6  0.5  0.543173566154
0.6  0.52  0.427607469863
0.6  0.54  0.336629320122
0.6  0.56  0.265007763317
0.6  0.58  0.20862447333
0.6  0.6  0.164237342815
0.6  0.62  0.129294058095
0.6  0.64  0.101785338049
0.6  0.66  0.0801293980128
0.6  0.68  0.0630809952489
0.6  0.7  0.0496598259849
0.6  0.72  0.0390941567603
0.6  0.74  0.0307764488192
0.6  0.76  0.024228423898
0.6  0.78  0.0190735626462
0.6  0.8  0.0150154543089
0.6  0.82  0.0118207527501
0.6  0.84  0.00930575876718
0.6  0.86  0.00732585716526
0.6  0.88  0.00576720120825
0.6  0.9  0.00454016629402
0.6  0.92  0.00357419643133
0.6  0.94  0.00281374718512
0.6  0.96  0.00221509180423
0.6  0.98  0.00174380688042
0.62  -1  0.00113975512438
0.62  -0.98  0.00144778774714
0.62  -0.96  0.00183906991592
0.62  -0.94  0.00233610082855
0.62  -0.92  0.00296746036346
0.62  -0.9  0.00376945245731
0.62  -0.88  0.00478819262521
0.62  -0.86  0.00608225965861
0.62  -0.84  0.00772606397662
0.62  -0.82  0.0098141263151
0.62  -0.8  0.0124665127832
0.62  -0.78  0.0158357388101
0.62  -0.76  0.0201155389659
0.62  -0.74  0.0255520069346
0.62  -0.72  0.0324577461977
0.62  -0.7  0.0412298451128
0.62  -0.68  0.0523727099741
0.62  -0.66  0.0665270689842
0.62  -0.64  0.0845068149009
0.62  -0.62  0.107345804854
0.62  -0.6  0.136357308381
0.62  -0.58  0.173209522014
0.62  -0.56  0.220021492595
0.62  -0.54  0.279484965035
0.62  -0.52  0.355019160898
0.62  -0.5  0.450967387777
0.62  -0.48  0.572846784731
0.62  -0.46  0.727665564453
0.62  -0.44  0.924325993973
0.62  -0.42  1.17413628578
0.62  -0.4  1.49146083369
0.62  -0.38  1.89454618292
0.62  -0.36  2.40657022841
0.62  -0.34  3.0569749719
0.62  -0.32  3.88315947254
0.62  -0.3  4.9326303381
0.62  -0.28  6.26573341229
0.62  -0.26  7.95912373377
0.62  -0.24  10.1101732936
0.62  -0.22  12.8425700422
0.62  -0.2  6.78595507006
0.62  -0.18  6.21616263188
0.62  -0.16  5.64473959303
0.62  -0.14  5.07588487035
0.62  -0.12  4.51537530015
0.62  -0.1  3.97156612967
0.62  -0.08  3.45710852909
0.62  -0.06  2.991751706
0.62  -0.04  2.60607294308
0.62  -0.02  2.34308914749
0.62  6.17561557e-16  2.24837408953
0.62  0.02  2.34308914749
0.62  0.04  2.60607294308
0.62  0.06  2.991751706
0.62  0.08  3.45710852909
0.62  0.1  3.97156612967
0.62  0.12  4.51537530015
0.62  0.14  5.07588487035
0.62  0.16  5.64473959303
0.62  0.18  6.21616263188
0.62  0.2  16.3134300967
0.62  0.22  12.8425700422
0.62  0.24  10.1101732936
0.62  0.26  7.95912373377
0.62  0.28  6.26573341229
0.62  0.3  4.9326303381
0.62  0.32  3.88315947254
0.62  0.34  3.0569749719
0.62  0.36  2.40657022841
0.62  0.38  1.89454618292
0.62  0.4  1.49146083369
0.62  0.42  1.17413628578
0.62  0.44  0.924325993973
0.62  0.46  0.727665564453
0.62  0.48  0.572846784731
0.62  0.5  0.450967387777
0.62  0.52  0.355019160898
0.62  0.54  0.279484965035
0.62  0.56  0.220021492595
0.62  0.58  0.173209522014
0.62  0.6  0.136357308381
0.62  0.62  0.107345804854
0.62  0.64  0.0845068149009
0.62  0.66  0.0665270689842
0.62  0.68  0.0523727099741
0.62  0.7  0.0412298451128
0.62  0.72  0.0324577461977
0.62  0.74  0.0255520069346
0.62  0.76  0.0201155389659
0.62  0.78  0.0158357388101
0.62  0.8  0.0124665127832
0.62  0.82  0.0098141263151
0.62  0.84  0.00772606397662
0.62  0.86  0.00608225965861
0.62  0.88  0.00478819262521
0.62  0.9  0.00376945245731
0.62  0.92  0.00296746036346
0.62  0.94  0.00233610082855
0.62  0.96  0.00183906991592
0.62  0.98  0.00144778774714
0.64  -1  0.000946276518551
0.64  -0.98  0.0012020192054
0.64  -0.96  0.00152687944996
0.64  -0.94  0.00193953710909
0.64  -0.92  0.00246372049714
0.64  -0.9  0.00312957079273
0.64  -0.88  0.00397537519297
0.64  -0.86  0.00504976847354
0.64  -0.84  0.00641452954716
0.64  -0.82  0.00814813382575
0.64  -0.8  0.0103502656515
0.64  -0.78  0.0131475502669
0.64  -0.76  0.0167008349199
0.64  -0.74  0.0212144377742
0.64  -0.72  0.0269478964515
0.64  -0.7  0.0342308917582
0.64  -0.68  0.0434822047307
0.64  -0.66  0.0552337970507
0.64  -0.64  0.070161399486
0.64  -0.62  0.089123367226
0.64  -0.6  0.113210036343
0.64  -0.58  0.143806419436
0.64  -0.56  0.182671845526
0.64  -0.54  0.232041123608
0.64  -0.52  0.294753046866
0.64  -0.5  0.374413626713
0.64  -0.48  0.47560344281
0.64  -0.46  0.604141031936
0.64  -0.44  0.767417460882
0.64  -0.42  0.974821321736
0.64  -0.4  1.23827858728
0.64  -0.38  1.57293836882
0.64  -0.36  1.99804400846
0.64  -0.34  2.53803959448
0.64  -0.32  3.223975526
0.64  -0.3  4.09529394848
0.64  -0.28  5.20209672473
0.64  -0.26  6.60802635265
0.64  -0.24  8.39392548582
0.64  -0.22  10.6624854838
0.64  -0.2  5.63400839474
0.64  -0.18  5.1609408093
0.64  -0.16  4.68651942504
0.64  -0.14  4.21423037362
0.64  -0.12  3.74886984718
0.64  -0.1  3.2973747518
0.64  -0.08  2.87024866409
0.64  -0.06  2.48388827402
0.64  -0.04  2.16368023175
0.64  -0.02  1.94533912917
0.64  6.17561557e-16  1.86670238223
0.64  0.02  1.94533912917
0.64  0.04  2.16368023175
0.64  0.06  2.48388827402
0.64  0.08  2.87024866409
0.64  0.1  3.2973747518
0.64  0.12  3.74886984718
0.64  0.14  4.21423037362
0.64  0.16  4.68651942504
0.64  0.18  5.1609408093
0.64  0.2  13.5441512894
0.64  0.22  10.6624854838
0.64  0.24  8.39392548582
0.64  0.26  6.60802635265
0.64  0.28  5.20209672473
0.64  0.3  4.09529394848
0.64  0.32  3.223975526
0.64  0.34  2.53803959448
0.64  0.36  1.99804400846
0.64  0.38  1.57293836882
0.64  0.4  1.23827858728
0.64  0.42  0.974821321736
0.64  0.44  0.767417460882
0.64  0.46  0.604141031936
0.64  0.48  0.47560344281
0.64  0.5  0.374413626713
0.64  0.52  0.294753046866
0.64  0.54  0.232041123608
0.64  0.56  0.182671845526
0.64  0.58  0.143806419436
0.64  0.6  0.113210036343
0.64  0.62  0.089123367226
0.64  0.64  0.070161399486
0.64  0.66  0.0552337970507
0.64  0.68  0.0434822047307
0.64  0.7  0.0342308917582
0.64  0.72  0.0269478964515
0.64  0.74  0.0212144377742
0.64  0.76  0.0167008349199
0.64  0.78  0.0131475502669
0.64  0.8  0.0103502656515
0.64  0.82  0.00814813382575
0.64  0.84  0.00641452954716
0.64  0.86  0.00504976847354
0.64  0.88  0.00397537519297
0.64  0.9  0.00312957079273
0.64  0.92  0.00246372049714
0.64  0.94  0.00193953710909
0.64  0.96  0.00152687944996
0.64  0.98  0.0012020192054
0.66  -1  0.000785641784277
0.66  -0.98  0.000997970989192
0.66  -0.96  0.00126768473266
0.66  -0.94  0.00161029188106
0.66  -0.92  0.00204549275966
0.66  -0.9  0.00259831194521
0.66  -0.88  0.00330053720931
0.66  -0.86  0.00419254735372
0.66  -0.84  0.0053256340403
0.66  -0.82  0.00676495112358
0.66  -0.8  0.00859326107617
0.66  -0.78  0.010915693931
0.66  -0.76  0.0138657923854
0.66  -0.74  0.0176131906674
0.66  -0.72  0.0223733687095
0.66  -0.7  0.0284200425046
0.66  -0.68  0.0361009031073
0.66  -0.66  0.0458576092893
0.66  -0.64  0.0582511834532
0.66  -0.62  0.0739942710989
0.66  -0.6  0.0939921188015
0.66  -0.58  0.119394626984
0.66  -0.56  0.151662470581
0.66  -0.54  0.192651089617
0.66  -0.52  0.244717379245
0.66  -0.5  0.310855214075
0.66  -0.48  0.394867599579
0.66  -0.46  0.501585349504
0.66  -0.44  0.637144863508
0.66  -0.42  0.809340977554
0.66  -0.4  1.02807517641
0.66  -0.38  1.30592494098
0.66  -0.36  1.65886696869
0.66  -0.34  2.10719585289
0.66  -0.32  2.6766910465
0.66  -0.3  3.40009921175
0.66  -0.28  4.31901719283
0.66  -0.26  5.48628388476
0.66  -0.24  6.96901853368
0.66  -0.22  8.85248017474
0.66  -0.2  4.67760989637
0.66  -0.18  4.28484768086
0.66  -0.16  3.89096148003
0.66  -0.14  3.49884563886
0.66  -0.12  3.1124821741
0.66  -0.1  2.73763042055
0.66  -0.08  2.383010925
0.66  -0.06  2.06223696488
0.66  -0.04  1.79638569124
0.66  -0.02  1.6151089819
0.66  6.17561557e-16  1.54982117968
0.66  0.02  1.6151089819
0.66  0.04  1.79638569124
0.66  0.06  2.06223696488
0.66  0.08  2.383010925
0.66  0.1  2.73763042055
0.66  0.12  3.1124821741
0.66  0.14  3.49884563886
0.66  0.16  3.89096148003
0.66  0.18  4.28484768086
0.66  0.2  11.2449701296
0.66  0.22  8.85248017474
0.66  0.24  6.96901853368
0.66  0.26  5.48628388476
0.66  0.28  4.31901719283
0.66  0.3  3.40009921175
0.66  0.32  2.6766910465
0.66  0.34  2.10719585289
0.66  0.36  1.65886696869
0.66  0.38  1.30592494098
0.66  0.4  1.02807517641
0.66  0.42  0.809340977554
0.66  0.44  0.637144863508
0.66  0.46  0.501585349504
0.66  0.48  0.394867599579
0.66  0.5  0.310855214075
0.66  0.52  0.244717379245
0.66  0.54  0.192651089617
0.66  0.56  0.151662470581
0.66  0.58  0.119394626984
0.66  0.6  0.0939921188015
0.66  0.62  0.0739942710989
0.66  0.64  0.0582511834532
0.66  0.66  0.0458576092893
0.66  0.68  0.0361009031073
0.66  0.7  0.0284200425046
0.66  0.72  0.0223733687095
0.66  0.74  0.0176131906674
0.66  0.76  0.0138657923854
0.66  0.78  0.010915693931
0.66  0.8  0.00859326107617
0.66  0.82  0.00676495112358
0.66  0.84  0.0053256340403
0.66  0.86  0.00419254735372
0.66  0.88  0.00330053720931
0.66  0.9  0.00259831194521
0.66  0.92  0.00204549275966
0.66  0.94  0.00161029188106
0.66  0.96  0.00126768473266
0.66  0.98  0.000997970989192
0.68  -1  0.000652275525284
0.68  -0.98  0.00082856088388
0.68  -0.96  0.00105248949514
0.68  -0.94  0.00133693752496
0.68  -0.92  0.001698261079
0.68  -0.9  0.0021572366985
0.68  -0.88  0.00274025603654
0.68  -0.86  0.00348084341001
0.68  -0.84  0.00442158348834
0.68  -0.82  0.00561656996352
0.68  -0.8  0.00713451600276
0.68  -0.78  0.00906270533872
0.68  -0.76  0.0115120111896
0.68  -0.74  0.0146232716035
0.68  -0.72  0.0185753878159
0.68  -0.7  0.0235956112878
0.68  -0.68  0.029972610939
0.68  -0.66  0.0380730719599
0.68  -0.64  0.0483627806537
0.68  -0.62  0.061433407712
0.68  -0.6  0.0780365299947
0.68  -0.58  0.0991268471084
0.68  -0.56  0.125917077788
0.68  -0.54  0.15994769269
0.68  -0.52  0.20317549332
0.68  -0.5  0.258086130481
0.68  -0.48  0.327837032204
0.68  -0.46  0.416438959677
0.68  -0.44  0.528986630859
0.68  -0.42  0.671951672929
0.68  -0.4  0.853554748669
0.68  -0.38  1.08423825452
0.68  -0.36  1.37726677098
0.68  -0.34  1.74948979207
0.68  -0.32  2.22231059157
0.68  -0.3  2.82291693714
0.68  -0.28  3.58584441987
0.68  -0.26  4.55496229249
0.68  -0.24  5.78599600447
0.68  -0.22  7.34973148273
0.68  -0.2  3.88356438429
0.68  -0.18  3.55747533765
0.68  -0.16  3.23045310731
0.68  -0.14  2.90490071003
0.68  -0.12  2.58412419716
0.68  -0.1  2.27290523026
0.68  -0.08  1.97848400374
0.68  -0.06  1.71216287938
0.68  -0.04  1.49144106616
0.68  -0.02  1.34093690107
0.68  6.17561557e-16  1.28673199963
0.68  0.02  1.34093690107
0.68  0.04  1.49144106616
0.68  0.06  1.71216287938
0.68  0.08  1.97848400374
0.68  0.1  2.27290523026
0.68  0.12  2.58412419716
0.68  0.14  2.90490071003
0.68  0.16  3.23045310731
0.68  0.18  3.55747533765
0.68  0.2  9.33608540802
0.68  0.22  7.34973148273
0.68  0.24  5.78599600447
0.68  0.26  4.55496229249
0.68  0.28  3.58584441987
0.68  0.3  2.82291693714
0.68  0.32  2.22231059157
0.68  0.34  1.74948979207
0.68  0.36  1.37726677098
0.68  0.38  1.08423825452
0.68  0.4  0.853554748669
0.68  0.42  0.671951672929
0.68  0.44  0.528986630859
0.68  0.46  0.416438959677
0.68  0.48  0.327837032204
0.68  0.5  0.258086130481
0.68  0.52  0.20317549332
0.68  0.54  0.15994769269
0.68  0.56  0.125917077788
0.68  0.58  0.0991268471084
0.68  0.6  0.0780365299947
0.68  0.62  0.061433407712
0.68  0.64  0.0483627806537
0.68  0.66  0.0380730719599
0.68  0.68  0.029972610939
0.68  0.7  0.0235956112878
0.68  0.72  0.0185753878159
0.68  0.74  0.0146232716035
0.68  0.76  0.0115120111896
0.68  0.78  0.00906270533872
0.68  0.8  0.00713451600276
0.68  0.82  0.00561656996352
0.68  0.84  0.00442158348834
0.68  0.86  0.00348084341001
0.68  0.88  0.00274025603654
0.68  0.9  0.0021572366985
0.68  0.92  0.001698261079
0.68  0.94  0.00133693752496
0.68  0.96  0.00105248949514
0.68  0.98  0.00082856088388
0.7  -1  0.000541548794119
0.7  -0.98  0.000687908912916
0.7  -0.96  0.000873824625976
0.7  -0.94  0.0011099863116
0.7  -0.92  0.00140997355225
0.7  -0.9  0.001791035977
0.7  -0.88  0.00227508513602
0.7  -0.86  0.00288995444124
0.7  -0.84  0.00367099962116
0.7  -0.82  0.004663131718
0.7  -0.8  0.00592339952696
0.7  -0.78  0.00752426997088
0.7  -0.76  0.00955779503595
0.7  -0.74  0.0121409048722
0.7  -0.72  0.0154221314185
0.7  -0.7  0.0195901491687
0.7  -0.68  0.0248846241832
0.7  -0.66  0.0316099951769
0.7  -0.64  0.0401529791139
0.7  -0.62  0.0510048079001
0.7  -0.6  0.064789474812
0.7  -0.58  0.0822996148644
0.7  -0.56  0.104542082282
0.7  -0.54  0.132795845837
0.7  -0.52  0.168685531094
0.7  -0.5  0.214274838351
0.7  -0.48  0.2721852079
0.7  -0.46  0.345746556011
0.7  -0.44  0.439188749144
0.7  -0.42  0.557884826389
0.7  -0.4  0.708659955707
0.7  -0.38  0.900183889339
0.7  -0.36  1.14346948505
0.7  -0.34  1.45250595875
0.7  -0.32  1.84506328135
0.7  -0.3  2.34371397354
0.7  -0.28  2.97713105307
0.7  -0.26  3.78173676788
0.7  -0.24  4.80379691946
0.7  -0.22  6.10208120232
0.7  -0.2  3.22431170215
0.7  -0.18  2.95357775133
0.7  -0.16  2.68206902897
0.7  -0.14  2.41178062885
0.7  -0.12  2.14545738508
0.7  -0.1  1.88706925047
0.7  -0.08  1.64262736356
0.7  -0.06  1.42151545891
0.7  -0.04  1.23826217537
0.7  -0.02  1.11330677546
0.7  6.17561557e-16  1.06830340208
0.7  0.02  1.11330677546
0.7  0.04  1.23826217537
0.7  0.06  1.42151545891
0.7  0.08  1.64262736356
0.7  0.1  1.88706925047
0.7  0.12  2.14545738508
0.7  0.14  2.41178062885
0.7  0.16  2.68206902897
0.7  0.18  2.95357775133
0.7  0.2  7.75124253252
0.7  0.22  6.10208120232
0.7  0.24  4.80379691946
0.7  0.26  3.78173676788
0.7  0.28  2.97713105307
0.7  0.3  2.34371397354
0.7  0.32  1.84506328135
0.7  0.34  1.45250595875
0.7  0.36  1.14346948505
0.7  0.38  0.900183889339
0.7  0.4  0.708659955707
0.7  0.42  0.557884826389
0.7  0.44  0.439188749144
0.7  0.46  0.345746556011
0.7  0.48  0.2721852079
0.7  0.5  0.214274838351
0.7  0.52  0.168685531094
0.7  0.54  0.132795845837
0.7  0.56  0.104542082282
0.7  0.58  0.0822996148644
0.7  0.6  0.064789474812
0.7  0.62  0.0510048079001
0.7  0.64  0.0401529791139
0.7  0.66  0.0316099951769
0.7  0.68  0.0248846241832
0.7  0.7  0.0195901491687
0.7  0.72  0.0154221314185
0.7  0.74  0.0121409048722
0.7  0.76  0.00955779503595
0.7  0.78  0.00752426997088
0.7  0.8  0.00592339952696
0.7  0.82  0.004663131718
0.7  0.84  0.00367099962116
0.7  0.86  0.00288995444124
0.7  0.88  0.00227508513602
0.7  0.9  0.001791035977
0.7  0.92  0.00140997355225
0.7  0.94  0.0011099863116
0.7  0.96  0.000873824625976
0.7  0.98  0.000687908912916
0.72  -1  0.00044961842817
0.72  -0.98  0.000571133252457
0.72  -0.96  0.000725488929333
0.72  -0.94  0.000921561096857
0.72  -0.92  0.00117062414174
0.72  -0.9  0.0014869994902
0.72  -0.88  0.00188887910733
0.72  -0.86  0.00239937155703
0.72  -0.84  0.00304783077241
0.72  -0.82  0.00387154394242
0.72  -0.8  0.00491787557032
0.72  -0.78  0.00624699098986
0.72  -0.76  0.00793531594475
0.72  -0.74  0.0100799311613
0.72  -0.72  0.0128041546075
0.72  -0.7  0.0162646324256
0.72  -0.68  0.0206603462742
0.72  -0.66  0.0262440550145
0.72  -0.64  0.0333368286507
0.72  -0.62  0.0423465102428
0.72  -0.6  0.0537911673763
0.72  -0.58  0.0683288816745
0.72  -0.56  0.0867955892873
0.72  -0.54  0.110253148231
0.72  -0.52  0.140050396509
0.72  -0.5  0.177900711925
0.72  -0.48  0.225980533382
0.72  -0.46  0.287054508747
0.72  -0.44  0.364634465452
0.72  -0.42  0.463181344811
0.72  -0.4  0.588361711543
0.72  -0.38  0.747373588093
0.72  -0.36  0.949360349631
0.72  -0.34  1.20593647917
0.72  -0.32  1.5318554144
0.72  -0.3  1.94585788817
0.72  -0.28  2.47174954329
0.72  -0.26  3.13976978583
0.72  -0.24  3.98833058744
0.72  -0.22  5.06622522023
0.72  -0.2  2.67697015521
0.72  -0.18  2.45219452144
0.72  -0.16  2.22677563711
0.72  -0.14  2.00236991977
0.72  -0.12  1.7812562555
0.72  -0.1  1.56673067959
0.72  -0.08  1.36378391253
0.72  -0.06  1.18020675735
0.72  -0.04  1.0280615505
0.72  -0.02  0.924317896904
0.72  6.17561557e-16  0.886954050432
0.72  0.02  0.924317896904
0.72  0.04  1.0280615505
0.72  0.06  1.18020675735
0.72  0.08  1.36378391253
0.72  0.1  1.56673067959
0.72  0.12  1.7812562555
0.72  0.14  2.00236991977
0.72  0.16  2.22677563711
