0.24  0.16  79.3220824224
0.24  0.18  84.3179758812
0.24  0.2  210.581947662
0.24  0.22  171.7747686
0.24  0.24  140.119186166
0.24  0.26  114.297265494
0.24  0.28  93.2339478756
0.24  0.3  76.0522922303
0.24  0.32  62.0369649176
0.24  0.34  50.604457845
0.24  0.36  41.2787949441
0.24  0.38  33.6717155879
0.24  0.4  27.4665099156
0.24  0.42  22.4048330704
0.24  0.44  18.2759493818
0.24  0.46  14.9079586872
0.24  0.48  12.1606395146
0.24  0.5  9.91961116249
0.24  0.52  8.09157162312
0.24  0.54  6.60041308671
0.24  0.56  5.38405330193
0.24  0.58  4.39185087012
0.24  0.6  3.58249686318
0.24  0.62  2.92229498548
0.24  0.64  2.38375867678
0.24  0.66  1.94446674869
0.24  0.68  1.58612991054
0.24  0.7  1.29382932098
0.24  0.72  1.05539546332
0.24  0.74  0.860901485175
0.24  0.76  0.70224990815
0.24  0.78  0.572835500912
0.24  0.8  0.467270279849
0.24  0.82  0.381159188079
0.24  0.84  0.310917113547
0.24  0.86  0.253619628018
0.24  0.88  0.206881232694
0.24  0.9  0.168756041381
0.24  0.92  0.137656766308
0.24  0.94  0.112288633672
0.24  0.96  0.0915954775781
0.24  0.98  0.0747157680917
0.26  -1  0.0674333761264
0.26  -0.98  0.0826678551095
0.26  -0.96  0.101344091917
0.26  -0.94  0.124239644936
0.26  -0.92  0.152307737746
0.26  -0.9  0.186716945218
0.26  -0.88  0.228899845454
0.26  -0.86  0.280612663129
0.26  -0.84  0.344008387389
0.26  -0.82  0.421726408475
0.26  -0.8  0.517002404956
0.26  -0.78  0.633803056576
0.26  -0.76  0.776991191288
0.26  -0.74  0.952528242133
0.26  -0.72  1.16772244297
0.26  -0.7  1.43153309636
0.26  -0.68  1.75494358123
0.26  -0.66  2.15141863025
0.26  -0.64  2.63746491458
0.26  -0.62  3.2333182756
0.26  -0.6  3.96378621515
0.26  -0.58  4.85928072034
0.26  -0.56  5.95708442319
0.26  -0.54  7.30290280956
0.26  -0.52  8.95276710168
0.26  -0.5  10.9753670379
0.26  -0.48  13.4549106715
0.26  -0.46  16.4946302528
0.26  -0.44  20.2210801558
0.26  -0.42  24.7894057884
0.26  -0.4  30.3898028496
0.26  -0.38  37.2554358552
0.26  -0.36  45.6721456085
0.26  -0.34  55.9903497732
0.26  -0.32  68.6396320111
0.26  -0.3  84.1466270831
0.26  -0.28  103.156946534
0.26  -0.26  126.462057804
0.26  -0.24  155.032235844
0.26  -0.22  190.056959124
0.26  -0.2  89.3919886362
0.26  -0.18  85.2128736463
0.26  -0.16  80.7965074893
0.26  -0.14  76.2527952098
0.26  -0.12  71.7139745882
0.26  -0.1  67.3379031688
0.26  -0.08  63.3095963722
0.26  -0.06  59.8378263397
0.26  -0.04  57.1419974435
0.26  -0.02  55.4250912477
0.26  6.17561557e-16  54.8346287081
0.26  0.02  55.4250912477
0.26  0.04  57.1419974435
0.26  0.06  59.8378263397
0.26  0.08  63.3095963722
0.26  0.1  67.3379031688
0.26  0.12  71.7139745882
0.26  0.14  76.2527952098
0.26  0.16  80.7965074893
0.26  0.18  85.2128736463
0.26  0.2  232.994431866
0.26  0.22  190.056959124
0.26  0.24  155.032235844
0.26  0.26  126.462057804
0.26  0.28  103.156946534
0.26  0.3  84.1466270831
0.26  0.32  68.6396320111
0.26  0.34  55.9903497732
0.26  0.36  45.6721456085
0.26  0.38  37.2554358552
0.26  0.4  30.3898028496
0.26  0.42  24.7894057884
0.26  0.44  20.2210801558
0.26  0.46  16.4946302528
0.26  0.48  13.4549106715
0.26  0.5  10.9753670379
0.26  0.52  8.95276710168
0.26  0.54  7.30290280956
0.26  0.56  5.95708442319
0.26  0.58  4.85928072034
0.26  0.6  3.96378621515
0.26  0.62  3.2333182756
0.26  0.64  2.63746491458
0.26  0.66  2.15141863025
0.26  0.68  1.75494358123
0.26  0.7  1.43153309636
0.26  0.72  1.16772244297
0.26  0.74  0.952528242133
0.26  0.76  0.776991191288
0.26  0.78  0.633803056576
0.26  0.8  0.517002404956
0.26  0.82  0.421726408475
0.26  0.84  0.344008387389
0.26  0.86  0.280612663129
0.26  0.88  0.228899845454
0.26  0.9  0.186716945218
0.26  0.92  0.152307737746
0.26  0.94  0.124239644936
0.26  0.96  0.101344091917
0.26  0.98  0.0826678551095
0.28  -1  0.0719708874552
0.28  -0.98  0.0882304763312
0.28  -0.96  0.108163414804
0.28  -0.94  0.132599582237
0.28  -0.92  0.162556343484
0.28  -0.9  0.199280905424
0.28  -0.88  0.244302242629
0.28  -0.86  0.299494754033
0.28  -0.84  0.367156300851
0.28  -0.82  0.45010387474
0.28  -0.8  0.551790879215
0.28  -0.78  0.676450907162
0.28  -0.76  0.829274000417
0.28  -0.74  1.01662272973
0.28  -0.72  1.24629709129
0.28  -0.7  1.52785924841
0.28  -0.68  1.8730316385
0.28  -0.66  2.29618501996
0.28  -0.64  2.81493677817
0.28  -0.62  3.4508844001
0.28  -0.6  4.23050465473
0.28  -0.58  5.1862559155
0.28  -0.56  6.35792951816
0.28  -0.54  7.79430641614
0.28  -0.52  9.55518810567
0.28  -0.5  11.7138863755
0.28  -0.48  14.3602755384
0.28  -0.46  17.6045342194
0.28  -0.44  21.5817324849
0.28  -0.42  26.4574552924
0.28  -0.4  32.434696382
0.28  -0.38  39.7623096314
0.28  -0.36  48.7453697301
0.28  -0.34  59.7578735277
0.28  -0.32  73.2583108576
0.28  -0.3  89.8087531045
0.28  -0.28  110.098254243
0.28  -0.26  134.971538611
0.28  -0.24  165.464169804
0.28  -0.22  202.845664876
0.28  -0.2  89.6793342589
0.28  -0.18  85.8863938987
0.28  -0.16  81.898722422
0.28  -0.14  77.8215228657
0.28  -0.12  73.7787214164
0.28  -0.1  69.9141518296
0.28  -0.08  66.3905410147
0.28  -0.06  63.3840372464
0.28  -0.04  61.0716333137
0.28  -0.02  59.6101584373
0.28  6.17561557e-16  59.1097081572
0.28  0.02  59.6101584373
0.28  0.04  61.0716333137
0.28  0.06  63.3840372464
0.28  0.08  66.3905410147
0.28  0.1  69.9141518296
0.28  0.12  73.7787214164
0.28  0.14  77.8215228657
0.28  0.16  81.898722422
0.28  0.18  85.8863938987
0.28  0.2  248.672348869
0.28  0.22  202.845664876
0.28  0.24  165.464169804
0.28  0.26  134.971538611
0.28  0.28  110.098254243
0.28  0.3  89.8087531045
0.28  0.32  73.2583108576
0.28  0.34  59.7578735277
0.28  0.36  48.7453697301
0.28  0.38  39.7623096314
0.28  0.4  32.434696382
0.28  0.42  26.4574552924
0.28  0.44  21.5817324849
0.28  0.46  17.6045342194
0.28  0.48  14.3602755384
0.28  0.5  11.7138863755
0.28  0.52  9.55518810567
0.28  0.54  7.79430641614
0.28  0.56  6.35792951816
0.28  0.58  5.1862559155
0.28  0.6  4.23050465473
0.28  0.62  3.4508844001
0.28  0.64  2.81493677817
0.28  0.66  2.29618501996
0.28  0.68  1.8730316385
0.28  0.7  1.52785924841
0.28  0.72  1.24629709129
0.28  0.74  1.01662272973
0.28  0.76  0.829274000417
0.28  0.78  0.676450907162
0.28  0.8  0.551790879215
0.28  0.82  0.45010387474
0.28  0.84  0.367156300851
0.28  0.86  0.299494754033
0.28  0.88  0.244302242629
0.28  0.9  0.199280905424
0.28  0.92  0.162556343484
0.28  0.94  0.132599582237
0.28  0.96  0.108163414804
0.28  0.98  0.0882304763312
0.3  -1  0.0800737369807
0.3  -0.98  0.0981639132882
0.3  -0.96  0.120341003622
0.3  -0.94  0.147528319397
0.3  -0.92  0.18085776559
0.3  -0.9  0.221716965991
0.3  -0.88  0.271807034924
0.3  -0.86  0.333213400716
0.3  -0.84  0.408492629515
0.3  -0.82  0.500778864264
0.3  -0.8  0.613914310256
0.3  -0.78  0.752609199853
0.3  -0.76  0.922637896269
0.3  -0.74  1.13107930091
0.3  -0.72  1.38661157333
0.3  -0.7  1.69987343392
0.3  -0.68  2.08390709189
0.3  -0.66  2.55470123891
0.3  -0.64  3.13185671544
0.3  -0.62  3.83940256366
0.3  -0.6  4.70679644223
0.3  -0.58  5.77015105379
0.3  -0.56  7.0737376456
0.3  -0.54  8.67182917955
0.3  -0.52  10.6309599093
0.3  -0.5  13.0326954387
0.3  -0.48  15.9770285888
0.3  -0.46  19.5865424562
0.3  -0.44  24.0115139842
0.3  -0.42  29.4361705291
0.3  -0.4  36.0863599016
0.3  -0.38  44.2389532178
0.3  -0.36  54.2333720315
0.3  -0.34  66.4857196649
0.3  -0.32  81.5061050749
0.3  -0.3  99.919880509
0.3  -0.28  122.493677152
0.3  -0.26  150.167322716
0.3  -0.24  184.092969826
0.3  -0.22  225.68306424
0.3  -0.2  136.626298641
0.3  -0.18  128.390845229
0.3  -0.16  119.546269809
0.3  -0.14  110.258562784
0.3  -0.12  100.73822866
0.3  -0.1  91.2586755878
0.3  -0.08  82.1827343514
0.3  -0.06  73.9947165825
0.3  -0.04  67.3199371728
0.3  -0.02  62.8800928016
0.3  6.17561557e-16  61.3121303323
0.3  0.02  62.8800928016
0.3  0.04  67.3199371728
0.3  0.06  73.9947165825
0.3  0.08  82.1827343514
0.3  0.1  91.2586755878
0.3  0.12  100.73822866
0.3  0.14  110.258562784
0.3  0.16  119.546269809
0.3  0.18  128.390845229
0.3  0.2  276.669150011
0.3  0.22  225.68306424
0.3  0.24  184.092969826
0.3  0.26  150.167322716
0.3  0.28  122.493677152
0.3  0.3  99.919880509
0.3  0.32  81.5061050749
0.3  0.34  66.4857196649
0.3  0.36  54.2333720315
0.3  0.38  44.2389532178
0.3  0.4  36.0863599016
0.3  0.42  29.4361705291
0.3  0.44  24.0115139842
0.3  0.46  19.5865424562
0.3  0.48  15.9770285888
0.3  0.5  13.0326954387
0.3  0.52  10.6309599093
0.3  0.54  8.67182917955
0.3  0.56  7.0737376456
0.3  0.58  5.77015105379
0.3  0.6  4.70679644223
0.3  0.62  3.83940256366
0.3  0.64  3.13185671544
0.3  0.66  2.55470123891
0.3  0.68  2.08390709189
0.3  0.7  1.69987343392
0.3  0.72  1.38661157333
0.3  0.74  1.13107930091
0.3  0.76  0.922637896269
0.3  0.78  0.752609199853
0.3  0.8  0.613914310256
0.3  0.82  0.500778864264
0.3  0.84  0.408492629515
0.3  0.86  0.333213400716
0.3  0.88  0.271807034924
0.3  0.9  0.221716965991
0.3  0.92  0.18085776559
0.3  0.94  0.147528319397
0.3  0.96  0.120341003622
0.3  0.98  0.0981639132881
0.32  -1  0.0683531515142
0.32  -0.98  0.083795425207
0.32  -0.96  0.102726401491
0.32  -0.94  0.125934244468
0.32  -0.92  0.154385179462
0.32  -0.9  0.189263720429
0.32  -0.88  0.232021985502
0.32  -0.86  0.284440153845
0.32  -0.84  0.348700580871
0.32  -0.82  0.427478657483
0.32  -0.8  0.524054196144
0.32  -0.78  0.642447981177
0.32  -0.76  0.787589168364
0.32  -0.74  0.96552050329
0.32  -0.72  1.18364990241
0.32  -0.7  1.45105887105
0.32  -0.68  1.77888059886
0.32  -0.66  2.18076347428
0.32  -0.64  2.6734393156
0.32  -0.62  3.2774199763
0.32  -0.6  4.01785132671
0.32  -0.58  4.92556016631
0.32  -0.56  6.03833765343
0.32  -0.54  7.40251268601
0.32  -0.52  9.07488073897
0.32  -0.5  11.1250684625
0.32  -0.48  13.6384324881
0.32  -0.46  16.7196131294
0.32  -0.44  20.4968909325
0.32  -0.42  25.1275274521
0.32  -0.4  30.8043126118
0.32  -0.38  37.7635912366
0.32  -0.36  46.2951029311
0.32  -0.34  56.7540449734
0.32  -0.32  69.5758604455
0.32  -0.3  85.2943672825
0.32  -0.28  104.563983019
0.32  -0.26  128.186970524
0.32  -0.24  157.146839072
0.32  -0.22  192.649291339
0.32  -0.2  116.62797871
0.32  -0.18  109.597968421
0.32  -0.16  102.047994777
0.32  -0.14  94.1197517674
0.32  -0.12  85.9929318468
0.32  -0.1  77.9009237566
0.32  -0.08  70.1534498675
0.32  -0.06  63.1639319523
0.32  -0.04  57.4661560583
0.32  -0.02  53.6761823859
0.32  6.17561557e-16  52.3377263544
0.32  0.02  53.6761823859
0.32  0.04  57.4661560583
0.32  0.06  63.1639319523
0.32  0.08  70.1534498675
0.32  0.1  77.9009237566
0.32  0.12  85.9929318468
0.32  0.14  94.1197517674
0.32  0.16  102.047994777
0.32  0.18  109.597968421
0.32  0.2  236.172421109
0.32  0.22  192.649291339
0.32  0.24  157.146839072
0.32  0.26  128.186970524
0.32  0.28  104.563983019
0.32  0.3  85.2943672825
0.32  0.32  69.5758604455
0.32  0.34  56.7540449734
0.32  0.36  46.2951029311
0.32  0.38  37.7635912366
0.32  0.4  30.8043126118
0.32  0.42  25.1275274521
0.32  0.44  20.4968909325
0.32  0.46  16.7196131294
0.32  0.48  13.6384324881
0.32  0.5  11.1250684625
0.32  0.52  9.07488073897
0.32  0.54  7.402512686
0.32  0.56  6.03833765343
0.32  0.58  4.92556016631
0.32  0.6  4.01785132671
0.32  0.62  3.2774199763
0.32  0.64  2.6734393156
0.32  0.66  2.18076347428
0.32  0.68  1.77888059886
0.32  0.7  1.45105887105
0.32  0.72  1.18364990241
0.32  0.74  0.96552050329
0.32  0.76  0.787589168364
0.32  0.78  0.642447981177
0.32  0.8  0.524054196144
0.32  0.82  0.427478657483
0.32  0.84  0.348700580871
0.32  0.86  0.284440153845
0.32  0.88  0.232021985502
0.32  0.9  0.189263720429
0.32  0.92  0.154385179462
0.32  0.94  0.125934244468
0.32  0.96  0.102726401491
0.32  0.98  0.083795425207
0.34  -1  0.0583481363316
0.34  -0.98  0.0715300872839
0.34  -0.96  0.0876900910384
0.34  -0.94  0.107500946222
0.34  -0.92  0.131787449433
0.34  -0.9  0.161560734474
0.34  -0.88  0.19806036945
0.34  -0.86  0.242805964422
0.34  -0.84  0.297660438192
0.34  -0.82  0.364907578262
0.34  -0.8  0.447347123057
0.34  -0.78  0.548411325027
0.34  -0.76  0.672307847567
0.34  -0.74  0.824194945059
0.34  -0.72  1.01039621941
0.34  -0.7  1.23866389416
0.34  -0.68  1.51850156724
0.34  -0.66  1.86155987962
0.34  -0.64  2.28212157311
0.34  -0.62  2.79769613188
0.34  -0.6  3.42974876472
0.34  -0.58  4.20459407835
0.34  -0.56  5.15449164834
0.34  -0.54  6.31898910044
0.34  -0.52  7.74656861929
0.34  -0.5  9.49666543486
0.34  -0.48  11.6421423231
0.34  -0.46  14.2723231435
0.34  -0.44  17.4967117098
0.34  -0.42  21.4495508249
0.34  -0.4  26.2954112876
0.34  -0.38  32.2360435624
0.34  -0.36  39.5187773711
0.34  -0.34  48.446818912
0.34  -0.32  59.3918744158
0.34  -0.3  72.8096256027
0.34  -0.28  89.2587013383
0.34  -0.26  109.423935347
0.34  -0.24  134.144878285
0.34  -0.22  164.450751226
0.34  -0.2  99.5568609655
0.34  -0.18  93.5558501901
0.34  -0.16  87.1109843471
0.34  -0.14  80.3432173346
0.34  -0.12  73.4059395916
0.34  -0.1  66.4983781876
0.34  -0.08  59.8849206849
0.34  -0.06  53.9184753174
0.34  -0.04  49.0546965847
0.34  -0.02  45.819470474
0.34  6.17561557e-16  44.6769274709
0.34  0.02  45.819470474
0.34  0.04  49.0546965847
0.34  0.06  53.9184753174
0.34  0.08  59.8849206849
0.34  0.1  66.4983781876
0.34  0.12  73.4059395916
0.34  0.14  80.3432173346
0.34  0.16  87.1109843471
0.34  0.18  93.5558501901
0.34  0.2  201.603295815
0.34  0.22  164.450751226
0.34  0.24  134.144878285
0.34  0.26  109.423935347
0.34  0.28  89.2587013383
0.34  0.3  72.8096256027
0.34  0.32  59.3918744158
0.34  0.34  48.446818912
0.34  0.36  39.5187773711
0.34  0.38  32.2360435624
0.34  0.4  26.2954112876
0.34  0.42  21.4495508249
0.34  0.44  17.4967117098
0.34  0.46  14.2723231435
0.34  0.48  11.6421423231
0.34  0.5  9.49666543486
0.34  0.52  7.74656861929
0.34  0.54  6.31898910044
0.34  0.56  5.15449164834
0.34  0.58  4.20459407835
0.34  0.6  3.42974876472
0.34  0.62  2.79769613188
0.34  0.64  2.28212157311
0.34  0.66  1.86155987962
0.34  0.68  1.51850156724
0.34  0.7  1.23866389416
0.34  0.72  1.01039621941
0.34  0.74  0.824194945059
0.34  0.76  0.672307847567
0.34  0.78  0.548411325027
0.34  0.8  0.447347123057
0.34  0.82  0.364907578262
0.34  0.84  0.297660438192
0.34  0.86  0.242805964422
0.34  0.88  0.19806036945
0.34  0.9  0.161560734474
0.34  0.92  0.131787449433
0.34  0.94  0.107500946222
0.34  0.96  0.0876900910384
0.34  0.98  0.0715300872839
0.36  -1  0.0498075792841
0.36  -0.98  0.0610600563718
0.36  -0.96  0.0748546815105
0.36  -0.94  0.0917657741736
0.36  -0.92  0.112497403499
0.36  -0.9  0.1379127012
0.36  -0.88  0.16906979682
0.36  -0.86  0.207265871439
0.36  -0.84  0.254091163954
0.36  -0.82  0.311495178396
0.36  -0.8  0.381867848744
0.36  -0.78  0.468139040403
0.36  -0.76  0.573900530957
0.36  -0.74  0.703555548687
0.36  -0.72  0.86250209468
0.36  -0.7  1.05735768088
0.36  -0.68  1.29623484071
0.36  -0.66  1.58907888282
0.36  -0.64  1.94808194975
0.36  -0.62  2.38819062034
0.36  -0.6  2.92772818917
0.36  -0.58  3.58915753067
0.36  -0.56  4.40001630876
0.36  -0.54  5.39406346806
0.36  -0.52  6.61268473928
0.36  -0.5  8.10661567481
0.36  -0.48  9.93805395088
0.36  -0.46  12.1832488787
0.36  -0.44  14.9356759357
0.36  -0.42  18.3099284825
0.36  -0.4  22.4464886946
0.36  -0.38  27.5175763356
0.36  -0.36  33.734318881
0.36  -0.34  41.3555415088
0.36  -0.32  50.6985429147
0.36  -0.3  62.1523055895
0.36  -0.28  76.1936905481
0.36  -0.26  93.4072907559
0.36  -0.24  114.509769819
0.36  -0.22  140.37969925
0.36  -0.2  84.9844837826
0.36  -0.18  79.8618553875
0.36  -0.16  74.3603400584
0.36  -0.14  68.5831873806
0.36  -0.12  62.6613356656
0.36  -0.1  56.7648506376
0.36  -0.08  51.1194208156
0.36  -0.06  46.0262984064
0.36  -0.04  41.8744426646
0.36  -0.02  39.1127643807
0.36  6.17561557e-16  38.1374581449
0.36  0.02  39.1127643807
0.36  0.04  41.8744426646
0.36  0.06  46.0262984064
0.36  0.08  51.1194208156
0.36  0.1  56.7648506376
0.36  0.12  62.6613356656
0.36  0.14  68.5831873806
0.36  0.16  74.3603400584
0.36  0.18  79.8618553875
0.36  0.2  172.094136532
0.36  0.22  140.37969925
0.36  0.24  114.509769819
0.36  0.26  93.4072907559
0.36  0.28  76.1936905481
0.36  0.3  62.1523055895
0.36  0.32  50.6985429147
0.36  0.34  41.3555415088
0.36  0.36  33.734318881
0.36  0.38  27.5175763356
0.36  0.4  22.4464886946
0.36  0.42  18.3099284825
0.36  0.44  14.9356759357
0.36  0.46  12.1832488787
0.36  0.48  9.93805395088
0.36  0.5  8.10661567481
0.36  0.52  6.61268473928
0.36  0.54  5.39406346806
0.36  0.56  4.40001630876
0.36  0.58  3.58915753067
0.36  0.6  2.92772818917
0.36  0.62  2.38819062034
0.36  0.64  1.94808194975
0.36  0.66  1.58907888282
0.36  0.68  1.29623484071
0.36  0.7  1.05735768088
0.36  0.72  0.86250209468
0.36  0.74  0.703555548687
0.36  0.76  0.573900530957
0.36  0.78  0.468139040403
0.36  0.8  0.381867848744
0.36  0.82  0.311495178396
0.36  0.84  0.254091163954
0.36  0.86  0.207265871439
0.36  0.88  0.16906979682
0.36  0.9  0.1379127012
0.36  0.92  0.112497403499
0.36  0.94  0.0917657741736
0.36  0.96  0.0748546815105
0.36  0.98  0.0610600563718
0.38  -1  0.0425171241126
0.38  -0.98  0.0521225490656
0.38  -0.96  0.0638980217455
0.38  -0.94  0.0783337971028
0.38  -0.92  0.0960308879824
0.38  -0.9  0.117726087433
0.38  -0.88  0.144322644031
0.38  -0.86  0.176927867343
0.38  -0.84  0.216899229174
0.38  -0.82  0.26590087996
0.38  -0.8  0.325972933297
0.38  -0.78  0.399616403143
0.38  -0.76  0.489897329958
0.38  -0.74  0.600574430911
0.38  -0.72  0.736255588686
0.38  -0.7  0.902589694085
0.38  -0.68  1.10650182951
0.38  -0.66  1.35648158486
0.38  -0.64  1.66293650945
0.38  -0.62  2.03862541543
0.38  -0.6  2.49918957267
0.38  -0.58  3.06380391066
0.38  -0.56  3.7559753392
0.38  -0.54  4.60452142503
0.38  -0.52  5.64477016989
0.38  -0.5  6.92003084134
0.38  -0.48  8.48339709217
0.38  -0.46  10.3999574385
0.38  -0.44  12.7495051273
0.38  -0.42  15.6298602135
0.38  -0.4  19.1609421585
0.38  -0.38  23.4897625051
0.38  -0.36  28.7965454923
0.38  -0.34  35.3022314344
0.38  -0.32  43.2776752537
0.38  -0.3  53.0549231384
0.38  -0.28  65.0410368099
0.38  -0.26  79.7350409549
0.38  -0.24  97.7486994046
0.38  -0.22  119.831985045
0.38  -0.2  72.545100496
0.38  -0.18  68.1722835394
0.38  -0.16  63.4760382407
0.38  -0.14  58.5445012949
0.38  -0.12  53.489445258
0.38  -0.1  48.4560429252
0.38  -0.08  43.636948244
0.38  -0.06  39.2893184112
0.38  -0.04  35.7451797799
0.38  -0.02  33.3877349886
0.38  6.17561557e-16  32.5551866722
0.38  0.02  33.3877349886
0.38  0.04  35.7451797799
0.38  0.06  39.2893184112
0.38  0.08  43.636948244
0.38  0.1  48.4560429252
0.38  0.12  53.489445258
0.38  0.14  58.5445012949
0.38  0.16  63.4760382407
0.38  0.18  68.1722835394
0.38  0.2  146.904303866
0.38  0.22  119.831985045
0.38  0.24  97.7486994046
0.38  0.26  79.7350409549
0.38  0.28  65.0410368098
0.38  0.3  53.0549231384
0.38  0.32  43.2776752537
0.38  0.34  35.3022314344
0.38  0.36  28.7965454923
0.38  0.38  23.4897625051
0.38  0.4  19.1609421585
0.38  0.42  15.6298602135
0.38  0.44  12.7495051273
0.38  0.46  10.3999574385
0.38  0.48  8.48339709217
0.38  0.5  6.92003084134
0.38  0.52  5.64477016989
0.38  0.54  4.60452142503
0.38  0.56  3.7559753392
0.38  0.58  3.06380391066
0.38  0.6  2.49918957267
0.38  0.62  2.03862541543
0.38  0.64  1.66293650945
0.38  0.66  1.35648158486
0.38  0.68  1.10650182951
0.38  0.7  0.902589694085
0.38  0.72  0.736255588686
0.38  0.74  0.600574430911
0.38  0.76  0.489897329958
0.38  0.78  0.399616403143
0.38  0.8  0.325972933297
0.38  0.82  0.26590087996
0.38  0.84  0.216899229174
0.38  0.86  0.176927867343
0.38  0.88  0.144322644031
0.38  0.9  0.117726087433
0.38  0.92  0.0960308879824
0.38  0.94  0.0783337971028
0.38  0.96  0.0638980217455
0.38  0.98  0.0521225490656
0.4  -1  0.0362937903987
0.4  -0.98  0.0444932461994
0.4  -0.96  0.0545451146221
0.4  -0.94  0.0668678908209
0.4  -0.92  0.0819746159454
0.4  -0.9  0.100494236874
0.4  -0.88  0.123197791516
0.4  -0.86  0.151030509873
0.4  -0.84  0.185151167337
0.4  -0.82  0.226980328644
0.4  -0.8  0.278259491056
0.4  -0.78  0.341123589101
0.4  -0.76  0.418189879524
0.4  -0.74  0.512666907022
0.4  -0.72  0.628488087408
0.4  -0.7  0.770475469751
0.4  -0.68  0.944540495488
0.4  -0.66  1.15793011282
0.4  -0.64  1.41952849305
0.4  -0.62  1.74022691029
0.4  -0.6  2.13337718414
0.4  -0.58  2.61534756353
0.4  -0.56  3.20620419534
0.4  -0.54  3.93054654976
0.4  -0.52  4.81853158394
0.4  -0.5  5.90712928379
0.4  -0.48  7.24166185644
0.4  -0.46  8.87769065542
0.4  -0.44  10.8833293981
0.4  -0.42  13.3420799828
0.4  -0.4  16.356308971
0.4  -0.38  20.0515094722
0.4  -0.36  24.5815258703
0.4  -0.34  30.1349589142
0.4  -0.32  36.9430178401
0.4  -0.3  45.2891464367
0.4  -0.28  55.5208238224
0.4  -0.26  68.0640312404
0.4  -0.24  83.4409871782
0.4  -0.22  102.291889187
0.4  -0.2  61.9264996588
0.4  -0.18  58.1937424372
0.4  -0.16  54.1848978577
0.4  -0.14  49.9752018355
0.4  -0.12  45.6600665086
0.4  -0.1  41.363415381
0.4  -0.08  37.2497031787
0.4  -0.06  33.538446381
0.4  -0.04  30.5130718451
0.4  -0.02  28.5006919177
0.4  6.17561557e-16  27.7900057008
0.4  0.02  28.5006919177
0.4  0.04  30.5130718451
0.4  0.06  33.538446381
0.4  0.08  37.2497031787
0.4  0.1  41.363415381
0.4  0.12  45.6600665086
0.4  0.14  49.9752018355
0.4  0.16  54.1848978577
0.4  0.18  58.1937424372
0.4  0.2  125.401567591
0.4  0.22  102.291889187
0.4  0.24  83.4409871782
0.4  0.26  68.0640312404
0.4  0.28  55.5208238224
0.4  0.3  45.2891464367
0.4  0.32  36.9430178401
0.4  0.34  30.1349589142
0.4  0.36  24.5815258703
0.4  0.38  20.0515094722
0.4  0.4  16.356308971
0.4  0.42  13.3420799828
0.4  0.44  10.8833293981
0.4  0.46  8.87769065542
0.4  0.48  7.24166185644
0.4  0.5  5.90712928379
0.4  0.52  4.81853158393
0.4  0.54  3.93054654976
0.4  0.56  3.20620419534
0.4  0.58  2.61534756353
0.4  0.6  2.13337718414
0.4  0.62  1.74022691029
0.4  0.64  1.41952849305
0.4  0.66  1.15793011282
0.4  0.68  0.944540495488
0.4  0.7  0.770475469751
0.4  0.72  0.628488087408
0.4  0.74  0.512666907022
0.4  0.76  0.418189879524
0.4  0.78  0.341123589101
0.4  0.8  0.278259491056
0.4  0.82  0.226980328644
0.4  0.84  0.185151167337
0.4  0.86  0.151030509873
0.4  0.88  0.123197791516
0.4  0.9  0.100494236874
0.4  0.92  0.0819746159454
0.4  0.94  0.0668678908209
0.4  0.96  0.0545451146221
0.4  0.98  0.0444932461994
0.42  -1  0.0309813810081
0.42  -0.98  0.0379806627429
0.42  -0.96  0.0465612150089
0.42  -0.94  0.0570802768181
0.42  -0.92  0.0699757942531
0.42  -0.9  0.0857846537246
0.42  -0.88  0.105165034469
0.42  -0.86  0.128923810901
0.42  -0.84  0.158050145669
0.42  -0.82  0.193756672032
0.42  -0.8  0.23752998011
0.42  -0.78  0.291192508931
0.42  -0.76  0.356978421074
0.42  -0.74  0.437626618831
0.42  -0.72  0.536494774483
0.42  -0.7  0.65769912218
0.42  -0.68  0.806285831457
0.42  -0.66  0.988441097281
0.42  -0.64  1.21174869342
0.42  -0.62  1.48550571203
0.42  -0.6  1.82110963473
0.42  -0.58  2.2325328505
0.42  -0.56  2.73690437606
0.42  -0.54  3.35522299795
0.42  -0.52  4.11323152699
0.42  -0.5  5.04248856334
0.42  -0.48  6.18168239366
0.42  -0.46  7.57824172253
0.42  -0.44  9.2903102987
0.42  -0.42  11.3891676468
0.42  -0.4  13.9621966885
0.42  -0.38  17.116521805
0.42  -0.36  20.9834688079
0.42  -0.34  25.7240325006
0.42  -0.32  31.5355794675
0.42  -0.3  38.6600651482
0.42  -0.28  47.3941073069
0.42  -0.26  58.1013352875
0.42  -0.24  71.2275292018
0.42  -0.22  87.3191793456
0.42  -0.2  52.8621689649
0.42  -0.18  49.6757843954
0.42  -0.16  46.2537240387
0.42  -0.14  42.660211348
0.42  -0.12  38.9766927571
0.42  -0.1  35.3089527889
0.42  -0.08  31.7973745355
0.42  -0.06  28.6293433212
0.42  -0.04  26.0468001324
0.42  -0.02  24.328977095
0.42  6.17561557e-16  23.7223157289
0.42  0.02  24.328977095
0.42  0.04  26.0468001324
0.42  0.06  28.6293433212
0.42  0.08  31.7973745355
0.42  0.1  35.3089527889
0.42  0.12  38.9766927571
0.42  0.14  42.660211348
0.42  0.16  46.2537240387
0.42  0.18  49.6757843954
0.42  0.2  107.046238541
0.42  0.22  87.3191793456
0.42  0.24  71.2275292018
0.42  0.26  58.1013352875
0.42  0.28  47.3941073069
0.42  0.3  38.6600651482
0.42  0.32  31.5355794675
0.42  0.34  25.7240325006
0.42  0.36  20.9834688079
0.42  0.38  17.116521805
0.42  0.4  13.9621966885
0.42  0.42  11.3891676468
0.42  0.44  9.2903102987
0.42  0.46  7.57824172253
0.42  0.48  6.18168239366
0.42  0.5  5.04248856334
0.42  0.52  4.11323152699
0.42  0.54  3.35522299795
0.42  0.56  2.73690437606
0.42  0.58  2.2325328505
0.42  0.6  1.82110963473
0.42  0.62  1.48550571203
0.42  0.64  1.21174869342
0.42  0.66  0.988441097281
0.42  0.68  0.806285831457
0.42  0.7  0.65769912218
0.42  0.72  0.536494774483
0.42  0.74  0.437626618831
0.42  0.76  0.356978421074
0.42  0.78  0.291192508931
0.42  0.8  0.23752998011
0.42  0.82  0.193756672032
0.42  0.84  0.158050145669
0.42  0.86  0.128923810901
0.42  0.88  0.105165034469
0.42  0.9  0.0857846537246
0.42  0.92  0.0699757942531
0.42  0.94  0.0570802768181
0.42  0.96  0.0465612150089
0.42  0.98  0.0379806627429
0.44  -1  0.0264465617569
0.44  -0.98  0.0324213417903
0.44  -0.96  0.0397459379841
0.44  -0.94  0.048725299417
0.44  -0.92  0.0597332689501
0.44  -0.9  0.0732281476391
0.44  -0.88  0.0897717754427
0.44  -0.86  0.110052922626
0.44  -0.84  0.134915965722
0.44  -0.82  0.165396041945
0.44  -0.8  0.20276214564
0.44  -0.78  0.248569961054
0.44  -0.76  0.304726631016
0.44  -0.74  0.373570158101
0.44  -0.72  0.457966744023
0.44  -0.7  0.561430119841
0.44  -0.68  0.688267835116
0.44  -0.66  0.843760596582
0.44  -0.64  1.0343821228
0.44  -0.62  1.26806866818
0.44  -0.6  1.55454943756
0.44  -0.58  1.90575164773
0.44  -0.56  2.33629710003
0.44  -0.54  2.86411093812
0.44  -0.52  3.51116793569
0.44  -0.5  4.30440738468
0.44  -0.48  5.27685467419
0.44  -0.46  6.46899625524
0.44  -0.44  7.93046523624
0.44  -0.42  9.72210778638
0.44  -0.4  11.9185163788
0.44  -0.38  14.6111353416
0.44  -0.36  17.9120680113
0.44  -0.34  21.9587439949
0.44  -0.32  26.9196408549
0.44  -0.3  33.0012984315
0.44  -0.28  40.4569178332
0.44  -0.26  49.5969031025
0.44  -0.24  60.8017844438
0.44  -0.22  74.5380610542
0.44  -0.2  45.1246061552
0.44  -0.18  42.4046203587
0.44  -0.16  39.4834552067
0.44  -0.14  36.4159336113
0.44  -0.12  33.2715804958
0.44  -0.1  30.140696448
0.44  -0.08  27.1431163492
0.44  -0.06  24.4387974831
0.44  -0.04  22.2342673521
0.44  -0.02  20.7678862042
0.44  6.17561557e-16  20.2500233213
0.44  0.02  20.7678862042
0.44  0.04  22.2342673521
0.44  0.06  24.4387974831
0.44  0.08  27.1431163492
0.44  0.1  30.140696448
0.44  0.12  33.2715804958
0.44  0.14  36.4159336113
0.44  0.16  39.4834552067
0.44  0.18  42.4046203587
0.44  0.2  91.3776231495
0.44  0.22  74.5380610542
0.44  0.24  60.8017844438
0.44  0.26  49.5969031025
0.44  0.28  40.4569178332
0.44  0.3  33.0012984315
0.44  0.32  26.9196408549
0.44  0.34  21.9587439949
0.44  0.36  17.9120680113
0.44  0.38  14.6111353416
0.44  0.4  11.9185163788
0.44  0.42  9.72210778638
0.44  0.44  7.93046523624
0.44  0.46  6.46899625524
0.44  0.48  5.27685467419
0.44  0.5  4.30440738468
0.44  0.52  3.51116793569
0.44  0.54  2.86411093812
0.44  0.56  2.33629710003
0.44  0.58  1.90575164773
0.44  0.6  1.55454943756
0.44  0.62  1.26806866818
0.44  0.64  1.0343821228
0.44  0.66  0.843760596582
0.44  0.68  0.688267835116
0.44  0.7  0.561430119841
0.44  0.72  0.457966744023
0.44  0.74  0.373570158101
0.44  0.76  0.304726631016
0.44  0.78  0.248569961054
0.44  0.8  0.20276214564
0.44  0.82  0.165396041945
0.44  0.84  0.134915965722
0.44  0.86  0.110052922626
0.44  0.88  0.0897717754427
0.44  0.9  0.0732281476391
0.44  0.92  0.0597332689501
0.44  0.94  0.048725299417
0.44  0.96  0.0397459379841
0.44  0.98  0.0324213417903
0.46  -1  0.0225755149062
0.46  -0.98  0.0276757520162
0.46  -0.96  0.0339282294487
0.46  -0.94  0.0415932601526
0.46  -0.92  0.0509899667099
0.46  -0.9  0.0625095675488
0.46  -0.88  0.0766316647619
0.46  -0.86  0.0939442116536
0.46  -0.84  0.115167991334
0.46  -0.82  0.141186625493
0.46  -0.8  0.173083362722
0.46  -0.78  0.212186178021
0.46  -0.76  0.260123061139
0.46  -0.74  0.318889795589
0.46  -0.72  0.390933050249
0.46  -0.7  0.479252242909
0.46  -0.68  0.587524416744
0.46  -0.66  0.720257328739
0.46  -0.64  0.882977123704
0.46  -0.62  1.0824584074
0.46  -0.6  1.32700629755
0.46  -0.58  1.62680219555
0.46  -0.56  1.99432767449
0.46  -0.54  2.44488413166
0.46  -0.52  2.99722984026
0.46  -0.5  3.6743609233
0.46  -0.48  4.50446876422
0.46  -0.46  5.52211371484
0.46  -0.44  6.76966396612
0.46  -0.42  8.29905948713
0.46  -0.4  10.1739744714
0.46  -0.38  12.4724683206
0.46  -0.36  15.2902355363
0.46  -0.34  18.7445898236
0.46  -0.32  22.9793482788
0.46  -0.3  28.170819009
0.46  -0.28  34.5351414674
0.46  -0.26  42.3372851103
0.46  -0.24  51.902081021
0.46  -0.22  63.6277457869
0.46  -0.2  38.5196090235
0.46  -0.18  36.1977540898
0.46  -0.16  33.7041669068
0.46  -0.14  31.085645825
0.46  -0.12  28.4015392374
0.46  -0.1  25.7289302178
0.46  -0.08  23.1701131275
0.46  -0.06  20.861631918
0.46  -0.04  18.9797841644
0.46  -0.02  17.7280407518
0.46  6.17561557e-16  17.2859787046
0.46  0.02  17.7280407518
0.46  0.04  18.9797841644
0.46  0.06  20.861631918
0.46  0.08  23.1701131275
0.46  0.1  25.7289302178
0.46  0.12  28.4015392374
0.46  0.14  31.085645825
0.46  0.16  33.7041669068
0.46  0.18  36.1977540898
0.46  0.2  78.0024606776
0.46  0.22  63.6277457869
0.46  0.24  51.902081021
0.46  0.26  42.3372851103
0.46  0.28  34.5351414674
0.46  0.3  28.170819009
0.46  0.32  22.9793482788
0.46  0.34  18.7445898236
0.46  0.36  15.2902355363
0.46  0.38  12.4724683206
0.46  0.4  10.1739744714
0.46  0.42  8.29905948713
0.46  0.44  6.76966396612
0.46  0.46  5.52211371484
0.46  0.48  4.50446876422
0.46  0.5  3.6743609233
0.46  0.52  2.99722984026
0.46  0.54  2.44488413166
0.46  0.56  1.99432767449
0.46  0.58  1.62680219555
0.46  0.6  1.32700629755
0.46  0.62  1.0824584074
0.46  0.64  0.882977123704
0.46  0.66  0.720257328739
0.46  0.68  0.587524416744
0.46  0.7  0.479252242909
0.46  0.72  0.390933050249
0.46  0.74  0.318889795589
0.46  0.76  0.260123061139
0.46  0.78  0.212186178021
0.46  0.8  0.173083362722
0.46  0.82  0.141186625493
0.46  0.84  0.115167991334
0.46  0.86  0.0939442116536
0.46  0.88  0.0766316647619
0.46  0.9  0.0625095675488
0.46  0.92  0.0509899667099
0.46  0.94  0.0415932601526
0.46  0.96  0.0339282294487
0.46  0.98  0.0276757520162
0.48  -1  0.0192710824932
0.48  -0.98  0.0236247856309
0.48  -0.96  0.0289620729039
0.48  -0.94  0.0355051546285
0.48  -0.92  0.0435264426471
0.48  -0.9  0.0533598918055
0.48  -0.88  0.0654149036846
0.48  -0.86  0.0801933714495
0.48  -0.84  0.0983105754531
0.48  -0.82  0.120520799553
0.48  -0.8  0.147748734639
0.48  -0.78  0.181127976817
0.48  -0.76  0.22204822306
0.48  -0.74  0.27221312925
0.48  -0.72  0.333711239455
0.48  -0.7  0.409102939469
0.48  -0.68  0.501527054815
0.48  -0.66  0.614831531247
0.48  -0.64  0.753733638467
0.48  -0.62  0.924016366898
0.48  -0.6  1.13276919421
0.48  -0.58  1.38868324558
0.48  -0.56  1.70241313624
0.48  -0.54  2.08702056114
0.48  -0.52  2.55851809993
0.48  -0.5  3.13653587778
0.48  -0.48  3.84513883754
0.48  -0.46  4.71382864921
0.48  -0.44  5.77877196974
0.48  -0.42  7.08430619001
0.48  -0.4  8.68478535865
0.48  -0.38  10.6468431351
0.48  -0.36  13.0521669865
0.48  -0.34  16.0008991287
0.48  -0.32  19.6158058038
0.48  -0.3  24.0473884773
0.48  -0.28  29.4801497507
0.48  -0.26  36.1402748637
0.48  -0.24  44.3050485927
0.48  -0.22  54.3143996056
0.48  -0.2  32.8814012075
0.48  -0.18  30.8994017648
0.48  -0.16  28.7708069351
0.48  -0.14  26.5355650818
0.48  -0.12  24.244337631
0.48  -0.1  21.9629248214
0.48  -0.08  19.7786479428
0.48  -0.06  17.80806468
0.48  -0.04  16.2016675081
0.48  -0.02  15.1331447894
0.48  6.17561557e-16  14.7557884273
0.48  0.02  15.1331447894
0.48  0.04  16.2016675081
0.48  0.06  17.80806468
0.48  0.08  19.7786479428
0.48  0.1  21.9629248214
0.48  0.12  24.244337631
0.48  0.14  26.5355650818
0.48  0.16  28.7708069351
0.48  0.18  30.8994017648
0.48  0.2  66.5850529052
0.48  0.22  54.3143996056
0.48  0.24  44.3050485927
0.48  0.26  36.1402748637
0.48  0.28  29.4801497507
0.48  0.3  24.0473884773
0.48  0.32  19.6158058038
0.48  0.34  16.0008991287
0.48  0.36  13.0521669865
0.48  0.38  10.6468431351
0.48  0.4  8.68478535865
0.48  0.42  7.08430619001
0.48  0.44  5.77877196974
0.48  0.46  4.71382864921
0.48  0.48  3.84513883754
0.48  0.5  3.13653587778
0.48  0.52  2.55851809993
0.48  0.54  2.08702056114
0.48  0.56  1.70241313624
0.48  0.58  1.38868324558
0.48  0.6  1.13276919421
0.48  0.62  0.924016366898
0.48  0.64  0.753733638467
0.48  0.66  0.614831531247
0.48  0.68  0.501527054815
0.48  0.7  0.409102939469
0.48  0.72  0.333711239455
0.48  0.74  0.27221312925
0.48  0.76  0.22204822306
0.48  0.78  0.181127976817
0.48  0.8  0.147748734639
0.48  0.82  0.120520799553
0.48  0.84  0.0983105754531
0.48  0.86  0.0801933714495
0.48  0.88  0.0654149036846
0.48  0.9  0.0533598918055
0.48  0.92  0.0435264426471
0.48  0.94  0.0355051546285
0.48  0.96  0.0289620729039
0.48  0.98  0.0236247856309
0.5  -1  0.0164503278
0.5  -0.98  0.0201667689383
0.5  -0.96  0.0247228246365
0.5  -0.94  0.0303081797524
0.5  -0.92  0.0371553725518
0.5  -0.9  0.0455494761065
0.5  -0.88  0.0558399669035
0.5  -0.86  0.0684552747981
0.5  -0.84  0.0839206200781
0.5  -0.82  0.102879880259
0.5  -0.8  0.126122397001
0.5  -0.78  0.154615839221
0.5  -0.76  0.189546490605
0.5  -0.74  0.232368638824
0.5  -0.72  0.28486512273
0.5  -0.7  0.349221558289
0.5  -0.68  0.428117333584
0.5  -0.66  0.524837161293
0.5  -0.64  0.643407833007
0.5  -0.62  0.788765868932
0.5  -0.6  0.96696304284
0.5  -0.58  1.18541833901
0.5  -0.56  1.45322683103
0.5  -0.54  1.78153834213
0.5  -0.52  2.18402165218
0.5  -0.5  2.6774335777
0.5  -0.48  3.28231661798
0.5  -0.46  4.02385421264
0.5  -0.44  4.93291921806
0.5  -0.42  6.04735925458
0.5  -0.4  7.41357243801
0.5  -0.38  9.08843909877
0.5  -0.36  11.141689913
0.5  -0.34  13.6588090396
0.5  -0.32  16.7445931305
0.5  -0.3  20.5275143897
0.5  -0.28  25.1650693292
0.5  -0.26  30.8503359113
0.5  -0.24  37.8200120725
0.5  -0.22  46.3642703042
0.5  -0.2  28.06847143
0.5  -0.18  26.3765820126
0.5  -0.16  24.5595547276
0.5  -0.14  22.6514906003
0.5  -0.12  20.6956356221
0.5  -0.1  18.7481586924
0.5  -0.08  16.8835996739
0.5  -0.06  15.2014554228
0.5  -0.04  13.8301904685
0.5  -0.02  12.91806999
0.5  6.17561557e-16  12.5959481862
0.5  0.02  12.91806999
0.5  0.04  13.8301904685
0.5  0.06  15.2014554228
0.5  0.08  16.8835996739
0.5  0.1  18.7481586924
0.5  0.12  20.6956356221
0.5  0.14  22.6514906003
0.5  0.16  24.5595547276
0.5  0.18  26.3765820126
0.5  0.2  56.8388385684
0.5  0.22  46.3642703042
0.5  0.24  37.8200120725
0.5  0.26  30.8503359113
0.5  0.28  25.1650693292
0.5  0.3  20.5275143897
0.5  0.32  16.7445931305
0.5  0.34  13.6588090396
0.5  0.36  11.141689913
0.5  0.38  9.08843909877
0.5  0.4  7.41357243801
0.5  0.42  6.04735925458
0.5  0.44  4.93291921806
0.5  0.46  4.02385421264
0.5  0.48  3.28231661798
0.5  0.5  2.6774335777
0.5  0.52  2.18402165218
0.5  0.54  1.78153834213
0.5  0.56  1.45322683103
0.5  0.58  1.18541833901
0.5  0.6  0.96696304284
0.5  0.62  0.788765868932
0.5  0.64  0.643407833007
0.5  0.66  0.524837161293
0.5  0.68  0.428117333584
0.5  0.7  0.349221558289
0.5  0.72  0.28486512273
0.5  0.74  0.232368638824
0.5  0.76  0.189546490605
0.5  0.78  0.154615839221
0.5  0.8  0.126122397001
0.5  0.82  0.102879880259
0.5  0.84  0.0839206200781
0.5  0.86  0.0684552747981
0.5  0.88  0.0558399669035
0.5  0.9  0.0455494761065
0.5  0.92  0.0371553725518
0.5  0.94  0.0303081797524
0.5  0.96  0.0247228246365
0.5  0.98  0.0201667689383
0.52  -1  0.0140424537554
0.52  -0.98  0.0172149104659
0.52  -0.96  0.0211040853338
0.52  -0.94  0.0258718985881
0.52  -0.92  0.0317168513093
0.52  -0.9  0.0388822897382
0.52  -0.88  0.0476665366476
0.52  -0.86  0.0584353115847
0.52  -0.84  0.0716369570806
0.52  -0.82  0.0878211047497
0.52  -0.8  0.107661558416
0.52  -0.78  0.131984346969
0.52  -0.76  0.161802114898
0.52  -0.74  0.198356282292
0.52  -0.72  0.243168729589
0.52  -0.7  0.298105158893
0.52  -0.68  0.365452769806
0.52  -0.66  0.448015483713
0.52  -0.64  0.549230681035
0.52  -0.62  0.673312311643
0.52  -0.6  0.825426336626
0.52  -0.58  1.01190580569
0.52  -0.56  1.24051452463
0.52  -0.54  1.52077029023
0.52  -0.52  1.86434115018
0.52  -0.5  2.28553118546
0.52  -0.48  2.80187604034
0.52  -0.46  3.4348729938
0.52  -0.44  4.21087596799
0.52  -0.42  5.16219273603
0.52  -0.4  6.32843000994
0.52  -0.38  7.75814240936
0.52  -0.36  9.51085396367
0.52  -0.34  11.6595363098
0.52  -0.32  14.2936467617
0.52  -0.3  17.5228527379
0.52  -0.28  21.4815976072
0.52  -0.26  26.3346980461
0.52  -0.24  32.2842059449
0.52  -0.22  39.5778205495
0.52  -0.2  23.9600217596
0.52  -0.18  22.5157782654
0.52  -0.16  20.9647136342
0.52  -0.14  19.3359374422
0.52  -0.12  17.6663656612
0.52  -0.1  16.0039456136
0.52  -0.08  14.4123065831
0.52  -0.06  12.9763818317
0.52  -0.04  11.8058322267
0.52  -0.02  11.0272210164
0.52  6.17561557e-16  10.7522489558
0.52  0.02  11.0272210164
0.52  0.04  11.8058322267
0.52  0.06  12.9763818317
0.52  0.08  14.4123065831
0.52  0.1  16.0039456136
0.52  0.12  17.6663656612
0.52  0.14  19.3359374422
0.52  0.16  20.9647136342
0.52  0.18  22.5157782654
0.52  0.2  48.5192010645
0.52  0.22  39.5778205495
0.52  0.24  32.2842059449
0.52  0.26  26.3346980461
0.52  0.28  21.4815976072
0.52  0.3  17.5228527379
0.52  0.32  14.2936467617
0.52  0.34  11.6595363098
0.52  0.36  9.51085396367
0.52  0.38  7.75814240936
0.52  0.4  6.32843000994
0.52  0.42  5.16219273603
0.52  0.44  4.21087596799
0.52  0.46  3.4348729938
0.52  0.48  2.80187604034
0.52  0.5  2.28553118546
0.52  0.52  1.86434115018
0.52  0.54  1.52077029023
0.52  0.56  1.24051452463
0.52  0.58  1.01190580569
0.52  0.6  0.825426336626
0.52  0.62  0.673312311643
0.52  0.64  0.549230681035
0.52  0.66  0.448015483713
0.52  0.68  0.365452769806
0.52  0.7  0.298105158893
0.52  0.72  0.243168729589
0.52  0.74  0.198356282292
0.52  0.76  0.161802114898
0.52  0.78  0.131984346969
0.52  0.8  0.107661558416
0.52  0.82  0.0878211047497
0.52  0.84  0.0716369570806
0.52  0.86  0.0584353115847
0.52  0.88  0.0476665366476
0.52  0.9  0.0388822897382
0.52  0.92  0.0317168513093
0.52  0.94  0.0258718985881
0.52  0.96  0.0211040853338
0.52  0.98  0.0172149104659
0.54  -1  0.0119870260258
0.54  -0.98  0.0146951226176
0.54  -0.96  0.0180150296063
0.54  -0.94  0.0220849665675
0.54  -0.92  0.0270743795013
0.54  -0.9  0.0331909954738
0.54  -0.88  0.0406894710361
0.54  -0.86  0.0498819944858
0.54  -0.84  0.0611512833793
0.54  -0.82  0.0749665184298
0.54  -0.8  0.0919028771746
0.54  -0.78  0.112665480669
0.54  -0.76  0.138118750192
0.54  -0.74  0.169322396188
0.54  -0.72  0.207575537796
0.54  -0.7  0.254470789816
0.54  -0.68  0.311960568942
0.54  -0.66  0.382438379844
0.54  -0.64  0.468838465303
0.54  -0.62  0.57475796921
0.54  -0.6  0.704606698509
0.54  -0.58  0.863790719188
0.54  -0.56  1.05893743011
0.54  -0.54  1.29817148526
0.54  -0.52  1.59145305212
0.54  -0.5  1.95099248893
0.54  -0.48  2.39175870555
0.54  -0.46  2.93210237252
0.54  -0.44  3.59451992502
0.54  -0.42  4.40659016972
0.54  -0.4  5.40212248894
0.54  -0.38  6.62256444586
0.54  -0.36  8.11872739454
0.54  -0.34  9.95290193787
0.54  -0.32  12.2014513077
0.54  -0.3  14.9579906386
0.54  -0.28  18.3372845003
0.54  -0.26  22.4800249557
0.54  -0.24  27.5586890743
0.54  -0.22  33.7847197674
0.54  -0.2  20.4529357486
0.54  -0.18  19.2200896482
0.54  -0.16  17.8960580775
0.54  -0.14  16.5056897741
0.54  -0.12  15.0804972302
0.54  -0.1  13.6614096032
0.54  -0.08  12.3027426056
0.54  -0.06  11.0769976136
0.54  -0.04  10.0777841696
0.54  -0.02  9.4131401548
0.54  6.17561557e-16  9.17841641596
0.54  0.02  9.4131401548
0.54  0.04  10.0777841696
0.54  0.06  11.0769976136
0.54  0.08  12.3027426056
0.54  0.1  13.6614096032
0.54  0.12  15.0804972302
0.54  0.14  16.5056897741
0.54  0.16  17.8960580775
0.54  0.18  19.2200896482
0.54  0.2  41.4173289116
0.54  0.22  33.7847197674
0.54  0.24  27.5586890743
0.54  0.26  22.4800249557
0.54  0.28  18.3372845003
0.54  0.3  14.9579906386
0.54  0.32  12.2014513077
0.54  0.34  9.95290193787
0.54  0.36  8.11872739454
0.54  0.38  6.62256444586
0.54  0.4  5.40212248894
0.54  0.42  4.40659016972
0.54  0.44  3.59451992502
0.54  0.46  2.93210237252
0.54  0.48  2.39175870555
0.54  0.5  1.95099248893
0.54  0.52  1.59145305212
0.54  0.54  1.29817148526
0.54  0.56  1.05893743011
0.54  0.58  0.863790719188
0.54  0.6  0.704606698509
0.54  0.62  0.57475796921
0.54  0.64  0.468838465303
0.54  0.66  0.382438379844
0.54  0.68  0.311960568942
0.54  0.7  0.254470789816
0.54  0.72  0.207575537796
0.54  0.74  0.169322396188
0.54  0.76  0.138118750192
0.54  0.78  0.112665480669
0.54  0.8  0.0919028771746
0.54  0.82  0.0749665184298
0.54  0.84  0.0611512833793
0.54  0.86  0.0498819944858
0.54  0.88  0.0406894710361
0.54  0.9  0.0331909954738
0.54  0.92  0.0270743795013
0.54  0.94  0.0220849665675
0.54  0.96  0.0180150296063
0.54  0.98  0.0146951226176
0.56  -1  0.0102324561965
0.56  -0.98  0.0125441621769
0.56  -0.96  0.015378126395
0.56  -0.94  0.0188523368946
0.56  -0.92  0.0231114374573
0.56  -0.9  0.0283327496389
0.56  -0.88  0.0347336552987
0.56  -0.86  0.0425806469822
0.56  -0.84  0.0522004229567
0.56  -0.82  0.0639934888259
0.56  -0.8  0.0784508320078
0.56  -0.78  0.0961743632928
0.56  -0.76  0.117901976538
0.56  -0.74  0.144538269822
0.56  -0.72  0.177192207091
0.56  -0.7  0.217223288285
0.56  -0.68  0.266298150173
0.56  -0.66  0.326459954387
0.56  -0.64  0.400213451537
0.56  -0.62  0.490629262912
0.56  -0.6  0.601471721405
0.56  -0.58  0.737355594125
0.56  -0.56  0.903938211622
0.56  -0.54  1.10815500274
0.56  -0.52  1.35850824129
0.56  -0.5  1.66542102601
0.56  -0.48  2.04167123142
0.56  -0.46  2.50292349628
0.56  -0.44  3.06838139844
0.56  -0.42  3.76158696833
0.56  -0.4  4.61140082763
0.56  -0.38  5.65320376005
0.56  -0.36  6.93036973953
0.56  -0.34  8.49607174359
0.56  -0.32  10.4154955342
0.56  -0.3  12.7685535735
0.56  -0.28  15.6532120651
0.56  -0.26  19.1895696364
0.56  -0.24  23.5248574733
0.56  -0.22  28.8395690797
0.56  -0.2  17.4591903519
0.56  -0.18  16.4067989003
0.56  -0.16  15.276569015
0.56  -0.14  14.0897122642
0.56  -0.12  12.8731285806
0.56  -0.1  11.6617562226
0.56  -0.08  10.5019605812
0.56  -0.06  9.4556308317
0.56  -0.04  8.60267466272
0.56  -0.02  8.03531619088
0.56  6.17561557e-16  7.83494953023
0.56  0.02  8.03531619088
0.56  0.04  8.60267466272
0.56  0.06  9.4556308317
0.56  0.08  10.5019605812
0.56  0.1  11.6617562226
0.56  0.12  12.8731285806
0.56  0.14  14.0897122642
0.56  0.16  15.276569015
0.56  0.18  16.4067989003
0.56  0.2  35.3549748664
0.56  0.22  28.8395690797
0.56  0.24  23.5248574733
0.56  0.26  19.1895696364
0.56  0.28  15.6532120651
0.56  0.3  12.7685535735
0.56  0.32  10.4154955342
0.56  0.34  8.49607174359
0.56  0.36  6.93036973953
0.56  0.38  5.65320376005
0.56  0.4  4.61140082763
0.56  0.42  3.76158696833
0.56  0.44  3.06838139844
0.56  0.46  2.50292349628
0.56  0.48  2.04167123142
0.56  0.5  1.66542102601
0.56  0.52  1.35850824129
0.56  0.54  1.10815500274
0.56  0.56  0.903938211622
0.56  0.58  0.737355594125
0.56  0.6  0.601471721405
0.56  0.62  0.490629262912
0.56  0.64  0.400213451537
0.56  0.66  0.326459954387
0.56  0.68  0.266298150173
0.56  0.7  0.217223288285
0.56  0.72  0.177192207091
0.56  0.74  0.144538269822
0.56  0.76  0.117901976538
0.56  0.78  0.0961743632928
0.56  0.8  0.0784508320078
0.56  0.82  0.0639934888259
0.56  0.84  0.0522004229567
0.56  0.86  0.0425806469822
0.56  0.88  0.0347336552987
0.56  0.9  0.0283327496389
0.56  0.92  0.0231114374573
0.56  0.94  0.0188523368946
0.56  0.96  0.015378126395
0.56  0.98  0.0125441621769
0.58  -1  0.00873470697305
0.58  -0.98  0.0107080429893
0.58  -0.96  0.0131271930488
0.58  -0.94  0.0160928750018
0.58  -0.92  0.0197285607716
0.58  -0.9  0.0241856169314
0.58  -0.88  0.029649606635
0.58  -0.86  0.0363480152731
0.58  -0.84  0.0445597215018
0.58  -0.82  0.0546266079563
0.58  -0.8  0.0669677950455
0.58  -0.78  0.0820970904296
0.58  -0.76  0.100644380667
0.58  -0.74  0.123381855641
0.58  -0.72  0.151256157576
0.58  -0.7  0.185427793137
0.58  -0.68  0.227319449461
0.58  -0.66  0.278675225698
0.58  -0.64  0.341633246086
0.58  -0.62  0.418814677691
0.58  -0.6  0.513432858949
0.58  -0.58  0.629427082406
0.58  -0.56  0.771626601533
0.58  -0.54  0.945951689778
0.58  -0.52  1.15966012268
0.58  -0.5  1.42164934495
0.58  -0.48  1.74282690287
0.58  -0.46  2.13656456437
0.58  -0.44  2.61925503342
0.58  -0.42  3.21099443681
0.58  -0.4  3.93641899766
0.58  -0.38  4.82573072922
0.58  -0.36  5.91595485258
0.58  -0.34  7.25248128866
0.58  -0.32  8.89095440263
0.58  -0.3  10.8995896774
0.58  -0.28  13.3620137678
0.58  -0.26  16.3807461761
0.58  -0.24  20.0814675055
0.58  -0.22  24.6182519918
0.58  -0.2  14.9036466692
0.58  -0.18  14.0052962854
0.58  -0.16  13.0405008668
0.58  -0.14  12.0273671931
0.58  -0.12  10.9888577892
0.58  -0.1  9.95479691675
0.58  -0.08  8.96476335277
0.58  -0.06  8.07158740521
0.58  -0.04  7.34348048212
0.58  -0.02  6.85916763436
0.58  6.17561557e-16  6.68812912373
0.58  0.02  6.85916763436
0.58  0.04  7.34348048212
0.58  0.06  8.07158740521
0.58  0.08  8.96476335277
0.58  0.1  9.95479691675
0.58  0.12  10.9888577892
0.58  0.14  12.0273671931
0.58  0.16  13.0405008668
0.58  0.18  14.0052962854
0.58  0.2  30.1799821633
0.58  0.22  24.6182519918
0.58  0.24  20.0814675055
0.58  0.26  16.3807461761
0.58  0.28  13.3620137678
0.58  0.3  10.8995896774
0.58  0.32  8.89095440263
0.58  0.34  7.25248128866
0.58  0.36  5.91595485258
0.58  0.38  4.82573072922
0.58  0.4  3.93641899766
0.58  0.42  3.21099443681
0.58  0.44  2.61925503342
0.58  0.46  2.13656456437
0.58  0.48  1.74282690287
0.58  0.5  1.42164934495
0.58  0.52  1.15966012268
0.58  0.54  0.945951689778
0.58  0.56  0.771626601533
0.58  0.58  0.629427082406
0.58  0.6  0.513432858948
0.58  0.62  0.418814677691
0.58  0.64  0.341633246086
0.58  0.66  0.278675225698
0.58  0.68  0.227319449461
0.58  0.7  0.185427793137
0.58  0.72  0.151256157576
0.58  0.74  0.123381855641
0.58  0.76  0.100644380667
0.58  0.78  0.0820970904296
0.58  0.8  0.0669677950455
0.58  0.82  0.0546266079563
0.58  0.84  0.0445597215018
0.58  0.86  0.0363480152731
0.58  0.88  0.029649606635
0.58  0.9  0.0241856169314
0.58  0.92  0.0197285607716
0.58  0.94  0.0160928750018
0.58  0.96  0.0131271930488
0.58  0.98  0.0107080429893
0.6  -1  0.00745618690564
0.6  -0.98  0.0091406809831
0.6  -0.96  0.0112057342301
0.6  -0.94  0.013737322183
0.6  -0.92  0.0168408438825
0.6  -0.9  0.0206455100126
0.6  -0.88  0.0253097224019
0.6  -0.86  0.0310276688573
0.6  -0.84  0.0380374078954
0.6  -0.82  0.0466307799678
0.6  -0.8  0.057165557821
0.6  -0.78  0.0700803418524
0.6  -0.76  0.0859128206101
0.6  -0.74  0.105322156686
0.6  -0.72  0.129116430007
0.6  -0.7  0.158286281085
0.6  -0.68  0.194046154919
0.6  -0.66  0.237884862673
0.6  -0.64  0.291627566197
0.6  -0.62  0.35751176603
0.6  -0.6  0.438280456532
0.6  -0.58  0.537296326525
0.6  -0.56  0.658681760035
0.6  -0.54  0.807490465845
0.6  -0.52  0.989917881431
0.6  -0.5  1.21355911113
0.6  -0.48  1.48772513744
0.6  -0.46  1.82383047045
0.6  -0.44  2.23586837463
0.6  -0.42  2.74099345836
0.6  -0.4  3.36023588152
0.6  -0.38  4.11937691607
0.6  -0.36  5.0500223124
0.6  -0.34  6.19091815956
0.6  -0.32  7.58956402316
0.6  -0.3  9.30419052184
0.6  -0.28  11.4061836757
0.6  -0.26  13.9830569611
0.6  -0.24  17.142094809
0.6  -0.22  21.0148192386
0.6  -0.2  12.7221640616
0.6  -0.18  11.9553073841
0.6  -0.16  11.1317313913
0.6  -0.14  10.2668925301
0.6  -0.12  9.38039224541
0.6  -0.1  8.49768934985
0.6  -0.08  7.65256937975
0.6  -0.06  6.89012974381
0.6  -0.04  6.26859758222
0.6  -0.02  5.85517477079
0.6  6.17561557e-16  5.70917157833
0.6  0.02  5.85517477079
0.6  0.04  6.26859758222
0.6  0.06  6.89012974381
0.6  0.08  7.65256937975
0.6  0.1  8.49768934985
0.6  0.12  9.38039224541
0.6  0.14  10.2668925301
0.6  0.16  11.1317313913
0.6  0.18  11.9553073841
0.6  0.2  25.7624655884
0.6  0.22  21.0148192386
0.6  0.24  17.142094809
0.6  0.26  13.9830569611
