-0.42  -0.62  0.321021810612
-0.42  -0.6  0.388996778378
-0.42  -0.58  0.471365148992
-0.42  -0.56  0.571174662706
-0.42  -0.54  0.692118405476
-0.42  -0.52  0.838671458096
-0.42  -0.5  1.01625648019
-0.42  -0.48  1.2314443559
-0.42  -0.46  1.49219732543
-0.42  -0.44  1.80816359857
-0.42  -0.42  2.19103435148
-0.42  -0.4  2.65497631583
-0.42  -0.38  3.21715596694
-0.42  -0.36  3.89837470637
-0.42  -0.34  4.72383854168
-0.42  -0.32  5.72409074258
-0.42  -0.3  6.93614198289
-0.42  -0.28  8.4048397851
-0.42  -0.26  10.1845279389
-0.42  -0.24  12.3410572945
-0.42  -0.22  14.9542223321
-0.42  -0.2  10.0299642999
-0.42  -0.18  9.46548538027
-0.42  -0.16  8.84442183454
-0.42  -0.14  8.1797492342
-0.42  -0.12  7.48797619474
-0.42  -0.1  6.7905375512
-0.42  -0.08  6.11584277253
-0.42  -0.06  5.50182423077
-0.42  -0.04  4.99763312386
-0.42  -0.02  4.66038961907
-0.42  6.17561557e-16  4.54091399387
-0.42  0.02  4.66038961907
-0.42  0.04  4.99763312386
-0.42  0.06  5.50182423077
-0.42  0.08  6.11584277253
-0.42  0.1  6.7905375512
-0.42  0.12  7.48797619474
-0.42  0.14  8.1797492342
-0.42  0.16  8.84442183454
-0.42  0.18  9.46548538027
-0.42  0.2  18.1207136651
-0.42  0.22  14.9542223321
-0.42  0.24  12.3410572945
-0.42  0.26  10.1845279389
-0.42  0.28  8.4048397851
-0.42  0.3  6.93614198289
-0.42  0.32  5.72409074258
-0.42  0.34  4.72383854168
-0.42  0.36  3.89837470637
-0.42  0.38  3.21715596694
-0.42  0.4  2.65497631583
-0.42  0.42  2.19103435148
-0.42  0.44  1.80816359857
-0.42  0.46  1.49219732543
-0.42  0.48  1.2314443559
-0.42  0.5  1.01625648019
-0.42  0.52  0.838671458096
-0.42  0.54  0.692118405476
-0.42  0.56  0.571174662706
-0.42  0.58  0.471365148992
-0.42  0.6  0.388996778378
-0.42  0.62  0.321021810612
-0.42  0.64  0.264925080661
-0.42  0.66  0.218630934232
-0.42  0.68  0.180426425781
-0.42  0.7  0.148897937222
-0.42  0.72  0.122878872166
-0.42  0.74  0.101406490288
-0.42  0.76  0.0836862846418
-0.42  0.78  0.0690625838371
-0.42  0.8  0.0569942913187
-0.42  0.82  0.0470348640674
-0.42  0.84  0.038815789909
-0.42  0.86  0.0320329520693
-0.42  0.88  0.0264353764456
-0.42  0.9  0.0218159452275
-0.42  0.92  0.0180037332606
-0.42  0.94  0.0148576835859
-0.42  0.96  0.0122613881435
-0.42  0.98  0.0101187805175
-0.4  -1  0.00949592512905
-0.4  -0.98  0.011506645844
-0.4  -0.96  0.0139431278975
-0.4  -0.94  0.0168955243954
-0.4  -0.92  0.0204730779703
-0.4  -0.9  0.0248081629057
-0.4  -0.88  0.030061183162
-0.4  -0.86  0.0364265075384
-0.4  -0.84  0.0441396615794
-0.4  -0.82  0.0534860423357
-0.4  -0.8  0.0648114784386
-0.4  -0.78  0.0785350262229
-0.4  -0.76  0.0951644753742
-0.4  -0.74  0.115315137828
-0.4  -0.72  0.139732615139
-0.4  -0.7  0.169320386736
-0.4  -0.68  0.205173239875
-0.4  -0.66  0.24861777824
-0.4  -0.64  0.301261508053
-0.4  -0.62  0.365052317968
-0.4  -0.6  0.442350553559
-0.4  -0.58  0.536016353283
-0.4  -0.56  0.64951547743
-0.4  -0.54  0.787047545914
-0.4  -0.52  0.953701429842
-0.4  -0.5  1.15564354657
-0.4  -0.48  1.40034602544
-0.4  -0.46  1.69686318656
-0.4  -0.44  2.05616656284
-0.4  -0.42  2.49155086138
-0.4  -0.4  3.01912588555
-0.4  -0.38  3.65841261924
-0.4  -0.36  4.43306552957
-0.4  -0.34  5.37174781382
-0.4  -0.32  6.50919197624
-0.4  -0.3  7.88748497735
-0.4  -0.28  9.5576255079
-0.4  -0.26  11.5814110089
-0.4  -0.24  14.0337242599
-0.4  -0.22  17.0053041422
-0.4  -0.2  11.4056478276
-0.4  -0.18  10.7637464637
-0.4  -0.16  10.0574994753
-0.4  -0.14  9.30166212895
-0.4  -0.12  8.51500731854
-0.4  -0.1  7.72190982471
-0.4  -0.08  6.95467568443
-0.4  -0.06  6.25643997416
-0.4  -0.04  5.6830953409
-0.4  -0.02  5.29959640384
-0.4  6.17561557e-16  5.16373381607
-0.4  0.02  5.29959640384
-0.4  0.04  5.6830953409
-0.4  0.06  6.25643997416
-0.4  0.08  6.95467568443
-0.4  0.1  7.72190982471
-0.4  0.12  8.51500731854
-0.4  0.14  9.30166212895
-0.4  0.16  10.0574994753
-0.4  0.18  10.7637464637
-0.4  0.2  20.6061030995
-0.4  0.22  17.0053041422
-0.4  0.24  14.0337242599
-0.4  0.26  11.5814110089
-0.4  0.28  9.5576255079
-0.4  0.3  7.88748497735
-0.4  0.32  6.50919197624
-0.4  0.34  5.37174781382
-0.4  0.36  4.43306552957
-0.4  0.38  3.65841261924
-0.4  0.4  3.01912588555
-0.4  0.42  2.49155086138
-0.4  0.44  2.05616656284
-0.4  0.46  1.69686318656
-0.4  0.48  1.40034602544
-0.4  0.5  1.15564354657
-0.4  0.52  0.953701429842
-0.4  0.54  0.787047545914
-0.4  0.56  0.64951547743
-0.4  0.58  0.536016353283
-0.4  0.6  0.442350553559
-0.4  0.62  0.365052317968
-0.4  0.64  0.301261508053
-0.4  0.66  0.24861777824
-0.4  0.68  0.205173239875
-0.4  0.7  0.169320386736
-0.4  0.72  0.139732615139
-0.4  0.74  0.115315137828
-0.4  0.76  0.0951644753742
-0.4  0.78  0.0785350262229
-0.4  0.8  0.0648114784386
-0.4  0.82  0.0534860423357
-0.4  0.84  0.0441396615794
-0.4  0.86  0.0364265075384
-0.4  0.88  0.030061183162
-0.4  0.9  0.0248081629057
-0.4  0.92  0.0204730779703
-0.4  0.94  0.0168955243954
-0.4  0.96  0.0139431278975
-0.4  0.98  0.011506645844
-0.38  -1  0.0107983612484
-0.38  -0.98  0.0130848671291
-0.38  -0.96  0.0158555306539
-0.38  -0.94  0.0192128700915
-0.38  -0.92  0.0232811115069
-0.38  -0.9  0.028210785292
-0.38  -0.88  0.0341842959929
-0.38  -0.86  0.0414226715219
-0.38  -0.84  0.0501937414879
-0.38  -0.82  0.0608220472507
-0.38  -0.8  0.0737008503871
-0.38  -0.78  0.0893066838968
-0.38  -0.76  0.108216984563
-0.38  -0.74  0.13113145889
-0.38  -0.72  0.158897973178
-0.38  -0.7  0.19254392572
-0.38  -0.68  0.233314261915
-0.38  -0.66  0.282717538916
-0.38  -0.64  0.342581744273
-0.38  -0.62  0.415121933925
-0.38  -0.6  0.503022192241
-0.38  -0.58  0.609534946742
-0.38  -0.56  0.738601312289
-0.38  -0.54  0.89499691762
-0.38  -0.52  1.08450861002
-0.38  -0.5  1.31414857644
-0.38  -0.48  1.59241380381
-0.38  -0.46  1.92960047901
-0.38  -0.44  2.33818496151
-0.38  -0.42  2.83328542552
-0.38  -0.4  3.43322125264
-0.38  -0.38  4.16019087361
-0.38  -0.36  5.04109314001
-0.38  -0.34  6.10852261792
-0.38  -0.32  7.40197563054
-0.38  -0.3  8.9693116752
-0.38  -0.28  10.868524289
-0.38  -0.26  13.1698868873
-0.38  -0.24  15.958552975
-0.38  -0.22  19.3377069397
-0.38  -0.2  12.9700164903
-0.38  -0.18  12.2400736234
-0.38  -0.16  11.4369596552
-0.38  -0.14  10.5774536461
-0.38  -0.12  9.68290333052
-0.38  -0.1  8.78102667004
-0.38  -0.08  7.90856071266
-0.38  -0.06  7.11455682852
-0.38  -0.04  6.46257375308
-0.38  -0.02  6.02647511029
-0.38  6.17561557e-16  5.87197796726
-0.38  0.02  6.02647511029
-0.38  0.04  6.46257375308
-0.38  0.06  7.11455682852
-0.38  0.08  7.90856071266
-0.38  0.1  8.78102667004
-0.38  0.12  9.68290333052
-0.38  0.14  10.5774536461
-0.38  0.16  11.4369596552
-0.38  0.18  12.2400736234
-0.38  0.2  23.432382013
-0.38  0.22  19.3377069397
-0.38  0.24  15.958552975
-0.38  0.26  13.1698868873
-0.38  0.28  10.868524289
-0.38  0.3  8.9693116752
-0.38  0.32  7.40197563054
-0.38  0.34  6.10852261792
-0.38  0.36  5.04109314001
-0.38  0.38  4.16019087361
-0.38  0.4  3.43322125264
-0.38  0.42  2.83328542552
-0.38  0.44  2.33818496151
-0.38  0.46  1.92960047901
-0.38  0.48  1.59241380381
-0.38  0.5  1.31414857644
-0.38  0.52  1.08450861002
-0.38  0.54  0.89499691762
-0.38  0.56  0.738601312289
-0.38  0.58  0.609534946742
-0.38  0.6  0.503022192241
-0.38  0.62  0.415121933925
-0.38  0.64  0.342581744273
-0.38  0.66  0.282717538916
-0.38  0.68  0.233314261915
-0.38  0.7  0.19254392572
-0.38  0.72  0.158897973178
-0.38  0.74  0.13113145889
-0.38  0.76  0.108216984563
-0.38  0.78  0.0893066838968
-0.38  0.8  0.0737008503871
-0.38  0.82  0.0608220472507
-0.38  0.84  0.0501937414879
-0.38  0.86  0.0414226715219
-0.38  0.88  0.0341842959929
-0.38  0.9  0.028210785292
-0.38  0.92  0.0232811115069
-0.38  0.94  0.0192128700915
-0.38  0.96  0.0158555306539
-0.38  0.98  0.0130848671291
-0.36  -1  0.0122794360809
-0.36  -0.98  0.0148795530953
-0.36  -0.96  0.0180302335432
-0.36  -0.94  0.0218480568294
-0.36  -0.92  0.026474287539
-0.36  -0.9  0.0320801024171
-0.36  -0.88  0.0388729241371
-0.36  -0.86  0.047104096219
-0.36  -0.84  0.0570781830764
-0.36  -0.82  0.0691642393084
-0.36  -0.8  0.0838094652157
-0.36  -0.78  0.101555753811
-0.36  -0.76  0.123059741589
-0.36  -0.74  0.149117104956
-0.36  -0.72  0.180692001326
-0.36  -0.7  0.218952744241
-0.36  -0.68  0.265315032534
-0.36  -0.66  0.321494333093
-0.36  -0.64  0.389569355434
-0.36  -0.62  0.47205896674
-0.36  -0.6  0.572015393335
-0.36  -0.58  0.693137157148
-0.36  -0.56  0.83990592599
-0.36  -0.54  1.01775234128
-0.36  -0.52  1.23325695905
-0.36  -0.5  1.49439373938
-0.36  -0.48  1.81082509359
-0.36  -0.46  2.19425940646
-0.36  -0.44  2.65888426213
-0.36  -0.42  3.22189140382
-0.36  -0.4  3.90411285134
-0.36  -0.38  4.73079171381
-0.36  -0.36  5.73251621858
-0.36  -0.34  6.94635151667
-0.36  -0.32  8.41721114312
-0.36  -0.3  10.1995188781
-0.36  -0.28  12.3592224996
-0.36  -0.26  14.9762339401
-0.36  -0.24  18.147386135
-0.36  -0.22  21.9900159713
-0.36  -0.2  14.7489498449
-0.36  -0.18  13.9188899339
-0.36  -0.16  13.0056229658
-0.36  -0.14  12.0282293727
-0.36  -0.12  11.0109848883
-0.36  -0.1  9.98540919671
-0.36  -0.08  8.99327810294
-0.36  -0.06  8.09037073403
-0.36  -0.04  7.34896337448
-0.36  -0.02  6.85305058865
-0.36  6.17561557e-16  6.67736302377
-0.36  0.02  6.85305058865
-0.36  0.04  7.34896337448
-0.36  0.06  8.09037073403
-0.36  0.08  8.99327810294
-0.36  0.1  9.98540919671
-0.36  0.12  11.0109848883
-0.36  0.14  12.0282293727
-0.36  0.16  13.0056229658
-0.36  0.18  13.9188899339
-0.36  0.2  26.6463059099
-0.36  0.22  21.9900159713
-0.36  0.24  18.147386135
-0.36  0.26  14.9762339401
-0.36  0.28  12.3592224996
-0.36  0.3  10.1995188781
-0.36  0.32  8.41721114312
-0.36  0.34  6.94635151667
-0.36  0.36  5.73251621858
-0.36  0.38  4.73079171381
-0.36  0.4  3.90411285134
-0.36  0.42  3.22189140382
-0.36  0.44  2.65888426213
-0.36  0.46  2.19425940646
-0.36  0.48  1.81082509359
-0.36  0.5  1.49439373938
-0.36  0.52  1.23325695905
-0.36  0.54  1.01775234128
-0.36  0.56  0.83990592599
-0.36  0.58  0.693137157148
-0.36  0.6  0.572015393335
-0.36  0.62  0.47205896674
-0.36  0.64  0.389569355434
-0.36  0.66  0.321494333093
-0.36  0.68  0.265315032534
-0.36  0.7  0.218952744241
-0.36  0.72  0.180692001326
-0.36  0.74  0.149117104956
-0.36  0.76  0.123059741589
-0.36  0.78  0.101555753811
-0.36  0.8  0.0838094652157
-0.36  0.82  0.0691642393084
-0.36  0.84  0.0570781830764
-0.36  0.86  0.047104096219
-0.36  0.88  0.0388729241371
-0.36  0.9  0.0320801024171
-0.36  0.92  0.026474287539
-0.36  0.94  0.0218480568294
-0.36  0.96  0.0180302335432
-0.36  0.98  0.0148795530953
-0.34  -1  0.0139636512426
-0.34  -0.98  0.0169203934693
-0.34  -0.96  0.020503212962
-0.34  -0.94  0.0248446788504
-0.34  -0.92  0.0301054311987
-0.34  -0.9  0.0364801249038
-0.34  -0.88  0.044204632188
-0.34  -0.86  0.0535647701872
-0.34  -0.84  0.0649068765692
-0.34  -0.82  0.0786506244914
-0.34  -0.8  0.0953045510717
-0.34  -0.78  0.115484873944
-0.34  -0.76  0.139938292136
-0.34  -0.74  0.16956961494
-0.34  -0.72  0.205475241064
-0.34  -0.7  0.248983726863
-0.34  -0.68  0.3017049447
-0.34  -0.66  0.36558965039
-0.34  -0.64  0.443001663778
-0.34  -0.62  0.536805333249
-0.34  -0.6  0.650471520462
-0.34  -0.58  0.788206026886
-0.34  -0.56  0.955105214106
-0.34  -0.54  1.15734457603
-0.34  -0.52  1.40240724046
-0.34  -0.5  1.69936085488
-0.34  -0.48  2.05919310152
-0.34  -0.46  2.49521825642
-0.34  -0.44  3.02356983548
-0.34  -0.42  3.66379755619
-0.34  -0.4  4.43959070342
-0.34  -0.38  5.37965466476
-0.34  -0.36  6.51877306838
-0.34  -0.34  7.89909482394
-0.34  -0.32  9.57169368885
-0.34  -0.3  11.5984580658
-0.34  -0.28  14.0543809567
-0.34  -0.26  17.0303348044
-0.34  -0.24  20.6364338953
-0.34  -0.22  25.006108735
-0.34  -0.2  16.7718770205
-0.34  -0.18  15.8279682749
-0.34  -0.16  14.789440011
-0.34  -0.14  13.677989683
-0.34  -0.12  12.5212226201
-0.34  -0.1  11.3549816636
-0.34  -0.08  10.226772478
-0.34  -0.06  9.20002470874
-0.34  -0.04  8.35692786542
-0.34  -0.02  7.79299698599
-0.34  6.17561557e-16  7.5932125767
-0.34  0.02  7.79299698599
-0.34  0.04  8.35692786542
-0.34  0.06  9.20002470874
-0.34  0.08  10.226772478
-0.34  0.1  11.3549816636
-0.34  0.12  12.5212226201
-0.34  0.14  13.677989683
-0.34  0.16  14.789440011
-0.34  0.18  15.8279682749
-0.34  0.2  30.301043157
-0.34  0.22  25.006108735
-0.34  0.24  20.6364338953
-0.34  0.26  17.0303348044
-0.34  0.28  14.0543809567
-0.34  0.3  11.5984580658
-0.34  0.32  9.57169368885
-0.34  0.34  7.89909482394
-0.34  0.36  6.51877306838
-0.34  0.38  5.37965466476
-0.34  0.4  4.43959070342
-0.34  0.42  3.66379755619
-0.34  0.44  3.02356983548
-0.34  0.46  2.49521825642
-0.34  0.48  2.05919310152
-0.34  0.5  1.69936085487
-0.34  0.52  1.40240724046
-0.34  0.54  1.15734457603
-0.34  0.56  0.955105214105
-0.34  0.58  0.788206026886
-0.34  0.6  0.650471520462
-0.34  0.62  0.536805333249
-0.34  0.64  0.443001663778
-0.34  0.66  0.36558965039
-0.34  0.68  0.3017049447
-0.34  0.7  0.248983726863
-0.34  0.72  0.205475241064
-0.34  0.74  0.16956961494
-0.34  0.76  0.139938292136
-0.34  0.78  0.115484873944
-0.34  0.8  0.0953045510717
-0.34  0.82  0.0786506244914
-0.34  0.84  0.0649068765692
-0.34  0.86  0.0535647701872
-0.34  0.88  0.044204632188
-0.34  0.9  0.0364801249038
-0.34  0.92  0.0301054311987
-0.34  0.94  0.0248446788504
-0.34  0.96  0.020503212962
-0.34  0.98  0.0169203934693
-0.32  -1  0.015878868927
-0.32  -0.98  0.0192411501421
-0.32  -0.96  0.0233153797348
-0.32  -0.94  0.0282523096677
-0.32  -0.92  0.0342346129739
-0.32  -0.9  0.0414836429042
-0.32  -0.88  0.0502676232944
-0.32  -0.86  0.0609115732073
-0.32  -0.84  0.0738093330744
-0.32  -0.82  0.0894381373198
-0.32  -0.8  0.108376272675
-0.32  -0.78  0.131324475564
-0.32  -0.76  0.159131860291
-0.32  -0.74  0.192827337409
-0.32  -0.72  0.233657684792
-0.32  -0.7  0.283133680089
-0.32  -0.68  0.343086001525
-0.32  -0.66  0.41573296545
-0.32  -0.64  0.503762607024
-0.32  -0.62  0.610432141125
-0.32  -0.6  0.739688483669
-0.32  -0.58  0.896314292796
-0.32  -0.56  1.08610493364
-0.32  -0.54  1.31608291462
-0.32  -0.52  1.59475772967
-0.32  -0.5  1.93244072094
-0.32  -0.48  2.34162661228
-0.32  -0.46  2.83745583082
-0.32  -0.44  3.43827472306
-0.32  -0.42  4.16631439434
-0.32  -0.4  5.04851328955
-0.32  -0.38  6.11751395175
-0.32  -0.36  7.41287084008
-0.32  -0.34  8.98251389782
-0.32  -0.32  10.8845220246
-0.32  -0.3  13.1892720737
-0.32  -0.28  15.98204289
-0.32  -0.26  19.3661707417
-0.32  -0.24  23.4668729009
-0.32  -0.22  28.4358808508
-0.32  -0.2  19.0722635678
-0.32  -0.18  17.9988907808
-0.32  -0.16  16.8179207113
-0.32  -0.14  15.554026779
-0.32  -0.12  14.2386005877
-0.32  -0.1  12.9124010885
-0.32  -0.08  11.6294496978
-0.32  -0.06  10.4618759046
-0.32  -0.04  9.5031421153
-0.32  -0.02  8.86186395941
-0.32  6.17561557e-16  8.63467764592
-0.32  0.02  8.86186395941
-0.32  0.04  9.5031421153
-0.32  0.06  10.4618759046
-0.32  0.08  11.6294496978
-0.32  0.1  12.9124010885
-0.32  0.12  14.2386005877
-0.32  0.14  15.554026779
-0.32  0.16  16.8179207113
-0.32  0.18  17.9988907808
-0.32  0.2  34.457054554
-0.32  0.22  28.4358808508
-0.32  0.24  23.4668729009
-0.32  0.26  19.3661707417
-0.32  0.28  15.98204289
-0.32  0.3  13.1892720737
-0.32  0.32  10.8845220246
-0.32  0.34  8.98251389782
-0.32  0.36  7.41287084008
-0.32  0.38  6.11751395175
-0.32  0.4  5.04851328955
-0.32  0.42  4.16631439434
-0.32  0.44  3.43827472306
-0.32  0.46  2.83745583082
-0.32  0.48  2.34162661228
-0.32  0.5  1.93244072094
-0.32  0.52  1.59475772967
-0.32  0.54  1.31608291462
-0.32  0.56  1.08610493364
-0.32  0.58  0.896314292796
-0.32  0.6  0.739688483669
-0.32  0.62  0.610432141125
-0.32  0.64  0.503762607024
-0.32  0.66  0.41573296545
-0.32  0.68  0.343086001525
-0.32  0.7  0.283133680089
-0.32  0.72  0.233657684792
-0.32  0.74  0.192827337409
-0.32  0.76  0.159131860291
-0.32  0.78  0.131324475564
-0.32  0.8  0.108376272675
-0.32  0.82  0.0894381373198
-0.32  0.84  0.0738093330744
-0.32  0.86  0.0609115732073
-0.32  0.88  0.0502676232944
-0.32  0.9  0.0414836429042
-0.32  0.92  0.0342346129739
-0.32  0.94  0.0282523096677
-0.32  0.96  0.0233153797348
-0.32  0.98  0.0192411501421
-0.3  -1  0.0180567728325
-0.3  -0.98  0.0218802156973
-0.3  -0.96  0.026513255907
-0.3  -0.94  0.0321273221669
-0.3  -0.92  0.038930142463
-0.3  -0.9  0.0471734302758
-0.3  -0.88  0.0571621983171
-0.3  -0.86  0.0692660444098
-0.3  -0.84  0.0839328271031
-0.3  -0.82  0.10170523704
-0.3  -0.8  0.123240877239
-0.3  -0.78  0.14933659529
-0.3  -0.76  0.180957967781
-0.3  -0.74  0.219275027932
-0.3  -0.72  0.265705558391
-0.3  -0.7  0.321967551096
-0.3  -0.68  0.390142775284
-0.3  -0.66  0.472753805742
-0.3  -0.64  0.572857361464
-0.3  -0.62  0.694157408354
-0.3  -0.6  0.841142210937
-0.3  -0.58  1.01925040417
-0.3  -0.56  1.23507223022
-0.3  -0.54  1.4965933863
-0.3  -0.52  1.81349050615
-0.3  -0.5  2.1974892085
-0.3  -0.48  2.66279796067
-0.3  -0.46  3.22663381094
-0.3  -0.44  3.90985944248
-0.3  -0.42  4.73775512055
-0.3  -0.4  5.74095409632
-0.3  -0.38  6.9565760782
-0.3  -0.36  8.42960071095
-0.3  -0.34  10.2145318828
-0.3  -0.32  12.3774144426
-0.3  -0.3  14.9982779477
-0.3  -0.28  18.174097865
-0.3  -0.26  22.0223837936
-0.3  -0.24  26.6855274774
-0.3  -0.22  32.3360714907
-0.3  -0.2  21.6881650845
-0.3  -0.18  20.4675713088
-0.3  -0.16  19.1246224901
-0.3  -0.14  17.6873761897
-0.3  -0.12  16.1915296012
-0.3  -0.1  14.6834320662
-0.3  -0.08  13.2245144365
-0.3  -0.06  11.8967992921
-0.3  -0.04  10.8065680975
-0.3  -0.02  10.0773339161
-0.3  6.17561557e-16  9.81898732531
-0.3  0.02  10.0773339161
-0.3  0.04  10.8065680975
-0.3  0.06  11.8967992921
-0.3  0.08  13.2245144365
-0.3  0.1  14.6834320662
-0.3  0.12  16.1915296012
-0.3  0.14  17.6873761897
-0.3  0.16  19.1246224901
-0.3  0.18  20.4675713088
-0.3  0.2  39.1830935453
-0.3  0.22  32.3360714907
-0.3  0.24  26.6855274774
-0.3  0.26  22.0223837936
-0.3  0.28  18.174097865
-0.3  0.3  14.9982779477
-0.3  0.32  12.3774144426
-0.3  0.34  10.2145318828
-0.3  0.36  8.42960071094
-0.3  0.38  6.9565760782
-0.3  0.4  5.74095409632
-0.3  0.42  4.73775512055
-0.3  0.44  3.90985944248
-0.3  0.46  3.22663381094
-0.3  0.48  2.66279796066
-0.3  0.5  2.1974892085
-0.3  0.52  1.81349050615
-0.3  0.54  1.4965933863
-0.3  0.56  1.23507223022
-0.3  0.58  1.01925040417
-0.3  0.6  0.841142210937
-0.3  0.62  0.694157408354
-0.3  0.64  0.572857361464
-0.3  0.66  0.472753805742
-0.3  0.68  0.390142775284
-0.3  0.7  0.321967551096
-0.3  0.72  0.265705558391
-0.3  0.74  0.219275027932
-0.3  0.76  0.180957967781
-0.3  0.78  0.14933659529
-0.3  0.8  0.123240877239
-0.3  0.82  0.10170523704
-0.3  0.84  0.0839328271031
-0.3  0.86  0.0692660444098
-0.3  0.88  0.0571621983171
-0.3  0.9  0.0471734302758
-0.3  0.92  0.038930142463
-0.3  0.94  0.0321273221669
-0.3  0.96  0.026513255907
-0.3  0.98  0.0218802156973
-0.28  -1  0.0205333923104
-0.28  -0.98  0.0248812485442
-0.28  -0.96  0.0301497443655
-0.28  -0.94  0.0365338211904
-0.28  -0.92  0.044269698429
-0.28  -0.9  0.0536436139209
-0.28  -0.88  0.0650024151194
-0.28  -0.86  0.0787663929128
-0.28  -0.84  0.0954448329512
-0.28  -0.82  0.115654859899
-0.28  -0.8  0.140144271876
-0.28  -0.78  0.169819209991
-0.28  -0.76  0.205777686778
-0.28  -0.74  0.249350214137
-0.28  -0.72  0.302149034056
-0.28  -0.7  0.366127773729
-0.28  -0.68  0.443653732387
-0.28  -0.66  0.537595474541
-0.28  -0.64  0.651428970724
-0.28  -0.62  0.789366213065
-0.28  -0.6  0.956511064645
-0.28  -0.58  1.15904810929
-0.28  -0.56  1.40447148946
-0.28  -0.54  1.70186219959
-0.28  -0.52  2.06222409506
-0.28  -0.5  2.49889104962
-0.28  -0.48  3.02802032661
-0.28  -0.46  3.6691904194
-0.28  -0.44  4.44612548189
-0.28  -0.42  5.38757315406
-0.28  -0.4  6.52836826323
-0.28  -0.38  7.91072175944
-0.28  -0.36  9.58578257721
-0.28  -0.34  11.6155302148
-0.28  -0.32  14.0750680588
-0.28  -0.3  17.0554023101
-0.28  -0.28  20.6668093359
-0.28  -0.26  25.0429160427
-0.28  -0.24  30.3456442515
-0.28  -0.22  36.7712020225
-0.28  -0.2  24.6628567744
-0.28  -0.18  23.2748495661
-0.28  -0.16  21.747705419
-0.28  -0.14  20.1133301956
-0.28  -0.12  18.4123172226
-0.28  -0.1  16.6973729955
-0.28  -0.08  15.0383540603
-0.28  -0.06  13.5285329981
-0.28  -0.04  12.2887685598
-0.28  -0.02  11.4595145358
-0.28  6.17561557e-16  11.1657338059
-0.28  0.02  11.4595145358
-0.28  0.04  12.2887685598
-0.28  0.06  13.5285329981
-0.28  0.08  15.0383540603
-0.28  0.1  16.6973729955
-0.28  0.12  18.4123172226
-0.28  0.14  20.1133301956
-0.28  0.16  21.747705419
-0.28  0.18  23.2748495661
-0.28  0.2  44.5573436165
-0.28  0.22  36.7712020225
-0.28  0.24  30.3456442515
-0.28  0.26  25.0429160427
-0.28  0.28  20.6668093359
-0.28  0.3  17.0554023101
-0.28  0.32  14.0750680588
-0.28  0.34  11.6155302148
-0.28  0.36  9.58578257721
-0.28  0.38  7.91072175944
-0.28  0.4  6.52836826323
-0.28  0.42  5.38757315406
-0.28  0.44  4.44612548189
-0.28  0.46  3.6691904194
-0.28  0.48  3.02802032661
-0.28  0.5  2.49889104962
-0.28  0.52  2.06222409506
-0.28  0.54  1.70186219959
-0.28  0.56  1.40447148946
-0.28  0.58  1.15904810929
-0.28  0.6  0.956511064645
-0.28  0.62  0.789366213065
-0.28  0.64  0.651428970724
-0.28  0.66  0.537595474541
-0.28  0.68  0.443653732387
-0.28  0.7  0.366127773729
-0.28  0.72  0.302149034056
-0.28  0.74  0.249350214137
-0.28  0.76  0.205777686778
-0.28  0.78  0.169819209991
-0.28  0.8  0.140144271876
-0.28  0.82  0.115654859899
-0.28  0.84  0.0954448329512
-0.28  0.86  0.0787663929128
-0.28  0.88  0.0650024151194
-0.28  0.9  0.0536436139209
-0.28  0.92  0.044269698429
-0.28  0.94  0.0365338211904
-0.28  0.96  0.0301497443655
-0.28  0.98  0.0248812485442
-0.26  -1  0.0233496984033
-0.26  -0.98  0.0282938951645
-0.26  -0.96  0.0342850040182
-0.26  -0.94  0.0415447040322
-0.26  -0.92  0.0503416138499
-0.26  -0.9  0.0610012309401
-0.26  -0.88  0.0739179754409
-0.26  -0.86  0.0895697842335
-0.26  -0.84  0.108535795248
-0.26  -0.82  0.131517776346
-0.26  -0.8  0.15936609167
-0.26  -0.78  0.193111166261
-0.26  -0.76  0.234001613165
-0.26  -0.74  0.283550433795
-0.26  -0.72  0.343591001009
-0.26  -0.7  0.416344896371
-0.26  -0.68  0.504504111649
-0.26  -0.66  0.611330656119
-0.26  -0.64  0.740777255292
-0.26  -0.62  0.89763360706
-0.26  -0.6  1.08770360694
-0.26  -0.58  1.31802010002
-0.26  -0.56  1.59710510563
-0.26  -0.54  1.93528514351
-0.26  -0.52  2.34507332892
-0.26  -0.5  2.84163237467
-0.26  -0.48  3.44333563186
-0.26  -0.46  4.17244692849
-0.26  -0.44  5.05594436105
-0.26  -0.42  6.12651852022
-0.26  -0.4  7.42378208663
-0.26  -0.38  8.99573555322
-0.26  -0.36  10.9005433079
-0.26  -0.34  13.2086857938
-0.26  -0.32  16.0055673806
-0.26  -0.3  19.3946764405
-0.26  -0.28  23.5014145571
-0.26  -0.26  28.4777365519
-0.26  -0.24  34.5077730173
-0.26  -0.22  41.814643395
-0.26  -0.2  28.0455493539
-0.26  -0.18  26.467166727
-0.26  -0.16  24.7305635046
-0.26  -0.14  22.8720216733
-0.26  -0.12  20.9377022341
-0.26  -0.1  18.9875407666
-0.26  -0.08  17.1009751569
-0.26  -0.06  15.3840710083
-0.26  -0.04  13.9742637398
-0.26  -0.02  13.0312714145
-0.26  6.17561557e-16  12.6971964923
-0.26  0.02  13.0312714145
-0.26  0.04  13.9742637398
-0.26  0.06  15.3840710083
-0.26  0.08  17.1009751569
-0.26  0.1  18.9875407666
-0.26  0.12  20.9377022341
-0.26  0.14  22.8720216733
-0.26  0.16  24.7305635046
-0.26  0.18  26.467166727
-0.26  0.2  50.6687116949
-0.26  0.22  41.814643395
-0.26  0.24  34.5077730173
-0.26  0.26  28.4777365519
-0.26  0.28  23.5014145571
-0.26  0.3  19.3946764405
-0.26  0.32  16.0055673806
-0.26  0.34  13.2086857938
-0.26  0.36  10.9005433079
-0.26  0.38  8.99573555322
-0.26  0.4  7.42378208663
-0.26  0.42  6.12651852022
-0.26  0.44  5.05594436105
-0.26  0.46  4.17244692849
-0.26  0.48  3.44333563186
-0.26  0.5  2.84163237467
-0.26  0.52  2.34507332892
-0.26  0.54  1.93528514351
-0.26  0.56  1.59710510563
-0.26  0.58  1.31802010002
-0.26  0.6  1.08770360694
-0.26  0.62  0.89763360706
-0.26  0.64  0.740777255292
-0.26  0.66  0.611330656119
-0.26  0.68  0.504504111649
-0.26  0.7  0.416344896371
-0.26  0.72  0.343591001009
-0.26  0.74  0.283550433795
-0.26  0.76  0.234001613165
-0.26  0.78  0.193111166261
-0.26  0.8  0.15936609167
-0.26  0.82  0.131517776346
-0.26  0.84  0.108535795248
-0.26  0.86  0.0895697842335
-0.26  0.88  0.0739179754409
-0.26  0.9  0.0610012309401
-0.26  0.92  0.0503416138499
-0.26  0.94  0.0415447040322
-0.26  0.96  0.0342850040182
-0.26  0.98  0.0282938951645
-0.24  -1  0.0265522816338
-0.24  -0.98  0.0321746114211
-0.24  -0.96  0.0389874450104
-0.24  -0.94  0.0472428663876
-0.24  -0.92  0.0572463372226
-0.24  -0.9  0.0693679993615
-0.24  -0.88  0.084056370571
-0.24  -0.86  0.101854940298
-0.24  -0.84  0.123422279509
-0.24  -0.82  0.149556408699
-0.24  -0.8  0.18122432572
-0.24  -0.78  0.219597786003
-0.24  -0.76  0.266096659075
-0.24  -0.74  0.322441465644
-0.24  -0.72  0.390717039169
-0.24  -0.7  0.473449667499
-0.24  -0.68  0.573700568912
-0.24  -0.66  0.695179161301
-0.24  -0.64  0.842380315613
-0.24  -0.62  1.02075067211
-0.24  -0.6  1.23689017335
-0.24  -0.58  1.49879627095
-0.24  -0.56  1.81615984202
-0.24  -0.54  2.20072376459
-0.24  -0.52  2.6667174199
-0.24  -0.5  3.23138319857
-0.24  -0.48  3.91561449221
-0.24  -0.46  4.74472877696
-0.24  -0.44  5.74940439404
-0.24  -0.42  6.9668156896
-0.24  -0.4  8.44200851538
-0.24  -0.38  10.2295669857
-0.24  -0.36  12.3956331629
-0.24  -0.34  15.0203544025
-0.24  -0.32  18.2008489128
-0.24  -0.3  22.0547992591
-0.24  -0.28  26.7248067763
-0.24  -0.26  32.3836680098
-0.24  -0.24  39.2407684196
-0.24  -0.22  47.5498299234
-0.24  -0.2  31.8922031521
-0.24  -0.18  30.0973337148
-0.24  -0.16  28.1225425611
-0.24  -0.14  26.0090880197
-0.24  -0.12  23.8094624129
-0.24  -0.1  21.5918219268
-0.24  -0.08  19.4464999392
-0.24  -0.06  17.4941097325
-0.24  -0.04  15.8909370064
-0.24  -0.02  14.8186063335
-0.24  6.17561557e-16  14.4387105735
-0.24  0.02  14.8186063335
-0.24  0.04  15.8909370064
-0.24  0.06  17.4941097325
-0.24  0.08  19.4464999392
-0.24  0.1  21.5918219268
-0.24  0.12  23.8094624129
-0.24  0.14  26.0090880197
-0.24  0.16  28.1225425611
-0.24  0.18  30.0973337148
-0.24  0.2  57.6182989479
-0.24  0.22  47.5498299234
-0.24  0.24  39.2407684196
-0.24  0.26  32.3836680098
-0.24  0.28  26.7248067763
-0.24  0.3  22.0547992591
-0.24  0.32  18.2008489128
-0.24  0.34  15.0203544025
-0.24  0.36  12.3956331629
-0.24  0.38  10.2295669857
-0.24  0.4  8.44200851538
-0.24  0.42  6.9668156896
-0.24  0.44  5.74940439404
-0.24  0.46  4.74472877696
-0.24  0.48  3.91561449221
-0.24  0.5  3.23138319857
-0.24  0.52  2.6667174199
-0.24  0.54  2.20072376459
-0.24  0.56  1.81615984202
-0.24  0.58  1.49879627095
-0.24  0.6  1.23689017335
-0.24  0.62  1.02075067211
-0.24  0.64  0.842380315613
-0.24  0.66  0.695179161301
-0.24  0.68  0.573700568912
-0.24  0.7  0.473449667499
-0.24  0.72  0.390717039169
-0.24  0.74  0.322441465644
-0.24  0.76  0.266096659075
-0.24  0.78  0.219597786003
-0.24  0.8  0.18122432572
-0.24  0.82  0.149556408699
-0.24  0.84  0.123422279509
-0.24  0.86  0.101854940298
-0.24  0.88  0.084056370571
-0.24  0.9  0.0693679993615
-0.24  0.92  0.0572463372226
-0.24  0.94  0.0472428663876
-0.24  0.96  0.0389874450104
-0.24  0.98  0.0321746114211
-0.22  -1  0.0301941227584
-0.22  -0.98  0.0365875965143
-0.22  -0.96  0.0443348604431
-0.22  -0.94  0.0537225737071
-0.22  -0.92  0.0650980942959
-0.22  -0.9  0.0788823317375
-0.22  -0.88  0.0955853213162
-0.22  -0.86  0.115825096062
-0.22  -0.84  0.140350554804
-0.22  -0.82  0.170069172429
-0.22  -0.8  0.206080577672
-0.22  -0.78  0.249717240857
-0.22  -0.76  0.302593777082
-0.22  -0.74  0.36666668915
-0.22  -0.72  0.444306760796
-0.22  -0.7  0.538386778867
-0.22  -0.68  0.652387830289
-0.22  -0.66  0.790528106959
-0.22  -0.64  0.957918984502
-0.22  -0.62  1.16075415003
-0.22  -0.6  1.40653877689
-0.22  -0.58  1.70436722611
-0.22  -0.56  2.06525955001
-0.22  -0.54  2.50256924892
-0.22  -0.52  3.03247736857
-0.22  -0.5  3.67459122055
-0.22  -0.48  4.45266987911
-0.22  -0.46  5.39550329884
-0.22  -0.44  6.53797758157
-0.22  -0.42  7.92236580901
-0.22  -0.4  9.59989220348
-0.22  -0.38  11.6326274929
-0.22  -0.36  14.0957856108
-0.22  -0.34  17.0805067135
-0.22  -0.32  20.6972294871
-0.22  -0.3  25.0797775282
-0.22  -0.28  30.3903109957
-0.22  -0.26  36.825326755
-0.22  -0.24  44.622929025
-0.22  -0.22  54.0716395544
-0.22  -0.2  36.2664538698
-0.22  -0.18  34.2254048604
-0.22  -0.16  31.9797565452
-0.22  -0.14  29.5764261366
-0.22  -0.12  27.0751056659
-0.22  -0.1  24.5532994424
-0.22  -0.08  22.1137307326
-0.22  -0.06  19.8935558193
-0.22  -0.04  18.0704961379
-0.22  -0.02  16.8510874099
-0.22  6.17561557e-16  16.4190861464
-0.22  0.02  16.8510874099
-0.22  0.04  18.0704961379
-0.22  0.06  19.8935558193
-0.22  0.08  22.1137307326
-0.22  0.1  24.5532994424
-0.22  0.12  27.0751056659
-0.22  0.14  29.5764261366
-0.22  0.16  31.9797565452
-0.22  0.18  34.2254048604
-0.22  0.2  65.5210733133
-0.22  0.22  54.0716395544
-0.22  0.24  44.622929025
-0.22  0.26  36.8253267549
-0.22  0.28  30.3903109957
-0.22  0.3  25.0797775282
-0.22  0.32  20.6972294871
-0.22  0.34  17.0805067135
-0.22  0.36  14.0957856108
-0.22  0.38  11.6326274929
-0.22  0.4  9.59989220348
-0.22  0.42  7.92236580901
-0.22  0.44  6.53797758157
-0.22  0.46  5.39550329884
-0.22  0.48  4.45266987911
-0.22  0.5  3.67459122055
-0.22  0.52  3.03247736857
-0.22  0.54  2.50256924892
-0.22  0.56  2.06525955001
-0.22  0.58  1.70436722611
-0.22  0.6  1.40653877689
-0.22  0.62  1.16075415003
-0.22  0.64  0.957918984502
-0.22  0.66  0.790528106959
-0.22  0.68  0.652387830289
-0.22  0.7  0.538386778867
-0.22  0.72  0.444306760796
-0.22  0.74  0.36666668915
-0.22  0.76  0.302593777082
-0.22  0.78  0.249717240857
-0.22  0.8  0.206080577672
-0.22  0.82  0.170069172429
-0.22  0.84  0.140350554804
-0.22  0.86  0.115825096062
-0.22  0.88  0.0955853213162
-0.22  0.9  0.0788823317375
-0.22  0.92  0.0650980942959
-0.22  0.94  0.0537225737071
-0.22  0.96  0.0443348604431
-0.22  0.98  0.0365875965143
-0.2  -1  0.0343354692347
-0.2  -0.98  0.0416058550381
-0.2  -0.96  0.0504157133145
-0.2  -0.94  0.0610910206431
-0.2  -0.92  0.0740267777217
-0.2  -0.9  0.0897016249225
-0.2  -0.88  0.108695552628
-0.2  -0.86  0.131711361654
-0.2  -0.84  0.159600667822
-0.2  -0.82  0.19339541289
-0.2  -0.8  0.234346047777
-0.2  -0.78  0.283967800933
-0.2  -0.76  0.344096743818
-0.2  -0.74  0.416957728014
-0.2  -0.72  0.505246707718
-0.2  -0.7  0.612230493666
-0.2  -0.68  0.741867629514
-0.2  -0.66  0.898954863265
-0.2  -0.64  1.08930463339
-0.2  -0.62  1.31996013683
-0.2  -0.6  1.59945593676
-0.2  -0.58  1.93813375288
-0.2  -0.56  2.3485251189
-0.2  -0.54  2.84581506612
-0.2  -0.52  3.44840398996
-0.2  -0.5  4.17858848932
-0.2  -0.48  5.06338637058
-0.2  -0.46  6.1355363428
-0.2  -0.44  7.4347093938
-0.2  -0.42  9.00897667
-0.2  -0.4  10.9165881734
-0.2  -0.38  13.2281280896
-0.2  -0.36  16.0291264977
-0.2  -0.34  19.4232240978
-0.2  -0.32  23.5360070563
-0.2  -0.3  28.5196538619
-0.2  -0.28  34.5585661348
-0.2  -0.26  41.8761917334
-0.2  -0.24  50.7432926255
-0.2  -0.22  61.487963444
-0.2  -0.2  41.240665313
-0.2  -0.18  38.9196713888
-0.2  -0.16  36.3660158561
-0.2  -0.14  33.6330509687
-0.2  -0.12  30.7886559599
-0.2  -0.1  27.9209654264
-0.2  -0.08  25.1467918876
-0.2  -0.06  22.6221036215
-0.2  -0.04  20.5489978684
-0.2  -0.02  19.1623382459
-0.2  6.17561557e-16  18.6710848252
-0.2  0.02  19.1623382459
-0.2  0.04  20.5489978684
-0.2  0.06  22.6221036215
-0.2  0.08  25.1467918876
-0.2  0.1  27.9209654264
-0.2  0.12  30.7886559599
-0.2  0.14  33.6330509687
-0.2  0.16  36.3660158561
-0.2  0.18  38.9196713888
-0.2  0.2  74.5077714288
-0.2  0.22  61.487963444
-0.2  0.24  50.7432926255
-0.2  0.26  41.8761917334
-0.2  0.28  34.5585661348
-0.2  0.3  28.5196538619
-0.2  0.32  23.5360070563
-0.2  0.34  19.4232240978
-0.2  0.36  16.0291264977
-0.2  0.38  13.2281280896
-0.2  0.4  10.9165881734
-0.2  0.42  9.00897667
-0.2  0.44  7.4347093938
-0.2  0.46  6.1355363428
-0.2  0.48  5.06338637058
-0.2  0.5  4.17858848932
-0.2  0.52  3.44840398996
-0.2  0.54  2.84581506612
-0.2  0.56  2.3485251189
-0.2  0.58  1.93813375288
-0.2  0.6  1.59945593676
-0.2  0.62  1.31996013683
-0.2  0.64  1.08930463339
-0.2  0.66  0.898954863265
-0.2  0.68  0.741867629514
-0.2  0.7  0.612230493666
-0.2  0.72  0.505246707718
-0.2  0.74  0.416957728014
-0.2  0.76  0.344096743818
-0.2  0.78  0.283967800933
-0.2  0.8  0.234346047777
-0.2  0.82  0.19339541289
-0.2  0.84  0.159600667822
-0.2  0.86  0.131711361654
-0.2  0.88  0.108695552628
-0.2  0.9  0.0897016249225
-0.2  0.92  0.0740267777217
-0.2  0.94  0.0610910206431
-0.2  0.96  0.0504157133145
-0.2  0.98  0.0416058550381
-0.18  -1  0.0390448319033
-0.18  -0.98  0.0473124047046
-0.18  -0.96  0.0573305999749
-0.18  -0.94  0.069470104384
-0.18  -0.92  0.0841800958865
-0.18  -0.9  0.102004863909
-0.18  -0.88  0.123603948791
-0.18  -0.86  0.149776545658
-0.18  -0.84  0.181491075721
-0.18  -0.82  0.219921019152
-0.18  -0.8  0.266488335433
-0.18  -0.78  0.322916077762
-0.18  -0.76  0.391292148332
-0.18  -0.74  0.474146553518
-0.18  -0.72  0.574545017506
-0.18  -0.7  0.6962024182
-0.18  -0.68  0.843620242695
-0.18  -0.66  1.02225314834
-0.18  -0.64  1.23871079237
-0.18  -0.62  1.50100239811
-0.18  -0.6  1.81883310697
-0.18  -0.58  2.20396308173
-0.18  -0.56  2.67064264831
-0.18  -0.54  3.23613957697
-0.18  -0.52  3.92137801299
-0.18  -0.5  4.75171269812
-0.18  -0.48  5.75786713003
-0.18  -0.46  6.97707037301
-0.18  -0.44  8.45443458326
-0.18  -0.42  10.2446242192
-0.18  -0.4  12.4138787
-0.18  -0.38  15.0424633524
-0.18  -0.36  18.2276393364
-0.18  -0.34  22.087262438
-0.18  -0.32  26.7641438917
-0.18  -0.3  32.4313345877
-0.18  -0.28  39.2985281875
-0.18  -0.26  47.6198200702
-0.18  -0.24  57.7031092029
-0.18  -0.22  69.9214908156
-0.18  -0.2  46.8971265172
-0.18  -0.18  44.2577911698
-0.18  -0.16  41.3538829595
-0.18  -0.14  38.246071795
-0.18  -0.12  35.0115470467
-0.18  -0.1  31.7505316207
-0.18  -0.08  28.5958597346
-0.18  -0.06  25.7248918651
-0.18  -0.04  23.3674443785
-0.18  -0.02  21.7905941687
-0.18  6.17561557e-16  21.2319617206
-0.18  0.02  21.7905941687
-0.18  0.04  23.3674443785
-0.18  0.06  25.7248918651
-0.18  0.08  28.5958597346
-0.18  0.1  31.7505316207
-0.18  0.12  35.0115470467
-0.18  0.14  38.246071795
-0.18  0.16  41.3538829595
-0.18  0.18  44.2577911698
-0.18  0.2  84.7270614256
-0.18  0.22  69.9214908156
-0.18  0.24  57.7031092029
-0.18  0.26  47.6198200702
-0.18  0.28  39.2985281875
-0.18  0.3  32.4313345877
-0.18  0.32  26.7641438917
-0.18  0.34  22.087262438
-0.18  0.36  18.2276393364
-0.18  0.38  15.0424633524
-0.18  0.4  12.4138787
-0.18  0.42  10.2446242192
-0.18  0.44  8.45443458326
-0.18  0.46  6.97707037301
-0.18  0.48  5.75786713003
-0.18  0.5  4.75171269812
-0.18  0.52  3.92137801299
-0.18  0.54  3.23613957697
-0.18  0.56  2.67064264831
-0.18  0.58  2.20396308173
-0.18  0.6  1.81883310697
-0.18  0.62  1.50100239811
-0.18  0.64  1.23871079237
-0.18  0.66  1.02225314834
-0.18  0.68  0.843620242695
-0.18  0.7  0.6962024182
-0.18  0.72  0.574545017506
-0.18  0.74  0.474146553518
-0.18  0.76  0.391292148332
-0.18  0.78  0.322916077762
-0.18  0.8  0.266488335433
-0.18  0.82  0.219921019152
-0.18  0.84  0.181491075721
-0.18  0.86  0.149776545658
-0.18  0.88  0.123603948791
-0.18  0.9  0.102004863909
-0.18  0.92  0.0841800958865
-0.18  0.94  0.069470104384
-0.18  0.96  0.0573305999749
-0.18  0.98  0.0473124047046
-0.16  -1  0.0444001183713
-0.16  -0.98  0.0538016497169
-0.16  -0.96  0.0651939143058
-0.16  -0.94  0.0789984412164
-0.16  -0.92  0.0957260164706
-0.16  -0.9  0.115995582802
-0.16  -0.88  0.140557141367
-0.16  -0.86  0.170319502795
-0.16  -0.84  0.206383914401
-0.16  -0.82  0.250084807814
-0.16  -0.8  0.303039174739
-0.16  -0.78  0.367206397818
-0.16  -0.76  0.44496075042
-0.16  -0.74  0.53917924794
-0.16  -0.72  0.653348101231
-0.16  -0.7  0.791691711083
-0.16  -0.68  0.959328976723
-0.16  -0.66  1.16246270195
-0.16  -0.64  1.40860910722
-0.16  -0.62  1.70687593986
-0.16  -0.6  2.06829947296
-0.16  -0.58  2.50625286228
-0.16  -0.56  3.03694097099
-0.16  -0.54  3.6799999713
-0.16  -0.52  4.45922390924
-0.16  -0.5  5.40344511625
-0.16  -0.48  6.54760104418
-0.16  -0.46  7.93402699784
-0.16  -0.44  9.61402259816
-0.16  -0.42  11.649749937
-0.16  -0.4  14.1165336578
-0.16  -0.38  17.1056480688
-0.16  -0.36  20.7276944148
-0.16  -0.34  25.1166932714
-0.16  -0.32  30.4350434864
-0.16  -0.3  36.8795311554
-0.16  -0.28  44.6886109707
-0.16  -0.26  54.1512293656
-0.16  -0.24  65.6175159198
-0.16  -0.22  79.511738624
-0.16  -0.2  53.3294130653
-0.16  -0.18  50.3280734223
-0.16  -0.16  47.0258727983
-0.16  -0.14  43.4918024271
-0.16  -0.12  39.8136387701
-0.16  -0.1  36.1053510438
-0.16  -0.08  32.5179926575
-0.16  -0.06  29.2532503848
-0.16  -0.04  26.5724616003
-0.16  -0.02  24.7793347623
-0.16  6.17561557e-16  24.1440817567
-0.16  0.02  24.7793347623
-0.16  0.04  26.5724616003
-0.16  0.06  29.2532503848
-0.16  0.08  32.5179926575
-0.16  0.1  36.1053510438
-0.16  0.12  39.8136387701
-0.16  0.14  43.4918024271
-0.16  0.16  47.0258727983
-0.16  0.18  50.3280734223
-0.16  0.2  96.3480023647
-0.16  0.22  79.511738624
-0.16  0.24  65.6175159198
-0.16  0.26  54.1512293656
-0.16  0.28  44.6886109707
-0.16  0.3  36.8795311554
-0.16  0.32  30.4350434864
-0.16  0.34  25.1166932714
-0.16  0.36  20.7276944148
-0.16  0.38  17.1056480688
-0.16  0.4  14.1165336578
-0.16  0.42  11.649749937
-0.16  0.44  9.61402259816
-0.16  0.46  7.93402699784
-0.16  0.48  6.54760104418
-0.16  0.5  5.40344511625
-0.16  0.52  4.45922390924
-0.16  0.54  3.6799999713
-0.16  0.56  3.03694097099
-0.16  0.58  2.50625286228
-0.16  0.6  2.06829947296
-0.16  0.62  1.70687593986
-0.16  0.64  1.40860910722
-0.16  0.66  1.16246270195
-0.16  0.68  0.959328976723
-0.16  0.7  0.791691711083
-0.16  0.72  0.653348101231
-0.16  0.74  0.53917924794
-0.16  0.76  0.44496075042
-0.16  0.78  0.367206397818
-0.16  0.8  0.303039174739
-0.16  0.82  0.250084807814
-0.16  0.84  0.206383914401
-0.16  0.86  0.170319502795
-0.16  0.88  0.140557141367
-0.16  0.9  0.115995582802
-0.16  0.92  0.0957260164706
-0.16  0.94  0.0789984412164
-0.16  0.96  0.0651939143058
-0.16  0.98  0.0538016497169
-0.14  -1  0.0504899218485
-0.14  -0.98  0.0611809425104
-0.14  -0.96  0.0741357401521
-0.14  -0.94  0.0898336596721
-0.14  -0.92  0.10885554516
-0.14  -0.9  0.131905231906
-0.14  -0.88  0.159835589255
-0.14  -0.86  0.193680077911
-0.14  -0.84  0.234690989374
-0.14  -0.82  0.284385782408
-0.14  -0.8  0.344603231047
-0.14  -0.78  0.417571461704
-0.14  -0.76  0.505990396838
-0.14  -0.74  0.613131655713
-0.14  -0.72  0.742959608692
-0.14  -0.7  0.900278064271
-0.14  -0.68  1.09090801643
-0.14  -0.66  1.32190302924
-0.14  -0.64  1.60181022816
-0.14  -0.62  1.94098655521
-0.14  -0.6  2.35198198968
-0.14  -0.58  2.8500039142
-0.14  -0.56  3.45347980836
-0.14  -0.54  4.18473909011
-0.14  -0.52  5.07083933425
-0.14  -0.5  6.14456743901
-0.14  -0.48  7.44565278523
-0.14  -0.46  9.02223727682
-0.14  -0.44  10.9326566558
-0.14  -0.42  13.2475990031
-0.14  -0.4  16.0527202922
-0.14  -0.38  19.4518137754
-0.14  -0.36  23.5706504733
-0.14  -0.34  28.5616328713
-0.14  -0.32  34.6094340163
-0.14  -0.3  41.9378306669
-0.14  -0.28  50.8179833342
-0.14  -0.26  61.5784695844
-0.14  -0.24  74.6174418496
-0.14  -0.22  90.4173596023
-0.14  -0.2  60.6439351215
-0.14  -0.18  57.2309396257
-0.14  -0.16  53.4758178478
-0.14  -0.14  49.457023678
-0.14  -0.12  45.2743727662
-0.14  -0.1  41.057466047
-0.14  -0.08  36.9780750181
-0.14  -0.06  33.2655492806
-0.14  -0.04  30.2170705561
-0.14  -0.02  28.1780031563
-0.14  6.17561557e-16  27.455620519
-0.14  0.02  28.1780031563
-0.14  0.04  30.2170705561
-0.14  0.06  33.2655492806
-0.14  0.08  36.9780750181
-0.14  0.1  41.057466047
-0.14  0.12  45.2743727662
-0.14  0.14  49.457023678
-0.14  0.16  53.4758178478
-0.14  0.18  57.2309396257
-0.14  0.2  109.562841004
-0.14  0.22  90.4173596023
-0.14  0.24  74.6174418496
-0.14  0.26  61.5784695844
-0.14  0.28  50.8179833342
-0.14  0.3  41.9378306669
-0.14  0.32  34.6094340163
-0.14  0.34  28.5616328713
-0.14  0.36  23.5706504733
-0.14  0.38  19.4518137754
-0.14  0.4  16.0527202922
-0.14  0.42  13.2475990031
-0.14  0.44  10.9326566558
-0.14  0.46  9.02223727682
-0.14  0.48  7.44565278523
-0.14  0.5  6.14456743901
-0.14  0.52  5.07083933425
-0.14  0.54  4.18473909011
-0.14  0.56  3.45347980836
-0.14  0.58  2.8500039142
-0.14  0.6  2.35198198968
-0.14  0.62  1.94098655521
-0.14  0.64  1.60181022816
-0.14  0.66  1.32190302924
-0.14  0.68  1.09090801643
-0.14  0.7  0.900278064271
-0.14  0.72  0.742959608692
-0.14  0.74  0.613131655713
-0.14  0.76  0.505990396838
-0.14  0.78  0.417571461704
-0.14  0.8  0.344603231047
-0.14  0.82  0.284385782408
-0.14  0.84  0.234690989374
-0.14  0.86  0.193680077911
-0.14  0.88  0.159835589255
-0.14  0.9  0.131905231906
-0.14  0.92  0.10885554516
-0.14  0.94  0.0898336596721
-0.14  0.96  0.0741357401521
-0.14  0.98  0.0611809425104
-0.12  -1  0.0574149867564
-0.12  -0.98  0.0695723596982
-0.12  -0.96  0.0843040033173
-0.12  -0.94  0.102155008198
-0.12  -0.92  0.123785885478
-0.12  -0.9  0.149997006645
-0.12  -0.88  0.181758218359
-0.12  -0.86  0.220244728078
-0.12  -0.84  0.266880588312
-0.12  -0.82  0.323391388477
-0.12  -0.8  0.391868104017
-0.12  -0.78  0.474844465307
-0.12  -0.76  0.575390709071
-0.12  -0.74  0.697227181264
-0.12  -0.72  0.844861994867
-0.12  -0.7  1.02375783611
-0.12  -0.68  1.24053409121
-0.12  -0.66  1.50321177253
-0.12  -0.64  1.82151030679
-0.12  -0.62  2.20720716693
-0.12  -0.6  2.6745736544
-0.12  -0.58  3.24090295645
-0.12  -0.56  3.92715001729
-0.12  -0.54  4.75870689913
-0.12  -0.52  5.7663423226
-0.12  -0.5  6.98734015063
-0.12  -0.48  8.46687894148
-0.12  -0.46  10.259703616
-0.12  -0.44  12.4321510932
-0.12  -0.42  15.0646048452
-0.12  -0.4  18.2544691937
-0.12  -0.38  22.1197734006
-0.12  -0.36  26.8035389087
-0.12  -0.34  32.4790713277
-0.12  -0.32  39.3563729739
-0.12  -0.3  47.6899132377
-0.12  -0.28  57.7880442928
-0.12  -0.26  70.0244105402
-0.12  -0.24  84.8517739528
-0.12  -0.22  102.818766876
-0.12  -0.2  68.961697788
-0.12  -0.18  65.080584805
-0.12  -0.16  60.810420399
-0.12  -0.14  56.240418989
-0.12  -0.12  51.4840866772
-0.12  -0.1  46.6888001216
-0.12  -0.08  42.0498905467
-0.12  -0.06  37.8281645418
-0.12  -0.04  34.361564492
-0.12  -0.02  32.0428239698
-0.12  6.17561557e-16  31.2213612296
-0.12  0.02  32.0428239698
-0.12  0.04  34.361564492
-0.12  0.06  37.8281645418
-0.12  0.08  42.0498905467
-0.12  0.1  46.6888001216
-0.12  0.12  51.4840866772
-0.12  0.14  56.240418989
-0.12  0.16  60.810420399
-0.12  0.18  65.080584805
-0.12  0.2  124.590192159
-0.12  0.22  102.818766876
-0.12  0.24  84.8517739528
-0.12  0.26  70.0244105402
-0.12  0.28  57.7880442927
-0.12  0.3  47.6899132377
-0.12  0.32  39.3563729739
-0.12  0.34  32.4790713277
-0.12  0.36  26.8035389087
-0.12  0.38  22.1197734006
-0.12  0.4  18.2544691937
-0.12  0.42  15.0646048452
-0.12  0.44  12.4321510932
-0.12  0.46  10.259703616
-0.12  0.48  8.46687894148
-0.12  0.5  6.98734015063
-0.12  0.52  5.7663423226
-0.12  0.54  4.75870689913
-0.12  0.56  3.92715001728
-0.12  0.58  3.24090295645
-0.12  0.6  2.6745736544
-0.12  0.62  2.20720716693
-0.12  0.64  1.82151030679
-0.12  0.66  1.50321177253
-0.12  0.68  1.24053409121
-0.12  0.7  1.02375783611
-0.12  0.72  0.844861994867
-0.12  0.74  0.697227181264
-0.12  0.76  0.57539070907
-0.12  0.78  0.474844465307
-0.12  0.8  0.391868104017
-0.12  0.82  0.323391388477
-0.12  0.84  0.266880588312
-0.12  0.86  0.220244728078
-0.12  0.88  0.181758218359
-0.12  0.9  0.149997006645
-0.12  0.92  0.123785885478
-0.12  0.94  0.102155008198
-0.12  0.96  0.0843040033173
-0.12  0.98  0.0695723596982
-0.1  -1  0.0652898753562
-0.1  -0.98  0.0791147216006
-0.1  -0.96  0.0958669187188
-0.1  -0.94  0.116166320486
-0.1  -0.92  0.140764032011
-0.1  -0.9  0.17057020163
-0.1  -0.88  0.206687697621
-0.1  -0.86  0.250452915806
-0.1  -0.84  0.303485227992
-0.1  -0.82  0.367746900901
-0.1  -0.8  0.445615702672
-0.1  -0.78  0.539972883474
-0.1  -0.76  0.654309785627
-0.1  -0.74  0.792857027954
-0.1  -0.72  0.960741044357
-0.1  -0.7  1.16417376875
-0.1  -0.68  1.41068248494
-0.1  -0.66  1.70938834627
-0.1  -0.64  2.07134387046
-0.1  -0.62  2.50994189768
-0.1  -0.6  3.04141114353
-0.1  -0.58  3.68541668338
-0.1  -0.56  4.46578758647
-0.1  -0.54  5.41139862349
-0.1  -0.52  6.55723867187
-0.1  -0.5  7.94570535115
-0.1  -0.48  9.62817379183
-0.1  -0.46  11.6668975841
-0.1  -0.44  14.1373122444
-0.1  -0.42  17.1308264306
-0.1  -0.4  20.7582041848
-0.1  -0.38  25.153663352
-0.1  -0.36  30.4798418204
-0.1  -0.34  36.9338153411
-0.1  -0.32  44.7543895959
-0.1  -0.3  54.2309363276
-0.1  -0.28  65.7141004833
-0.1  -0.26  79.6287745474
-0.1  -0.24  96.4898201343
-0.1  -0.22  116.921118559
-0.1  -0.2  78.4203029086
-0.1  -0.18  74.0068666751
-0.1  -0.16  69.1510177483
-0.1  -0.14  63.9542069626
-0.1  -0.12  58.5455086187
-0.1  -0.1  53.0925131692
-0.1  -0.08  47.8173429559
-0.1  -0.06  43.016576114
-0.1  -0.04  39.0745063174
-0.1  -0.02  36.4377334428
-0.1  6.17561557e-16  35.5036010333
-0.1  0.02  36.4377334428
-0.1  0.04  39.0745063174
-0.1  0.06  43.016576114
-0.1  0.08  47.8173429559
-0.1  0.1  53.0925131692
-0.1  0.12  58.5455086187
-0.1  0.14  63.9542069626
-0.1  0.16  69.1510177483
-0.1  0.18  74.0068666751
-0.1  0.2  141.678655282
-0.1  0.22  116.921118559
-0.1  0.24  96.4898201343
-0.1  0.26  79.6287745474
-0.1  0.28  65.7141004833
-0.1  0.3  54.2309363276
-0.1  0.32  44.7543895959
-0.1  0.34  36.9338153411
-0.1  0.36  30.4798418204
-0.1  0.38  25.153663352
-0.1  0.4  20.7582041848
-0.1  0.42  17.1308264306
-0.1  0.44  14.1373122444
-0.1  0.46  11.6668975841
-0.1  0.48  9.62817379182
-0.1  0.5  7.94570535115
-0.1  0.52  6.55723867187
-0.1  0.54  5.41139862349
-0.1  0.56  4.46578758647
-0.1  0.58  3.68541668338
-0.1  0.6  3.04141114353
-0.1  0.62  2.50994189768
-0.1  0.64  2.07134387046
-0.1  0.66  1.70938834627
-0.1  0.68  1.41068248494
-0.1  0.7  1.16417376875
-0.1  0.72  0.960741044357
-0.1  0.74  0.792857027954
-0.1  0.76  0.654309785627
-0.1  0.78  0.539972883474
-0.1  0.8  0.445615702672
-0.1  0.82  0.367746900901
-0.1  0.84  0.303485227992
-0.1  0.86  0.250452915806
-0.1  0.88  0.206687697621
-0.1  0.9  0.17057020163
-0.1  0.92  0.140764032011
-0.1  0.94  0.116166320486
-0.1  0.96  0.0958669187188
-0.1  0.98  0.0791147216006
-0.08  -1  0.0742448629679
-0.08  -0.98  0.089965888768
-0.08  -0.96  0.10901577319
-0.08  -0.94  0.132099387523
-0.08  -0.92  0.160070856476
-0.08  -0.9  0.193965161939
-0.08  -0.88  0.235036438702
-0.08  -0.86  0.284804379124
-0.08  -0.84  0.345110463791
-0.08  -0.82  0.418186098768
-0.08  -0.8  0.506735180619
-0.08  -0.78  0.61403414421
-0.08  -0.76  0.744053195191
-0.08  -0.74  0.901603212939
-0.08  -0.72  1.09251375955
-0.08  -0.7  1.32384878145
-0.08  -0.68  1.60416798492
-0.08  -0.66  1.94384355668
-0.08  -0.64  2.35544394874
-0.08  -0.62  2.85419892799
-0.08  -0.6  3.45856309801
-0.08  -0.58  4.19089874416
-0.08  -0.56  5.07830326818
-0.08  -0.54  6.15361182838
-0.08  -0.52  7.45661228459
-0.08  -0.5  9.03551740236
-0.08  -0.48  10.94874879
-0.08  -0.46  13.2670985764
-0.08  -0.44  16.0763488151
-0.08  -0.42  19.480445535
-0.08  -0.4  23.6053448831
-0.08  -0.38  28.603673671
-0.08  -0.36  34.6603767719
-0.08  -0.34  41.9995603287
-0.08  -0.32  50.8927839826
-0.08  -0.3  61.6691089437
-0.08  -0.28  74.7272736978
-0.08  -0.26  90.5504478652
-0.08  -0.24  109.724110125
-0.08  -0.22  132.957711714
-0.08  -0.2  89.1762254344
-0.08  -0.18  84.1574538931
-0.08  -0.16  78.6355894969
-0.08  -0.14  72.7259978098
-0.08  -0.12  66.5754566242
-0.08  -0.1  60.3745426585
-0.08  -0.08  54.3758439709
-0.08  -0.06  48.9166165735
-0.08  -0.04  44.43386285
-0.08  -0.02  41.4354371418
-0.08  6.17561557e-16  40.3731815876
-0.08  0.02  41.4354371418
-0.08  0.04  44.43386285
-0.08  0.06  48.9166165735
-0.08  0.08  54.3758439709
-0.08  0.1  60.3745426585
-0.08  0.12  66.5754566242
-0.08  0.14  72.7259978098
-0.08  0.16  78.6355894969
-0.08  0.18  84.1574538931
