-0.38  0.88  0.0424953770583
-0.38  0.9  0.0352255251605
-0.38  0.92  0.0291993555237
-0.38  0.94  0.024204106514
-0.38  0.96  0.0200634144704
-0.38  0.98  0.0166310869596
-0.36  -1  0.0156171945151
-0.36  -0.98  0.0188402746726
-0.36  -0.96  0.0227285348463
-0.36  -0.94  0.0274192550395
-0.36  -0.92  0.0330780471334
-0.36  -0.9  0.0399047020273
-0.36  -0.88  0.0481402435114
-0.36  -0.86  0.0580754379209
-0.36  -0.84  0.0700610600133
-0.36  -0.82  0.0845202775203
-0.36  -0.8  0.101963591626
-0.36  -0.78  0.123006860867
-0.36  -0.76  0.148393044801
-0.36  -0.74  0.179018435151
-0.36  -0.72  0.215964300531
-0.36  -0.7  0.260535062014
-0.36  -0.68  0.314304347394
-0.36  -0.66  0.379170550125
-0.36  -0.64  0.457423854535
-0.36  -0.62  0.551827093714
-0.36  -0.6  0.665713294875
-0.36  -0.58  0.803103356145
-0.36  -0.56  0.968848009521
-0.36  -0.54  1.16879908217
-0.36  -0.52  1.4100161027
-0.36  -0.5  1.7010155468
-0.36  -0.48  2.05207152239
-0.36  -0.46  2.4755785101
-0.36  -0.44  2.9864889663
-0.36  -0.42  3.6028412387
-0.36  -0.4  4.34639643332
-0.36  -0.38  5.24340671819
-0.36  -0.36  6.32554218976
-0.36  -0.34  7.63100902617
-0.36  -0.32  9.20589840532
-0.36  -0.3  11.1058138129
-0.36  -0.28  13.3978341946
-0.36  -0.26  16.1628822641
-0.36  -0.24  19.4985815834
-0.36  -0.22  23.5227032873
-0.36  -0.2  16.009700681
-0.36  -0.18  15.1449656029
-0.36  -0.16  14.1863698385
-0.36  -0.14  13.1551998193
-0.36  -0.12  12.0785354259
-0.36  -0.1  10.991389837
-0.36  -0.08  9.93976314643
-0.36  -0.06  8.98423403156
-0.36  -0.04  8.20185543962
-0.36  -0.02  7.68027231169
-0.36  6.17561557e-16  7.49592108491
-0.36  0.02  7.68027231169
-0.36  0.04  8.20185543962
-0.36  0.06  8.98423403156
-0.36  0.08  9.93976314643
-0.36  0.1  10.991389837
-0.36  0.12  12.0785354259
-0.36  0.14  13.1551998193
-0.36  0.16  14.1863698385
-0.36  0.18  15.1449656029
-0.36  0.2  28.3773241439
-0.36  0.22  23.5227032873
-0.36  0.24  19.4985815834
-0.36  0.26  16.1628822641
-0.36  0.28  13.3978341946
-0.36  0.3  11.1058138129
-0.36  0.32  9.20589840532
-0.36  0.34  7.63100902617
-0.36  0.36  6.32554218976
-0.36  0.38  5.24340671819
-0.36  0.4  4.34639643332
-0.36  0.42  3.6028412387
-0.36  0.44  2.9864889663
-0.36  0.46  2.4755785101
-0.36  0.48  2.05207152239
-0.36  0.5  1.7010155468
-0.36  0.52  1.4100161027
-0.36  0.54  1.16879908217
-0.36  0.56  0.968848009521
-0.36  0.58  0.803103356145
-0.36  0.6  0.665713294875
-0.36  0.62  0.551827093714
-0.36  0.64  0.457423854535
-0.36  0.66  0.379170550125
-0.36  0.68  0.314304347394
-0.36  0.7  0.260535062014
-0.36  0.72  0.215964300531
-0.36  0.74  0.179018435151
-0.36  0.76  0.148393044801
-0.36  0.78  0.123006860867
-0.36  0.8  0.101963591626
-0.36  0.82  0.0845202775203
-0.36  0.84  0.0700610600133
-0.36  0.86  0.0580754379209
-0.36  0.88  0.0481402435114
-0.36  0.9  0.0399047020273
-0.36  0.92  0.0330780471334
-0.36  0.94  0.0274192550395
-0.36  0.96  0.0227285348463
-0.36  0.98  0.0188402746726
-0.34  -1  0.0176917019913
-0.34  -0.98  0.0213429194737
-0.34  -0.96  0.025747676051
-0.34  -0.94  0.0310614872929
-0.34  -0.92  0.037471964108
-0.34  -0.9  0.0452054365869
-0.34  -0.88  0.0545349448755
-0.34  -0.86  0.0657898792076
-0.34  -0.84  0.0793676094481
-0.34  -0.82  0.0957475147449
-0.34  -0.8  0.115507908624
-0.34  -0.78  0.139346457088
-0.34  -0.76  0.168104810608
-0.34  -0.74  0.202798319671
-0.34  -0.72  0.244651883029
-0.34  -0.7  0.295143194316
-0.34  -0.68  0.356054913915
-0.34  -0.66  0.429537608064
-0.34  -0.64  0.518185677351
-0.34  -0.62  0.625128955349
-0.34  -0.6  0.754143211393
-0.34  -0.58  0.909783458955
-0.34  -0.56  1.09754477622
-0.34  -0.54  1.32405631687
-0.34  -0.52  1.59731536082
-0.34  -0.5  1.92696966843
-0.34  -0.48  2.32465810705
-0.34  -0.46  2.80442157613
-0.34  -0.44  3.38319873912
-0.34  -0.42  4.0814240647
-0.34  -0.4  4.92374929185
-0.34  -0.38  5.93991379103
-0.34  -0.36  7.16579455076
-0.34  -0.34  8.64467286063
-0.34  -0.32  10.4287624126
-0.34  -0.3  12.5810527722
-0.34  -0.28  15.177533306
-0.34  -0.26  18.3098760831
-0.34  -0.24  22.0886724753
-0.34  -0.22  26.6473377267
-0.34  -0.2  18.1363466495
-0.34  -0.18  17.1567446289
-0.34  -0.16  16.0708139531
-0.34  -0.14  14.9026686332
-0.34  -0.12  13.6829857014
-0.34  -0.1  12.4514293062
-0.34  -0.08  11.2601099564
-0.34  -0.06  10.177653288
-0.34  -0.04  9.29134756393
-0.34  -0.02  8.70048002661
-0.34  6.17561557e-16  8.49164053481
-0.34  0.02  8.70048002661
-0.34  0.04  9.29134756393
-0.34  0.06  10.177653288
-0.34  0.08  11.2601099564
-0.34  0.1  12.4514293062
-0.34  0.12  13.6829857014
-0.34  0.14  14.9026686332
-0.34  0.16  16.0708139531
-0.34  0.18  17.1567446289
-0.34  0.2  32.14682135
-0.34  0.22  26.6473377267
-0.34  0.24  22.0886724753
-0.34  0.26  18.3098760831
-0.34  0.28  15.177533306
-0.34  0.3  12.5810527722
-0.34  0.32  10.4287624126
-0.34  0.34  8.64467286063
-0.34  0.36  7.16579455076
-0.34  0.38  5.93991379103
-0.34  0.4  4.92374929185
-0.34  0.42  4.0814240647
-0.34  0.44  3.38319873912
-0.34  0.46  2.80442157613
-0.34  0.48  2.32465810705
-0.34  0.5  1.92696966843
-0.34  0.52  1.59731536082
-0.34  0.54  1.32405631687
-0.34  0.56  1.09754477622
-0.34  0.58  0.909783458955
-0.34  0.6  0.754143211393
-0.34  0.62  0.625128955349
-0.34  0.64  0.518185677351
-0.34  0.66  0.429537608064
-0.34  0.68  0.356054913915
-0.34  0.7  0.295143194316
-0.34  0.72  0.244651883029
-0.34  0.74  0.202798319671
-0.34  0.76  0.168104810608
-0.34  0.78  0.139346457088
-0.34  0.8  0.115507908624
-0.34  0.82  0.0957475147449
-0.34  0.84  0.0793676094481
-0.34  0.86  0.0657898792076
-0.34  0.88  0.0545349448755
-0.34  0.9  0.0452054365869
-0.34  0.92  0.037471964108
-0.34  0.94  0.0310614872929
-0.34  0.96  0.025747676051
-0.34  0.98  0.0213429194737
-0.32  -1  0.0200417763283
-0.32  -0.98  0.0241780026872
-0.32  -0.96  0.0291678643832
-0.32  -0.94  0.0351875348713
-0.32  -0.92  0.0424495463245
-0.32  -0.9  0.0512102933537
-0.32  -0.88  0.0617790853483
-0.32  -0.86  0.0745290670394
-0.32  -0.84  0.0899103928531
-0.32  -0.82  0.108466120188
-0.32  -0.8  0.130851382752
-0.32  -0.78  0.157856520898
-0.32  -0.76  0.190434985599
-0.32  -0.74  0.229737001258
-0.32  -0.72  0.277150175851
-0.32  -0.7  0.334348492205
-0.32  -0.68  0.403351410102
-0.32  -0.66  0.486595165896
-0.32  -0.64  0.587018786952
-0.32  -0.62  0.708167857771
-0.32  -0.6  0.854319701391
-0.32  -0.58  1.03063439575
-0.32  -0.56  1.24333695686
-0.32  -0.54  1.49993712091
-0.32  -0.52  1.80949448522
-0.32  -0.5  2.1829383688
-0.32  -0.48  2.63345368606
-0.32  -0.46  3.17694645699
-0.32  -0.44  3.83260538965
-0.32  -0.42  4.62357936202
-0.32  -0.4  5.57779472279
-0.32  -0.38  6.72894126683
-0.32  -0.36  8.11766169655
-0.32  -0.34  9.79298656455
-0.32  -0.32  11.81406536
-0.32  -0.3  14.2522548571
-0.32  -0.28  17.1936384574
-0.32  -0.26  20.7420654745
-0.32  -0.24  25.0228176666
-0.32  -0.22  30.1870324703
-0.32  -0.2  20.5454852869
-0.32  -0.18  19.4357579923
-0.32  -0.16  18.205577893
-0.32  -0.14  16.8822621809
-0.32  -0.12  15.5005628666
-0.32  -0.1  14.1054128793
-0.32  -0.08  12.7558448187
-0.32  -0.06  11.529600196
-0.32  -0.04  10.5255621962
-0.32  -0.02  9.85620686628
-0.32  6.17561557e-16  9.61962621479
-0.32  0.02  9.85620686628
-0.32  0.04  10.5255621962
-0.32  0.06  11.529600196
-0.32  0.08  12.7558448187
-0.32  0.1  14.1054128793
-0.32  0.12  15.5005628666
-0.32  0.14  16.8822621809
-0.32  0.16  18.205577893
-0.32  0.18  19.4357579923
-0.32  0.2  36.4170391001
-0.32  0.22  30.1870324703
-0.32  0.24  25.0228176666
-0.32  0.26  20.7420654745
-0.32  0.28  17.1936384574
-0.32  0.3  14.2522548571
-0.32  0.32  11.81406536
-0.32  0.34  9.79298656455
-0.32  0.36  8.11766169655
-0.32  0.38  6.72894126683
-0.32  0.4  5.57779472279
-0.32  0.42  4.62357936202
-0.32  0.44  3.83260538965
-0.32  0.46  3.17694645699
-0.32  0.48  2.63345368606
-0.32  0.5  2.1829383688
-0.32  0.52  1.80949448522
-0.32  0.54  1.49993712091
-0.32  0.56  1.24333695686
-0.32  0.58  1.03063439575
-0.32  0.6  0.854319701391
-0.32  0.62  0.708167857771
-0.32  0.64  0.587018786952
-0.32  0.66  0.486595165896
-0.32  0.68  0.403351410102
-0.32  0.7  0.334348492205
-0.32  0.72  0.277150175851
-0.32  0.74  0.229737001258
-0.32  0.76  0.190434985599
-0.32  0.78  0.157856520898
-0.32  0.8  0.130851382752
-0.32  0.82  0.108466120188
-0.32  0.84  0.0899103928531
-0.32  0.86  0.0745290670394
-0.32  0.88  0.0617790853483
-0.32  0.9  0.0512102933537
-0.32  0.92  0.0424495463245
-0.32  0.94  0.0351875348713
-0.32  0.96  0.0291678643832
-0.32  0.98  0.0241780026872
-0.3  -1  0.0227040224052
-0.3  -0.98  0.0273896837152
-0.3  -0.96  0.0330423728724
-0.3  -0.94  0.0398616653042
-0.3  -0.92  0.0480883248596
-0.3  -0.9  0.058012804286
-0.3  -0.88  0.0699855000345
-0.3  -0.86  0.0844291234559
-0.3  -0.84  0.101853625165
-0.3  -0.82  0.122874199502
-0.3  -0.8  0.148233004754
-0.3  -0.78  0.178825366003
-0.3  -0.76  0.215731385729
-0.3  -0.74  0.260254078202
-0.3  -0.72  0.313965374078
-0.3  -0.7  0.378761619419
-0.3  -0.68  0.456930528617
-0.3  -0.66  0.551231955081
-0.3  -0.64  0.664995331395
-0.3  -0.62  0.802237219199
-0.3  -0.6  0.967803119036
-0.3  -0.58  1.16753854695
-0.3  -0.56  1.40849541793
-0.3  -0.54  1.69918102277
-0.3  -0.52  2.04985838887
-0.3  -0.5  2.47290862958
-0.3  -0.48  2.98326807523
-0.3  -0.46  3.5989556194
-0.3  -0.44  4.34170889902
-0.3  -0.42  5.23775176949
-0.3  -0.4  6.31872017146
-0.3  -0.38  7.62277907818
-0.3  -0.36  9.19596995879
-0.3  -0.34  11.0938363313
-0.3  -0.32  13.3833847976
-0.3  -0.3  16.1454507973
-0.3  -0.28  19.4775526066
-0.3  -0.26  23.4973343454
-0.3  -0.24  28.346719554
-0.3  -0.22  34.1969219855
-0.3  -0.2  23.2746414608
-0.3  -0.18  22.0175037227
-0.3  -0.16  20.6239128514
-0.3  -0.14  19.1248147133
-0.3  -0.12  17.5595775968
-0.3  -0.1  15.9791030894
-0.3  -0.08  14.4502653765
-0.3  -0.06  13.0611327501
-0.3  -0.04  11.923723527
-0.3  -0.02  11.1654544915
-0.3  6.17561557e-16  10.8974476879
-0.3  0.02  11.1654544915
-0.3  0.04  11.923723527
-0.3  0.06  13.0611327501
-0.3  0.08  14.4502653765
-0.3  0.1  15.9791030894
-0.3  0.12  17.5595775968
-0.3  0.14  19.1248147133
-0.3  0.16  20.6239128514
-0.3  0.18  22.0175037227
-0.3  0.2  41.2544905259
-0.3  0.22  34.1969219855
-0.3  0.24  28.346719554
-0.3  0.26  23.4973343454
-0.3  0.28  19.4775526066
-0.3  0.3  16.1454507973
-0.3  0.32  13.3833847976
-0.3  0.34  11.0938363313
-0.3  0.36  9.19596995879
-0.3  0.38  7.62277907818
-0.3  0.4  6.31872017146
-0.3  0.42  5.23775176949
-0.3  0.44  4.34170889902
-0.3  0.46  3.5989556194
-0.3  0.48  2.98326807523
-0.3  0.5  2.47290862958
-0.3  0.52  2.04985838887
-0.3  0.54  1.69918102277
-0.3  0.56  1.40849541793
-0.3  0.58  1.16753854695
-0.3  0.6  0.967803119036
-0.3  0.62  0.802237219199
-0.3  0.64  0.664995331395
-0.3  0.66  0.551231955081
-0.3  0.68  0.456930528617
-0.3  0.7  0.378761619419
-0.3  0.72  0.313965374078
-0.3  0.74  0.260254078202
-0.3  0.76  0.215731385729
-0.3  0.78  0.178825366003
-0.3  0.8  0.148233004754
-0.3  0.82  0.122874199502
-0.3  0.84  0.101853625165
-0.3  0.86  0.0844291234559
-0.3  0.88  0.0699855000345
-0.3  0.9  0.058012804286
-0.3  0.92  0.0480883248596
-0.3  0.94  0.0398616653042
-0.3  0.96  0.0330423728724
-0.3  0.98  0.0273896837152
-0.28  -1  0.0257199075037
-0.28  -0.98  0.0310279878666
-0.28  -0.96  0.0374315510624
-0.28  -0.94  0.0451566830877
-0.28  -0.92  0.0544761296182
-0.28  -0.9  0.065718925644
-0.28  -0.88  0.0792820124719
-0.28  -0.86  0.0956442522453
-0.28  -0.84  0.115383334786
-0.28  -0.82  0.139196173673
-0.28  -0.8  0.167923511668
-0.28  -0.78  0.202579604215
-0.28  -0.76  0.244388029027
-0.28  -0.74  0.294824886065
-0.28  -0.72  0.355670913134
-0.28  -0.7  0.429074357114
-0.28  -0.68  0.517626820566
-0.28  -0.66  0.624454761573
-0.28  -0.64  0.753329877352
-0.28  -0.62  0.90880226885
-0.28  -0.6  1.09636108788
-0.28  -0.58  1.32262833866
-0.28  -0.56  1.59559267614
-0.28  -0.54  1.92489145569
-0.28  -0.52  2.3221509923
-0.28  -0.5  2.80139704246
-0.28  -0.48  3.37955000151
-0.28  -0.46  4.07702229979
-0.28  -0.44  4.91843908969
-0.28  -0.42  5.93350766814
-0.28  -0.4  7.15806633078
-0.28  -0.38  8.63534968884
-0.28  -0.36  10.4175151225
-0.28  -0.34  12.5674842638
-0.28  -0.32  15.1611645257
-0.28  -0.3  18.2901291103
-0.28  -0.28  22.0648501177
-0.28  -0.26  26.6185989056
-0.28  -0.24  32.1121514044
-0.28  -0.22  38.7394645179
-0.28  -0.2  26.3663246482
-0.28  -0.18  24.9421952245
-0.28  -0.16  23.363486938
-0.28  -0.14  21.6652563441
-0.28  -0.12  19.8921012116
-0.28  -0.1  18.1016846318
-0.28  -0.08  16.3697640116
-0.28  -0.06  14.7961061803
-0.28  -0.04  13.5076093893
-0.28  -0.02  12.6486158106
-0.28  6.17561557e-16  12.3450083671
-0.28  0.02  12.6486158106
-0.28  0.04  13.5076093893
-0.28  0.06  14.7961061803
-0.28  0.08  16.3697640116
-0.28  0.1  18.1016846318
-0.28  0.12  19.8921012116
-0.28  0.14  21.6652563441
-0.28  0.16  23.363486938
-0.28  0.18  24.9421952245
-0.28  0.2  46.7345240197
-0.28  0.22  38.7394645179
-0.28  0.24  32.1121514044
-0.28  0.26  26.6185989056
-0.28  0.28  22.0648501177
-0.28  0.3  18.2901291103
-0.28  0.32  15.1611645257
-0.28  0.34  12.5674842638
-0.28  0.36  10.4175151225
-0.28  0.38  8.63534968884
-0.28  0.4  7.15806633078
-0.28  0.42  5.93350766814
-0.28  0.44  4.91843908969
-0.28  0.46  4.07702229979
-0.28  0.48  3.37955000151
-0.28  0.5  2.80139704246
-0.28  0.52  2.3221509923
-0.28  0.54  1.92489145569
-0.28  0.56  1.59559267614
-0.28  0.58  1.32262833866
-0.28  0.6  1.09636108788
-0.28  0.62  0.90880226885
-0.28  0.64  0.753329877352
-0.28  0.66  0.624454761573
-0.28  0.68  0.517626820566
-0.28  0.7  0.429074357114
-0.28  0.72  0.355670913134
-0.28  0.74  0.294824886065
-0.28  0.76  0.244388029027
-0.28  0.78  0.202579604215
-0.28  0.8  0.167923511668
-0.28  0.82  0.139196173673
-0.28  0.84  0.115383334786
-0.28  0.86  0.0956442522453
-0.28  0.88  0.0792820124719
-0.28  0.9  0.065718925644
-0.28  0.92  0.0544761296181
-0.28  0.94  0.0451566830877
-0.28  0.96  0.0374315510624
-0.28  0.98  0.0310279878666
-0.26  -1  0.0291364072055
-0.26  -0.98  0.0351495855541
-0.26  -0.96  0.0424037650186
-0.26  -0.94  0.0511550636915
-0.26  -0.92  0.0617124573758
-0.26  -0.9  0.0744486883708
-0.26  -0.88  0.0898134256166
-0.26  -0.86  0.108349140831
-0.26  -0.84  0.130710261169
-0.26  -0.82  0.157686274611
-0.26  -0.8  0.190229603844
-0.26  -0.78  0.229489232769
-0.26  -0.76  0.276851272845
-0.26  -0.74  0.333987901529
-0.26  -0.72  0.402916400641
-0.26  -0.7  0.486070379083
-0.26  -0.68  0.586385694517
-0.26  -0.66  0.707404107575
-0.26  -0.64  0.853398328256
-0.26  -0.62  1.02952286942
-0.26  -0.6  1.24199603347
-0.26  -0.58  1.49831945745
-0.26  -0.56  1.807542968
-0.26  -0.54  2.18058409702
-0.26  -0.52  2.63061353912
-0.26  -0.5  3.17352015989
-0.26  -0.48  3.82847197257
-0.26  -0.46  4.61859288939
-0.26  -0.44  5.5717791408
-0.26  -0.42  6.72168418766
-0.26  -0.4  8.10890689973
-0.26  -0.38  9.78242495077
-0.26  -0.36  11.801324038
-0.26  -0.34  14.2368839781
-0.26  -0.32  17.175095333
-0.26  -0.3  20.7196954157
-0.26  -0.28  24.9958308701
-0.26  -0.26  30.1544761325
-0.26  -0.24  36.377763778
-0.26  -0.22  43.8854149437
-0.26  -0.2  29.8686910655
-0.26  -0.18  28.255387643
-0.26  -0.16  26.4669718997
-0.26  -0.14  24.543157123
-0.26  -0.12  22.5344652188
-0.26  -0.1  20.5062189458
-0.26  -0.08  18.5442389336
-0.26  -0.06  16.761544522
-0.26  -0.04  15.3018904707
-0.26  -0.02  14.3287926206
-0.26  6.17561557e-16  13.9848555321
-0.26  0.02  14.3287926206
-0.26  0.04  15.3018904707
-0.26  0.06  16.761544522
-0.26  0.08  18.5442389336
-0.26  0.1  20.5062189458
-0.26  0.12  22.5344652188
-0.26  0.14  24.543157123
-0.26  0.16  26.4669718997
-0.26  0.18  28.255387643
-0.26  0.2  52.9424968654
-0.26  0.22  43.8854149437
-0.26  0.24  36.377763778
-0.26  0.26  30.1544761325
-0.26  0.28  24.9958308701
-0.26  0.3  20.7196954157
-0.26  0.32  17.175095333
-0.26  0.34  14.2368839781
-0.26  0.36  11.801324038
-0.26  0.38  9.78242495077
-0.26  0.4  8.10890689973
-0.26  0.42  6.72168418766
-0.26  0.44  5.5717791408
-0.26  0.46  4.61859288939
-0.26  0.48  3.82847197257
-0.26  0.5  3.17352015989
-0.26  0.52  2.63061353912
-0.26  0.54  2.18058409702
-0.26  0.56  1.807542968
-0.26  0.58  1.49831945745
-0.26  0.6  1.24199603347
-0.26  0.62  1.02952286942
-0.26  0.64  0.853398328256
-0.26  0.66  0.707404107575
-0.26  0.68  0.586385694517
-0.26  0.7  0.486070379083
-0.26  0.72  0.402916400641
-0.26  0.74  0.333987901529
-0.26  0.76  0.276851272845
-0.26  0.78  0.229489232769
-0.26  0.8  0.190229603844
-0.26  0.82  0.157686274611
-0.26  0.84  0.130710261169
-0.26  0.86  0.108349140831
-0.26  0.88  0.0898134256166
-0.26  0.9  0.0744486883708
-0.26  0.92  0.0617124573758
-0.26  0.94  0.0511550636915
-0.26  0.96  0.0424037650186
-0.26  0.98  0.0351495855541
-0.24  -1  0.0330067370857
-0.24  -0.98  0.0398186749957
-0.24  -0.96  0.0480364622015
-0.24  -0.94  0.0579502382006
-0.24  -0.92  0.0699100215462
-0.24  -0.9  0.0843380677
-0.24  -0.88  0.101743777302
-0.24  -0.86  0.122741681212
-0.24  -0.84  0.148073137308
-0.24  -0.82  0.178632505078
-0.24  -0.8  0.215498722122
-0.24  -0.78  0.259973397427
-0.24  -0.76  0.313626766341
-0.24  -0.74  0.37835312974
-0.24  -0.72  0.456437734745
-0.24  -0.7  0.550637458297
-0.24  -0.68  0.66427814223
-0.24  -0.66  0.801372016371
-0.24  -0.64  0.966759355451
-0.24  -0.62  1.1662793712
-0.24  -0.6  1.4069763732
-0.24  -0.58  1.69734847724
-0.24  -0.56  2.04764764218
-0.24  -0.54  2.47024162849
-0.24  -0.52  2.98005065784
-0.24  -0.5  3.59507419068
-0.24  -0.48  4.33702642016
-0.24  -0.46  5.23210291958
-0.24  -0.44  6.31190551062
-0.24  -0.42  7.61455800609
-0.24  -0.4  9.18605221997
-0.24  -0.38  11.0818717673
-0.24  -0.36  13.3689509841
-0.24  -0.34  16.1280381302
-0.24  -0.32  19.4565463092
-0.24  -0.3  23.4719927635
-0.24  -0.28  28.3161479708
-0.24  -0.26  34.160041032
-0.24  -0.24  41.2099980728
-0.24  -0.22  49.7149268518
-0.24  -0.2  33.8362937523
-0.24  -0.18  32.0086874339
-0.24  -0.16  29.9827077782
-0.24  -0.14  27.8033433807
-0.24  -0.12  25.5278272163
-0.24  -0.1  23.2301591817
-0.24  -0.08  21.0075598759
-0.24  -0.06  18.9880615439
-0.24  -0.04  17.3345145858
-0.24  -0.02  16.2321554421
-0.24  6.17561557e-16  15.8425315268
-0.24  0.02  16.2321554421
-0.24  0.04  17.3345145858
-0.24  0.06  18.9880615439
-0.24  0.08  21.0075598759
-0.24  0.1  23.2301591817
-0.24  0.12  25.5278272163
-0.24  0.14  27.8033433807
-0.24  0.16  29.9827077782
-0.24  0.18  32.0086874339
-0.24  0.2  59.9751047674
-0.24  0.22  49.7149268518
-0.24  0.24  41.2099980728
-0.24  0.26  34.160041032
-0.24  0.28  28.3161479708
-0.24  0.3  23.4719927635
-0.24  0.32  19.4565463092
-0.24  0.34  16.1280381302
-0.24  0.36  13.3689509841
-0.24  0.38  11.0818717673
-0.24  0.4  9.18605221997
-0.24  0.42  7.61455800609
-0.24  0.44  6.31190551062
-0.24  0.46  5.23210291958
-0.24  0.48  4.33702642016
-0.24  0.5  3.59507419068
-0.24  0.52  2.98005065784
-0.24  0.54  2.47024162849
-0.24  0.56  2.04764764218
-0.24  0.58  1.69734847724
-0.24  0.6  1.4069763732
-0.24  0.62  1.1662793712
-0.24  0.64  0.966759355451
-0.24  0.66  0.801372016371
-0.24  0.68  0.66427814223
-0.24  0.7  0.550637458297
-0.24  0.72  0.456437734745
-0.24  0.74  0.37835312974
-0.24  0.76  0.313626766341
-0.24  0.78  0.259973397427
-0.24  0.8  0.215498722122
-0.24  0.82  0.178632505078
-0.24  0.84  0.148073137308
-0.24  0.86  0.122741681212
-0.24  0.88  0.101743777302
-0.24  0.9  0.0843380677
-0.24  0.92  0.0699100215462
-0.24  0.94  0.0579502382006
-0.24  0.96  0.0480364622015
-0.24  0.98  0.0398186749957
-0.22  -1  0.0373911816018
-0.22  -0.98  0.0451079821686
-0.22  -0.96  0.0544173777923
-0.22  -0.94  0.065648048603
-0.22  -0.92  0.079196507811
-0.22  -0.9  0.095541101113
-0.22  -0.88  0.1152588953
-0.22  -0.86  0.139046052337
-0.22  -0.84  0.167742408257
-0.22  -0.82  0.20236112464
-0.22  -0.8  0.244124459588
-0.22  -0.78  0.294506921105
-0.22  -0.76  0.355287326493
-0.22  -0.74  0.428611605776
-0.22  -0.72  0.5170685665
-0.22  -0.7  0.623781294906
-0.22  -0.68  0.752517420482
-0.22  -0.66  0.907822136946
-0.22  -0.64  1.09517867613
-0.22  -0.62  1.3212019005
-0.22  -0.6  1.59387184935
-0.22  -0.58  1.92281548428
-0.22  -0.56  2.31964658144
-0.22  -0.54  2.79837577072
-0.22  -0.52  3.37590519901
-0.22  -0.5  4.07262528212
-0.22  -0.48  4.91313461452
-0.22  -0.46  5.92710845418
-0.22  -0.44  7.15034644558
-0.22  -0.42  8.62603657198
-0.22  -0.4  10.4062799624
-0.22  -0.38  12.5539303889
-0.22  -0.36  15.144813399
-0.22  -0.34  18.2704034343
-0.22  -0.32  22.0410534523
-0.22  -0.3  26.5898910789
-0.22  -0.28  32.0775188499
-0.22  -0.26  38.6976844889
-0.22  -0.24  46.6841214189
-0.22  -0.22  56.3188010196
-0.22  -0.2  38.3309322924
-0.22  -0.18  36.2605561879
-0.22  -0.16  33.9654558564
-0.22  -0.14  31.496595946
-0.22  -0.12  28.9188119645
-0.22  -0.1  26.3159335728
-0.22  -0.08  23.7980956521
-0.22  -0.06  21.5103375899
-0.22  -0.04  19.6371419923
-0.22  -0.02  18.3883511523
-0.22  6.17561557e-16  17.946971608
-0.22  0.02  18.3883511523
-0.22  0.04  19.6371419923
-0.22  0.06  21.5103375899
-0.22  0.08  23.7980956521
-0.22  0.1  26.3159335728
-0.22  0.12  28.9188119645
-0.22  0.14  31.496595946
-0.22  0.16  33.9654558564
-0.22  0.18  36.2605561879
-0.22  0.2  67.9418879886
-0.22  0.22  56.3188010196
-0.22  0.24  46.6841214189
-0.22  0.26  38.6976844889
-0.22  0.28  32.0775188499
-0.22  0.3  26.5898910789
-0.22  0.32  22.0410534523
-0.22  0.34  18.2704034343
-0.22  0.36  15.144813399
-0.22  0.38  12.5539303889
-0.22  0.4  10.4062799624
-0.22  0.42  8.62603657198
-0.22  0.44  7.15034644558
-0.22  0.46  5.92710845418
-0.22  0.48  4.91313461452
-0.22  0.5  4.07262528212
-0.22  0.52  3.37590519901
-0.22  0.54  2.79837577072
-0.22  0.56  2.31964658144
-0.22  0.58  1.92281548428
-0.22  0.6  1.59387184935
-0.22  0.62  1.3212019005
-0.22  0.64  1.09517867613
-0.22  0.66  0.907822136946
-0.22  0.68  0.752517420482
-0.22  0.7  0.623781294906
-0.22  0.72  0.5170685665
-0.22  0.74  0.428611605776
-0.22  0.76  0.355287326493
-0.22  0.78  0.294506921105
-0.22  0.8  0.244124459588
-0.22  0.82  0.20236112464
-0.22  0.84  0.167742408257
-0.22  0.86  0.139046052337
-0.22  0.88  0.1152588953
-0.22  0.9  0.095541101113
-0.22  0.92  0.079196507811
-0.22  0.94  0.065648048603
-0.22  0.96  0.0544173777923
-0.22  0.98  0.0451079821686
-0.2  -1  0.0423580330873
-0.2  -0.98  0.0510998935938
-0.2  -0.96  0.0616459012608
-0.2  -0.94  0.0743683963896
-0.2  -0.92  0.089716562958
-0.2  -0.9  0.108232287635
-0.2  -0.88  0.130569291784
-0.2  -0.86  0.157516211932
-0.2  -0.84  0.190024443591
-0.2  -0.82  0.229241731496
-0.2  -0.8  0.276552692203
-0.2  -0.78  0.333627699746
-0.2  -0.76  0.402481860332
-0.2  -0.74  0.485546158246
-0.2  -0.72  0.585753284864
-0.2  -0.7  0.706641181074
-0.2  -0.68  0.852477948811
-0.2  -0.66  1.02841254186
-0.2  -0.64  1.24065655625
-0.2  -0.62  1.49670353862
-0.2  -0.6  1.80559355547
-0.2  -0.58  2.17823236429
-0.2  -0.56  2.62777645525
-0.2  -0.54  3.170097558
-0.2  -0.52  3.82434301334
-0.2  -0.5  4.6136117946
-0.2  -0.48  5.56577004654
-0.2  -0.46  6.71443493516
-0.2  -0.44  8.10016154485
-0.2  -0.42  9.77187472756
-0.2  -0.4  11.7885964573
-0.2  -0.38  14.2215296765
-0.2  -0.36  17.156572207
-0.2  -0.34  20.6973494828
-0.2  -0.32  24.9688731785
-0.2  -0.3  30.1219549064
-0.2  -0.28  36.3385308138
-0.2  -0.26  43.8380850715
-0.2  -0.24  52.8853990433
-0.2  -0.22  63.7998997312
-0.2  -0.2  43.422615407
-0.2  -0.18  41.0772212317
-0.2  -0.16  38.4772516235
-0.2  -0.14  35.6804411111
-0.2  -0.12  32.7602376165
-0.2  -0.1  29.8116062998
-0.2  -0.08  26.9593117912
-0.2  -0.06  24.3676597615
-0.2  -0.04  22.2456385334
-0.2  -0.02  20.8309647667
-0.2  6.17561557e-16  20.3309546428
-0.2  0.02  20.8309647667
-0.2  0.04  22.2456385334
-0.2  0.06  24.3676597615
-0.2  0.08  26.9593117912
-0.2  0.1  29.8116062998
-0.2  0.12  32.7602376165
-0.2  0.14  35.6804411111
-0.2  0.16  38.4772516235
-0.2  0.18  41.0772212317
-0.2  0.2  76.9669375544
-0.2  0.22  63.7998997312
-0.2  0.24  52.8853990433
-0.2  0.26  43.8380850715
-0.2  0.28  36.3385308138
-0.2  0.3  30.1219549064
-0.2  0.32  24.9688731785
-0.2  0.34  20.6973494828
-0.2  0.36  17.156572207
-0.2  0.38  14.2215296765
-0.2  0.4  11.7885964573
-0.2  0.42  9.77187472755
-0.2  0.44  8.10016154485
-0.2  0.46  6.71443493516
-0.2  0.48  5.56577004654
-0.2  0.5  4.6136117946
-0.2  0.52  3.82434301334
-0.2  0.54  3.170097558
-0.2  0.56  2.62777645525
-0.2  0.58  2.17823236429
-0.2  0.6  1.80559355547
-0.2  0.62  1.49670353862
-0.2  0.64  1.24065655625
-0.2  0.66  1.02841254186
-0.2  0.68  0.852477948811
-0.2  0.7  0.706641181074
-0.2  0.72  0.585753284864
-0.2  0.74  0.485546158246
-0.2  0.76  0.402481860332
-0.2  0.78  0.333627699746
-0.2  0.8  0.276552692203
-0.2  0.82  0.229241731496
-0.2  0.84  0.190024443591
-0.2  0.86  0.157516211932
-0.2  0.88  0.130569291784
-0.2  0.9  0.108232287635
-0.2  0.92  0.089716562958
-0.2  0.94  0.0743683963896
-0.2  0.96  0.0616459012608
-0.2  0.98  0.0510998935938
-0.18  -1  0.0479846554765
-0.18  -0.98  0.057887739592
-0.18  -0.96  0.0698346244606
-0.18  -0.94  0.0842471101466
-0.18  -0.92  0.101634047908
-0.18  -0.9  0.122609305841
-0.18  -0.88  0.147913442278
-0.18  -0.86  0.178439852151
-0.18  -0.84  0.215266309439
-0.18  -0.82  0.259693019362
-0.18  -0.8  0.313288523788
-0.18  -0.78  0.377945080612
-0.18  -0.76  0.455945472345
-0.18  -0.74  0.550043602671
-0.18  -0.72  0.663561726545
-0.18  -0.7  0.800507746654
-0.18  -0.68  0.965716717552
-0.18  -0.66  1.16502155346
-0.18  -0.64  1.40545896674
-0.18  -0.62  1.69551790809
-0.18  -0.6  2.04543927976
-0.18  -0.58  2.46757750372
-0.18  -0.56  2.9768367104
-0.18  -0.54  3.59119694804
-0.18  -0.52  4.3323489913
-0.18  -0.5  5.22646016189
-0.18  -0.48  6.30509819931
-0.18  -0.46  7.60634580032
-0.18  -0.44  9.1761451773
-0.18  -0.42  11.0699201069
-0.18  -0.4  13.3545327374
-0.18  -0.38  16.1106442423
-0.18  -0.36  19.4355626668
-0.18  -0.34  23.4466785123
-0.18  -0.32  28.2856093586
-0.18  -0.3  34.1231998541
-0.18  -0.28  41.1655536042
-0.18  -0.26  49.6613099237
-0.18  -0.24  59.9104223655
-0.18  -0.22  72.2747489651
-0.18  -0.2  49.1906514143
-0.18  -0.18  46.5337071878
-0.18  -0.16  43.5883710424
-0.18  -0.14  40.4200466636
-0.18  -0.12  37.111938416
-0.18  -0.1  33.7716261412
-0.18  -0.08  30.5404475586
-0.18  -0.06  27.6045338558
-0.18  -0.04  25.2006342854
-0.18  -0.02  23.5980425605
-0.18  6.17561557e-16  23.0316136737
-0.18  0.02  23.5980425605
-0.18  0.04  25.2006342854
-0.18  0.06  27.6045338558
-0.18  0.08  30.5404475586
-0.18  0.1  33.7716261412
-0.18  0.12  37.111938416
-0.18  0.14  40.4200466636
-0.18  0.16  43.5883710424
-0.18  0.18  46.5337071878
-0.18  0.2  87.1908281016
-0.18  0.22  72.2747489651
-0.18  0.24  59.9104223655
-0.18  0.26  49.6613099237
-0.18  0.28  41.1655536042
-0.18  0.3  34.1231998541
-0.18  0.32  28.2856093586
-0.18  0.34  23.4466785123
-0.18  0.36  19.4355626668
-0.18  0.38  16.1106442423
-0.18  0.4  13.3545327374
-0.18  0.42  11.0699201069
-0.18  0.44  9.1761451773
-0.18  0.46  7.60634580032
-0.18  0.48  6.30509819931
-0.18  0.5  5.22646016189
-0.18  0.52  4.3323489913
-0.18  0.54  3.59119694804
-0.18  0.56  2.9768367104
-0.18  0.58  2.46757750372
-0.18  0.6  2.04543927976
-0.18  0.62  1.69551790809
-0.18  0.64  1.40545896674
-0.18  0.66  1.16502155346
-0.18  0.68  0.965716717552
-0.18  0.7  0.800507746654
-0.18  0.72  0.663561726545
-0.18  0.74  0.550043602671
-0.18  0.76  0.455945472345
-0.18  0.78  0.377945080612
-0.18  0.8  0.313288523788
-0.18  0.82  0.259693019362
-0.18  0.84  0.215266309439
-0.18  0.86  0.178439852151
-0.18  0.88  0.147913442278
-0.18  0.9  0.122609305841
-0.18  0.92  0.101634047908
-0.18  0.94  0.0842471101466
-0.18  0.96  0.0698346244606
-0.18  0.98  0.057887739592
-0.16  -1  0.0543586893295
-0.16  -0.98  0.0655772480019
-0.16  -0.96  0.0791110953657
-0.16  -0.94  0.095438061228
-0.16  -0.92  0.11513459002
-0.16  -0.9  0.138896092905
-0.16  -0.88  0.167561500163
-0.16  -0.86  0.202142880693
-0.16  -0.84  0.243861174405
-0.16  -0.82  0.294189299066
-0.16  -0.8  0.354904153546
-0.16  -0.78  0.428149353508
-0.16  -0.76  0.516510914505
-0.16  -0.74  0.623108554565
-0.16  -0.72  0.751705839836
-0.16  -0.7  0.906843062102
-0.16  -0.68  1.0939975396
-0.16  -0.66  1.31977700074
-0.16  -0.64  1.59215287845
-0.16  -0.62  1.92074175178
-0.16  -0.6  2.31714487155
-0.16  -0.58  2.79535775738
-0.16  -0.56  3.37226432739
-0.16  -0.54  4.06823300659
-0.16  -0.52  4.90783586016
-0.16  -0.5  5.92071614169
-0.16  -0.48  7.14263488618
-0.16  -0.46  8.6167334992
-0.16  -0.44  10.3950569194
-0.16  -0.42  12.5403911317
-0.16  -0.4  15.1284799068
-0.16  -0.38  18.2506990322
-0.16  -0.36  22.0172824512
-0.16  -0.34  26.5612142132
-0.16  -0.32  32.0429236462
-0.16  -0.3  38.6559495192
-0.16  -0.28  46.6337731766
-0.16  -0.26  56.2580618956
-0.16  -0.24  67.8686135104
-0.16  -0.22  81.8753534092
-0.16  -0.2  55.7248835403
-0.16  -0.18  52.7150045624
-0.16  -0.16  49.3784251725
-0.16  -0.14  45.7892369436
-0.16  -0.12  42.0416966786
-0.16  -0.1  38.2576745697
-0.16  -0.08  34.5972829092
-0.16  -0.06  31.2713775905
-0.16  -0.04  28.5481564142
-0.16  -0.02  26.73268468
-0.16  6.17561557e-16  26.0910143048
-0.16  0.02  26.73268468
-0.16  0.04  28.5481564142
-0.16  0.06  31.2713775905
-0.16  0.08  34.5972829092
-0.16  0.1  38.2576745697
-0.16  0.12  42.0416966786
-0.16  0.14  45.7892369436
-0.16  0.16  49.3784251725
-0.16  0.18  52.7150045624
-0.16  0.2  98.7728074754
-0.16  0.22  81.8753534092
-0.16  0.24  67.8686135104
-0.16  0.26  56.2580618956
-0.16  0.28  46.6337731766
-0.16  0.3  38.6559495192
-0.16  0.32  32.0429236462
-0.16  0.34  26.5612142132
-0.16  0.36  22.0172824512
-0.16  0.38  18.2506990322
-0.16  0.4  15.1284799068
-0.16  0.42  12.5403911317
-0.16  0.44  10.3950569194
-0.16  0.46  8.6167334992
-0.16  0.48  7.14263488618
-0.16  0.5  5.92071614169
-0.16  0.52  4.90783586016
-0.16  0.54  4.06823300659
-0.16  0.56  3.37226432739
-0.16  0.58  2.79535775738
-0.16  0.6  2.31714487155
-0.16  0.62  1.92074175178
-0.16  0.64  1.59215287845
-0.16  0.66  1.31977700074
-0.16  0.68  1.0939975396
-0.16  0.7  0.906843062102
-0.16  0.72  0.751705839836
-0.16  0.74  0.623108554565
-0.16  0.76  0.516510914505
-0.16  0.78  0.428149353508
-0.16  0.8  0.354904153546
-0.16  0.82  0.294189299066
-0.16  0.84  0.243861174405
-0.16  0.86  0.202142880693
-0.16  0.88  0.167561500163
-0.16  0.9  0.138896092905
-0.16  0.92  0.11513459002
-0.16  0.94  0.095438061228
-0.16  0.96  0.0791110953657
-0.16  0.98  0.0655772480019
-0.14  -1  0.0615794169257
-0.14  -0.98  0.0742881910023
-0.14  -0.96  0.0896198047646
-0.14  -0.94  0.108115560464
-0.14  -0.92  0.130428474432
-0.14  -0.9  0.157346332663
-0.14  -0.88  0.1898195046
-0.14  -0.86  0.22899449715
-0.14  -0.84  0.276254433576
-0.14  -0.82  0.333267886436
-0.14  -0.8  0.402047788669
-0.14  -0.78  0.485022502775
-0.14  -0.76  0.585121557257
-0.14  -0.74  0.70587907738
-0.14  -0.72  0.851558561983
-0.14  -0.7  1.02730341177
-0.14  -0.68  1.23931852363
-0.14  -0.66  1.49508936253
-0.14  -0.64  1.80364624536
-0.14  -0.62  2.17588316787
-0.14  -0.6  2.62494243115
-0.14  -0.58  3.16667864735
-0.14  -0.56  3.82021850713
-0.14  -0.54  4.60863607187
-0.14  -0.52  5.55976743301
-0.14  -0.5  6.70719350088
-0.14  -0.48  8.09142562172
-0.14  -0.46  9.76133588263
-0.14  -0.44  11.7758826031
-0.14  -0.42  14.2061919342
-0.14  -0.4  17.138069058
-0.14  -0.38  20.6750276497
-0.14  -0.36  24.9419445604
-0.14  -0.34  30.089468754
-0.14  -0.32  36.2993401619
-0.14  -0.3  43.7908062439
-0.14  -0.28  52.8283628005
-0.14  -0.26  63.7310923356
-0.14  -0.24  76.8839296729
-0.14  -0.22  92.7512525727
-0.14  -0.2  63.1270893207
-0.14  -0.18  59.7173935617
-0.14  -0.16  55.9376001948
-0.14  -0.14  51.8716427352
-0.14  -0.12  47.6262985728
-0.14  -0.1  43.3396265067
-0.14  -0.08  39.1930073193
-0.14  -0.06  35.4253059122
-0.14  -0.04  32.3403460969
-0.14  -0.02  30.2837164721
-0.14  6.17561557e-16  29.5568099177
-0.14  0.02  30.2837164721
-0.14  0.04  32.3403460969
-0.14  0.06  35.4253059122
-0.14  0.08  39.1930073193
-0.14  0.1  43.3396265067
-0.14  0.12  47.6262985728
-0.14  0.14  51.8716427352
-0.14  0.16  55.9376001948
-0.14  0.18  59.7173935617
-0.14  0.2  111.893277183
-0.14  0.22  92.7512525727
-0.14  0.24  76.8839296729
-0.14  0.26  63.7310923356
-0.14  0.28  52.8283628005
-0.14  0.3  43.7908062439
-0.14  0.32  36.2993401619
-0.14  0.34  30.089468754
-0.14  0.36  24.9419445604
-0.14  0.38  20.6750276497
-0.14  0.4  17.138069058
-0.14  0.42  14.2061919342
-0.14  0.44  11.7758826031
-0.14  0.46  9.76133588263
-0.14  0.48  8.09142562172
-0.14  0.5  6.70719350088
-0.14  0.52  5.55976743301
-0.14  0.54  4.60863607187
-0.14  0.56  3.82021850713
-0.14  0.58  3.16667864735
-0.14  0.6  2.62494243115
-0.14  0.62  2.17588316787
-0.14  0.64  1.80364624536
-0.14  0.66  1.49508936253
-0.14  0.68  1.23931852363
-0.14  0.7  1.02730341177
-0.14  0.72  0.851558561983
-0.14  0.74  0.70587907738
-0.14  0.76  0.585121557257
-0.14  0.78  0.485022502775
-0.14  0.8  0.402047788669
-0.14  0.82  0.333267886436
-0.14  0.84  0.276254433576
-0.14  0.86  0.22899449715
-0.14  0.88  0.1898195046
-0.14  0.9  0.157346332663
-0.14  0.92  0.130428474432
-0.14  0.94  0.108115560464
-0.14  0.96  0.0896198047646
-0.14  0.98  0.0742881910023
-0.12  -1  0.0697593086897
-0.12  -0.98  0.0841562506898
-0.12  -0.96  0.101524436856
-0.12  -0.94  0.122477073235
-0.12  -0.92  0.147753919477
-0.12  -0.9  0.178247406998
-0.12  -0.88  0.215034147411
-0.12  -0.86  0.259412943682
-0.12  -0.84  0.312950646025
-0.12  -0.82  0.37753747156
-0.12  -0.8  0.455453740843
-0.12  -0.78  0.549450387511
-0.12  -0.76  0.662846083505
-0.12  -0.74  0.79964440904
-0.12  -0.72  0.964675204126
-0.12  -0.7  1.16376509225
-0.12  -0.68  1.40394319679
-0.12  -0.66  1.69368931319
-0.12  -0.64  2.04323329902
-0.12  -0.62  2.46491625218
-0.12  -0.6  2.97362622917
-0.12  -0.58  3.58732388695
-0.12  -0.56  4.32767660698
-0.12  -0.54  5.22082348983
-0.12  -0.52  6.29829822959
-0.12  -0.5  7.59814245131
-0.12  -0.48  9.16624881926
-0.12  -0.46  11.0579813362
-0.12  -0.44  13.3401300405
-0.12  -0.42  16.0932691136
-0.12  -0.4  19.4146016551
-0.12  -0.38  23.4213915622
-0.12  -0.36  28.255103682
-0.12  -0.34  34.0863984089
-0.12  -0.32  41.1211570684
-0.12  -0.3  49.6077508208
-0.12  -0.28  59.8458097227
-0.12  -0.26  72.1968015504
-0.12  -0.24  87.0967938817
-0.12  -0.22  105.071850021
-0.12  -0.2  71.5125658939
-0.12  -0.18  67.6499437571
-0.12  -0.16  63.3680621572
-0.12  -0.14  58.7620039043
-0.12  -0.12  53.9527301452
-0.12  -0.1  49.0966386971
-0.12  -0.08  44.3992040289
-0.12  -0.06  40.1310206223
-0.12  -0.04  36.6362706751
-0.12  -0.02  34.3064489909
-0.12  6.17561557e-16  33.4829839233
-0.12  0.02  34.3064489909
-0.12  0.04  36.6362706751
-0.12  0.06  40.1310206223
-0.12  0.08  44.3992040289
-0.12  0.1  49.0966386971
-0.12  0.12  53.9527301452
-0.12  0.14  58.7620039043
-0.12  0.16  63.3680621572
-0.12  0.18  67.6499437571
-0.12  0.2  126.756602336
-0.12  0.22  105.071850021
-0.12  0.24  87.0967938817
-0.12  0.26  72.1968015504
-0.12  0.28  59.8458097227
-0.12  0.3  49.6077508208
-0.12  0.32  41.1211570684
-0.12  0.34  34.0863984089
-0.12  0.36  28.255103682
-0.12  0.38  23.4213915622
-0.12  0.4  19.4146016551
-0.12  0.42  16.0932691136
-0.12  0.44  13.3401300405
-0.12  0.46  11.0579813362
-0.12  0.48  9.16624881926
-0.12  0.5  7.59814245131
-0.12  0.52  6.29829822959
-0.12  0.54  5.22082348983
-0.12  0.56  4.32767660698
-0.12  0.58  3.58732388695
-0.12  0.6  2.97362622917
-0.12  0.62  2.46491625218
-0.12  0.64  2.04323329902
-0.12  0.66  1.69368931319
-0.12  0.68  1.40394319679
-0.12  0.7  1.16376509225
-0.12  0.72  0.964675204126
-0.12  0.74  0.79964440904
-0.12  0.76  0.662846083505
-0.12  0.78  0.549450387511
-0.12  0.8  0.455453740843
-0.12  0.82  0.37753747156
-0.12  0.84  0.312950646025
-0.12  0.86  0.259412943682
-0.12  0.88  0.215034147411
-0.12  0.9  0.178247406998
-0.12  0.92  0.147753919477
-0.12  0.94  0.122477073235
-0.12  0.96  0.101524436856
-0.12  0.98  0.0841562506898
-0.1  -1  0.0790257750368
-0.1  -0.98  0.0953351324701
-0.1  -0.96  0.115010418801
-0.1  -0.94  0.138746295203
-0.1  -0.92  0.167380787176
-0.1  -0.9  0.201924872119
-0.1  -0.88  0.243598173172
-0.1  -0.86  0.293872019579
-0.1  -0.84  0.354521393846
-0.1  -0.82  0.427687599774
-0.1  -0.8  0.51595386393
-0.1  -0.78  0.622436539766
-0.1  -0.76  0.75089513447
-0.1  -0.74  0.905865043178
-0.1  -0.72  1.09281767691
-0.1  -0.7  1.31835363772
-0.1  -0.68  1.59043576145
-0.1  -0.66  1.91867025578
-0.1  -0.64  2.31464585973
-0.1  -0.62  2.79234299893
-0.1  -0.6  3.3686273824
-0.1  -0.58  4.06384546807
-0.1  -0.56  4.90254282044
-0.1  -0.54  5.91433072323
-0.1  -0.52  7.13493164361
-0.1  -0.5  8.60744045967
-0.1  -0.48  10.3838459802
-0.1  -0.46  12.5268664763
-0.1  -0.44  15.11216403
-0.1  -0.42  18.2310158811
-0.1  -0.4  21.9935370869
-0.1  -0.38  26.5325682752
-0.1  -0.36  32.008365753
-0.1  -0.34  38.6142595601
-0.1  -0.32  46.5834792343
-0.1  -0.3  56.197388278
-0.1  -0.28  67.7954180578
-0.1  -0.26  81.7870518625
-0.1  -0.24  98.6662822354
-0.1  -0.22  119.029052013
-0.1  -0.2  81.0119258746
-0.1  -0.18  76.6362129587
-0.1  -0.16  71.7855483177
-0.1  -0.14  66.5676450709
-0.1  -0.12  61.1195322195
-0.1  -0.1  55.6183826591
-0.1  -0.08  50.296965026
-0.1  -0.06  45.4618181755
-0.1  -0.04  41.5028436913
-0.1  -0.02  38.8635405251
-0.1  6.17561557e-16  37.9306906101
-0.1  0.02  38.8635405251
-0.1  0.04  41.5028436913
-0.1  0.06  45.4618181755
-0.1  0.08  50.296965026
-0.1  0.1  55.6183826591
-0.1  0.12  61.1195322195
-0.1  0.14  66.5676450709
-0.1  0.16  71.7855483177
-0.1  0.18  76.6362129587
-0.1  0.2  143.594294851
-0.1  0.22  119.029052013
-0.1  0.24  98.6662822354
-0.1  0.26  81.7870518625
-0.1  0.28  67.7954180578
-0.1  0.3  56.197388278
-0.1  0.32  46.5834792343
-0.1  0.34  38.6142595601
-0.1  0.36  32.008365753
-0.1  0.38  26.5325682752
-0.1  0.4  21.9935370869
-0.1  0.42  18.2310158811
-0.1  0.44  15.11216403
-0.1  0.46  12.5268664763
-0.1  0.48  10.3838459802
-0.1  0.5  8.60744045967
-0.1  0.52  7.13493164361
-0.1  0.54  5.91433072323
-0.1  0.56  4.90254282044
-0.1  0.58  4.06384546807
-0.1  0.6  3.3686273824
-0.1  0.62  2.79234299893
-0.1  0.64  2.31464585973
-0.1  0.66  1.91867025578
-0.1  0.68  1.59043576145
-0.1  0.7  1.31835363772
-0.1  0.72  1.09281767691
-0.1  0.74  0.905865043178
-0.1  0.76  0.75089513447
-0.1  0.78  0.622436539766
-0.1  0.8  0.51595386393
-0.1  0.82  0.427687599774
-0.1  0.84  0.354521393846
-0.1  0.86  0.293872019579
-0.1  0.88  0.243598173172
-0.1  0.9  0.201924872119
-0.1  0.92  0.167380787176
-0.1  0.94  0.138746295203
-0.1  0.96  0.115010418801
-0.1  0.98  0.0953351324701
-0.08  -1  0.0895231509238
-0.08  -0.98  0.107998959181
-0.08  -0.96  0.130287808951
-0.08  -0.94  0.157176636607
-0.08  -0.92  0.189614786633
-0.08  -0.9  0.228747529443
-0.08  -0.88  0.275956496618
-0.08  -0.86  0.33290846118
-0.08  -0.84  0.401614185147
-0.08  -0.82  0.484499412059
-0.08  -0.8  0.584490510961
-0.08  -0.78  0.705117795606
-0.08  -0.76  0.850640166702
-0.08  -0.74  1.02619547786
-0.08  -0.72  1.23798193407
-0.08  -0.7  1.49347692731
-0.08  -0.68  1.80170103539
-0.08  -0.66  2.17353650503
-0.08  -0.64  2.6221114635
-0.08  -0.62  3.16326342396
-0.08  -0.6  3.81609844915
-0.08  -0.58  4.60366571539
-0.08  -0.56  5.55377129323
-0.08  -0.54  6.69995987641
-0.08  -0.52  8.08269912018
-0.08  -0.5  9.75080840371
-0.08  -0.48  11.7631824607
-0.08  -0.46  14.1908707335
-0.08  -0.44  17.1195858644
-0.08  -0.42  20.6527298905
-0.08  -0.4  24.9150449845
-0.08  -0.38  30.0570176375
-0.08  -0.36  36.2601917766
-0.08  -0.34  43.7435784059
-0.08  -0.32  52.7713880706
-0.08  -0.3  63.6623591479
-0.08  -0.28  76.8010113144
-0.08  -0.26  92.6512215044
-0.08  -0.24  111.77260168
-0.08  -0.22  134.840256647
-0.08  -0.2  91.7731317829
-0.08  -0.18  86.8161717583
-0.08  -0.16  81.321169874
-0.08  -0.14  75.4101473038
-0.08  -0.12  69.2383352739
-0.08  -0.1  63.0064414125
-0.08  -0.08  56.9781541393
-0.08  -0.06  51.5007313487
-0.08  -0.04  47.0158671371
-0.08  -0.02  44.025972567
-0.08  6.17561557e-16  42.9692076864
-0.08  0.02  44.025972567
-0.08  0.04  47.0158671371
-0.08  0.06  51.5007313487
-0.08  0.08  56.9781541393
-0.08  0.1  63.0064414125
-0.08  0.12  69.2383352739
-0.08  0.14  75.4101473038
-0.08  0.16  81.321169874
-0.08  0.18  86.8161717583
-0.08  0.2  162.668619495
-0.08  0.22  134.840256647
-0.08  0.24  111.77260168
-0.08  0.26  92.6512215044
-0.08  0.28  76.8010113144
-0.08  0.3  63.6623591479
-0.08  0.32  52.7713880706
-0.08  0.34  43.7435784059
-0.08  0.36  36.2601917766
-0.08  0.38  30.0570176375
-0.08  0.4  24.9150449845
-0.08  0.42  20.6527298905
-0.08  0.44  17.1195858644
-0.08  0.46  14.1908707335
-0.08  0.48  11.7631824607
-0.08  0.5  9.75080840371
-0.08  0.52  8.08269912018
-0.08  0.54  6.69995987641
-0.08  0.56  5.55377129323
-0.08  0.58  4.60366571539
-0.08  0.6  3.81609844915
-0.08  0.62  3.16326342396
-0.08  0.64  2.6221114635
-0.08  0.66  2.17353650503
-0.08  0.68  1.80170103539
-0.08  0.7  1.49347692731
-0.08  0.72  1.23798193407
-0.08  0.74  1.02619547786
-0.08  0.76  0.850640166702
-0.08  0.78  0.705117795606
-0.08  0.8  0.584490510961
-0.08  0.82  0.484499412059
-0.08  0.84  0.401614185147
-0.08  0.86  0.33290846118
-0.08  0.88  0.275956496618
-0.08  0.9  0.228747529443
-0.08  0.92  0.189614786633
-0.08  0.94  0.157176636607
-0.08  0.96  0.130287808951
-0.08  0.98  0.107998959181
-0.06  -1  0.101414944018
-0.06  -0.98  0.12234498324
-0.06  -0.96  0.147594568719
-0.06  -0.94  0.178055169394
-0.06  -0.92  0.214802235767
-0.06  -0.9  0.25913317006
-0.06  -0.88  0.31261313266
-0.06  -0.86  0.377130302109
-0.06  -0.84  0.454962539668
-0.06  -0.82  0.548857812126
-0.06  -0.8  0.662131212277
-0.06  -0.78  0.798782002526
-0.06  -0.76  0.963634813959
-0.06  -0.74  1.16250998612
-0.06  -0.72  1.40242906157
-0.06  -0.7  1.69186269041
-0.06  -0.68  2.04102969741
-0.06  -0.66  2.46225787077
-0.06  -0.64  2.97041921039
-0.06  -0.62  3.58345500291
-0.06  -0.6  4.32300926178
-0.06  -0.58  5.21519289686
-0.06  -0.56  6.29150559356
-0.06  -0.54  7.58994794951
-0.06  -0.52  9.15636313431
-0.06  -0.5  11.0460554414
-0.06  -0.48  13.3257428767
-0.06  -0.46  16.0759127237
-0.06  -0.44  19.3936632495
-0.06  -0.42  23.3961318837
-0.06  -0.4  28.2246309053
-0.06  -0.38  34.0496366537
-0.06  -0.36  41.0768084138
-0.06  -0.34  49.5542494807
-0.06  -0.32  59.7812667639
-0.06  -0.3  72.118938201
-0.06  -0.28  87.0028610766
-0.06  -0.26  104.958531342
-0.06  -0.24  126.619896922
-0.06  -0.22  152.751740059
-0.06  -0.2  103.963800716
-0.06  -0.18  98.3483837182
-0.06  -0.16  92.1234541583
-0.06  -0.14  85.427241873
-0.06  -0.12  78.4355982026
-0.06  -0.1  71.3758917405
-0.06  -0.08  64.5468379146
-0.06  -0.06  58.3418225644
-0.06  -0.04  53.2612121497
-0.06  -0.02  49.8741554239
-0.06  6.17561557e-16  48.6770153534
-0.06  0.02  49.8741554239
-0.06  0.04  53.2612121497
-0.06  0.06  58.3418225644
-0.06  0.08  64.5468379146
-0.06  0.1  71.3758917405
-0.06  0.12  78.4355982026
-0.06  0.14  85.427241873
-0.06  0.16  92.1234541583
-0.06  0.18  98.3483837182
-0.06  0.2  184.276678929
-0.06  0.22  152.751740059
-0.06  0.24  126.619896922
-0.06  0.26  104.958531342
-0.06  0.28  87.0028610766
-0.06  0.3  72.118938201
-0.06  0.32  59.7812667639
-0.06  0.34  49.5542494807
-0.06  0.36  41.0768084138
-0.06  0.38  34.0496366537
-0.06  0.4  28.2246309053
-0.06  0.42  23.3961318837
-0.06  0.44  19.3936632495
-0.06  0.46  16.0759127237
-0.06  0.48  13.3257428767
-0.06  0.5  11.0460554414
-0.06  0.52  9.15636313431
-0.06  0.54  7.58994794951
-0.06  0.56  6.29150559356
-0.06  0.58  5.21519289686
-0.06  0.6  4.32300926178
-0.06  0.62  3.58345500291
-0.06  0.64  2.97041921039
-0.06  0.66  2.46225787077
-0.06  0.68  2.04102969741
-0.06  0.7  1.69186269041
-0.06  0.72  1.40242906157
-0.06  0.74  1.16250998612
-0.06  0.76  0.963634813959
-0.06  0.78  0.798782002526
-0.06  0.8  0.662131212277
-0.06  0.82  0.548857812126
-0.06  0.84  0.454962539668
-0.06  0.86  0.377130302109
-0.06  0.88  0.31261313266
-0.06  0.9  0.25913317006
-0.06  0.92  0.214802235767
-0.06  0.94  0.178055169394
-0.06  0.96  0.147594568719
-0.06  0.98  0.12234498324
-0.04  -1  0.1148863815
-0.04  -0.98  0.138596659055
-0.04  -0.96  0.167200269087
-0.04  -0.94  0.201707098665
-0.04  -0.92  0.243335455583
-0.04  -0.9  0.293555082274
-0.04  -0.88  0.354139046948
-0.04  -0.86  0.427226344036
-0.04  -0.84  0.515397414128
-0.04  -0.82  0.621765249727
-0.04  -0.8  0.75008530344
-0.04  -0.78  0.904888079035
-0.04  -0.76  1.09163908668
-0.04  -0.74  1.31693180978
-0.04  -0.72  1.58872049633
-0.04  -0.7  1.91660099385
-0.04  -0.68  2.31214954306
-0.04  -0.66  2.78933149185
-0.04  -0.64  3.36499435982
-0.04  -0.62  4.05946266145
-0.04  -0.6  4.8972554892
-0.04  -0.58  5.90795219136
-0.04  -0.56  7.12723670888
-0.04  -0.54  8.59815744257
-0.04  -0.52  10.372647132
-0.04  -0.5  12.5133564072
-0.04  -0.48  15.0958657498
-0.04  -0.46  18.211353958
-0.04  -0.44  21.9698173316
-0.04  -0.42  26.5039532315
-0.04  -0.4  31.97384513
-0.04  -0.38  38.5726145631
-0.04  -0.36  46.5332395333
-0.04  -0.34  56.1367800962
-0.04  -0.32  67.7223015456
-0.04  -0.3  81.6988455478
-0.04  -0.28  98.5598718814
-0.04  -0.26  118.900680666
-0.04  -0.24  143.439430196
-0.04  -0.22  173.042492438
-0.04  -0.2  117.773815161
-0.04  -0.18  111.412475165
-0.04  -0.16  104.360658107
-0.04  -0.14  96.7749555589
-0.04  -0.12  88.8545780465
-0.04  -0.1  80.8570966325
-0.04  -0.08  73.1209065598
-0.04  -0.06  66.0916490116
-0.04  -0.04  60.3361565444
-0.04  -0.02  56.4991806931
-0.04  6.17561557e-16  55.1430187173
-0.04  0.02  56.4991806931
-0.04  0.04  60.3361565444
-0.04  0.06  66.0916490116
-0.04  0.08  73.1209065598
-0.04  0.1  80.8570966325
-0.04  0.12  88.8545780465
-0.04  0.14  96.7749555589
-0.04  0.16  104.360658107
-0.04  0.18  111.412475165
-0.04  0.2  208.755041401
-0.04  0.22  173.042492438
-0.04  0.24  143.439430196
-0.04  0.26  118.900680666
-0.04  0.28  98.5598718814
-0.04  0.3  81.6988455478
-0.04  0.32  67.7223015456
-0.04  0.34  56.1367800962
-0.04  0.36  46.5332395333
-0.04  0.38  38.5726145631
-0.04  0.4  31.97384513
-0.04  0.42  26.5039532315
-0.04  0.44  21.9698173316
-0.04  0.46  18.211353958
-0.04  0.48  15.0958657498
-0.04  0.5  12.5133564072
-0.04  0.52  10.372647132
-0.04  0.54  8.59815744257
-0.04  0.56  7.12723670888
-0.04  0.58  5.90795219136
-0.04  0.6  4.8972554892
-0.04  0.62  4.05946266145
-0.04  0.64  3.36499435982
-0.04  0.66  2.78933149185
-0.04  0.68  2.31214954306
-0.04  0.7  1.91660099385
-0.04  0.72  1.58872049633
-0.04  0.74  1.31693180978
-0.04  0.76  1.09163908668
-0.04  0.78  0.904888079035
-0.04  0.8  0.75008530344
-0.04  0.82  0.621765249727
-0.04  0.84  0.515397414128
-0.04  0.86  0.427226344036
-0.04  0.88  0.354139046948
-0.04  0.9  0.293555082274
-0.04  0.92  0.243335455583
-0.04  0.94  0.201707098665
-0.04  0.96  0.167200269087
-0.04  0.98  0.138596659055
-0.02  -1  0.130147295175
-0.02  -0.98  0.157007123566
-0.02  -0.96  0.189410289453
-0.02  -0.94  0.228500828087
-0.02  -0.92  0.27565888098
-0.02  -0.9  0.332549423559
-0.02  -0.88  0.401181049261
-0.02  -0.86  0.48397688549
-0.02  -0.84  0.58386014524
-0.02  -0.82  0.704357334864
-0.02  -0.8  0.8497227619
-0.02  -0.78  1.02508873884
-0.02  -0.76  1.23664678601
-0.02  -0.74  1.49186623109
-0.02  -0.72  1.79975792331
-0.02  -0.7  2.17119237304
-0.02  -0.68  2.61928354901
-0.02  -0.66  3.15985188384
-0.02  -0.64  3.8119828346
-0.02  -0.62  4.59870071937
-0.02  -0.6  5.5477816202
-0.02  -0.58  6.6927340533
-0.02  -0.56  8.07398203006
-0.02  -0.54  9.74029227855
-0.02  -0.52  11.7504960153
-0.02  -0.5  14.1755660566
-0.02  -0.48  17.1011226048
-0.02  -0.46  20.6304561791
-0.02  -0.44  24.8881744195
-0.02  -0.42  30.0246015191
-0.02  -0.4  36.2210856123
-0.02  -0.38  43.6964015026
-0.02  -0.36  52.7144747872
-0.02  -0.34  63.5937000882
-0.02  -0.32  76.7181823822
-0.02  -0.3  92.5512983185
-0.02  -0.28  111.652056324
