0.4  -0.4  23.7165614855
0.4  -0.38  28.2470858169
0.4  -0.36  33.6430665817
0.4  -0.34  40.0698300829
0.4  -0.32  47.7242845558
0.4  -0.3  56.8409531972
0.4  -0.28  67.6991596718
0.4  -0.26  80.6315862502
0.4  -0.24  96.0344667903
0.4  -0.22  114.379726861
0.4  -0.2  74.7665756794
0.4  -0.18  71.5121239682
0.4  -0.16  67.8555462419
0.4  -0.14  63.9020158327
0.4  -0.12  59.7830044093
0.4  -0.1  55.6618502477
0.4  -0.08  51.7391983282
0.4  -0.06  48.2546732036
0.4  -0.04  45.4770595814
0.4  -0.02  43.6722072484
0.4  6.17561557e-16  43.0445784133
0.4  0.02  43.6722072484
0.4  0.04  45.4770595814
0.4  0.06  48.2546732036
0.4  0.08  51.7391983282
0.4  0.1  55.6618502477
0.4  0.12  59.7830044093
0.4  0.14  63.9020158327
0.4  0.16  67.8555462419
0.4  0.18  71.5121239682
0.4  0.2  136.229442971
0.4  0.22  114.379726861
0.4  0.24  96.0344667903
0.4  0.26  80.6315862502
0.4  0.28  67.6991596718
0.4  0.3  56.8409531972
0.4  0.32  47.7242845558
0.4  0.34  40.0698300829
0.4  0.36  33.6430665817
0.4  0.38  28.2470858169
0.4  0.4  23.7165614855
0.4  0.42  19.9126838196
0.4  0.44  16.7189066232
0.4  0.46  14.0373764384
0.4  0.48  11.7859344343
0.4  0.5  9.89559915974
0.4  0.52  8.30845303582
0.4  0.54  6.97586783114
0.4  0.56  5.85701475206
0.4  0.58  4.91761349788
0.4  0.6  4.12888195408
0.4  0.62  3.46665434322
0.4  0.64  2.91064081488
0.4  0.66  2.44380578924
0.4  0.68  2.05184600758
0.4  0.7  1.72275229781
0.4  0.72  1.44644162801
0.4  0.74  1.21444817452
0.4  0.76  1.01966393945
0.4  0.78  0.856120970188
0.4  0.8  0.718808508607
0.4  0.82  0.603519467502
0.4  0.84  0.506721530551
0.4  0.86  0.425448926422
0.4  0.88  0.357211561145
0.4  0.9  0.299918724648
0.4  0.92  0.251815033944
0.4  0.94  0.211426650318
0.4  0.96  0.177516122705
0.4  0.98  0.149044473689
0.42  -1  0.109426889452
0.42  -0.98  0.130330475559
0.42  -0.96  0.155227229289
0.42  -0.94  0.184879956967
0.42  -0.92  0.220197182187
0.42  -0.9  0.262260981874
0.42  -0.88  0.312360139809
0.42  -0.86  0.3720296334
0.42  -0.84  0.443097663524
0.42  -0.82  0.527741668389
0.42  -0.8  0.628555037594
0.42  -0.78  0.74862657044
0.42  -0.76  0.891635112996
0.42  -0.74  1.06196227347
0.42  -0.72  1.26482666939
0.42  -0.7  1.50644381967
0.42  -0.68  1.79421658062
0.42  -0.66  2.13696196043
0.42  -0.64  2.54518126165
0.42  -0.62  3.03138182831
0.42  -0.6  3.61046025581
0.42  -0.58  4.3001588045
0.42  -0.56  5.12160900099
0.42  -0.54  6.09997908254
0.42  -0.52  7.26524512126
0.42  -0.5  8.65310945459
0.42  -0.48  10.3060945616
0.42  -0.46  12.2748459003
0.42  -0.44  14.6196836226
0.42  -0.42  17.4124507111
0.42  -0.4  20.7387141605
0.42  -0.38  24.7003866467
0.42  -0.36  29.4188490075
0.42  -0.34  35.0386692041
0.42  -0.32  41.7320317079
0.42  -0.3  49.7040130242
0.42  -0.28  59.1988649871
0.42  -0.26  70.5074983392
0.42  -0.24  83.9763958842
0.42  -0.22  100.018228299
0.42  -0.2  65.378897473
0.42  -0.18  62.5330741512
0.42  -0.16  59.3356156867
0.42  -0.14  55.8784898664
0.42  -0.12  52.2766607991
0.42  -0.1  48.6729580355
0.42  -0.08  45.2428336071
0.42  -0.06  42.1958248496
0.42  -0.04  39.7669679095
0.42  -0.02  38.1887325208
0.42  6.17561557e-16  37.6399086527
0.42  0.02  38.1887325208
0.42  0.04  39.7669679095
0.42  0.06  42.1958248496
0.42  0.08  45.2428336071
0.42  0.1  48.6729580355
0.42  0.12  52.2766607991
0.42  0.14  55.8784898664
0.42  0.16  59.3356156867
0.42  0.18  62.5330741512
0.42  0.2  119.124497864
0.42  0.22  100.018228299
0.42  0.24  83.9763958842
0.42  0.26  70.5074983392
0.42  0.28  59.1988649871
0.42  0.3  49.7040130242
0.42  0.32  41.7320317079
0.42  0.34  35.0386692041
0.42  0.36  29.4188490075
0.42  0.38  24.7003866467
0.42  0.4  20.7387141605
0.42  0.42  17.4124507111
0.42  0.44  14.6196836226
0.42  0.46  12.2748459003
0.42  0.48  10.3060945616
0.42  0.5  8.65310945459
0.42  0.52  7.26524512126
0.42  0.54  6.09997908254
0.42  0.56  5.12160900099
0.42  0.58  4.3001588045
0.42  0.6  3.61046025581
0.42  0.62  3.03138182831
0.42  0.64  2.54518126165
0.42  0.66  2.13696196043
0.42  0.68  1.79421658062
0.42  0.7  1.50644381967
0.42  0.72  1.26482666939
0.42  0.74  1.06196227347
0.42  0.76  0.891635112996
0.42  0.78  0.74862657044
0.42  0.8  0.628555037594
0.42  0.82  0.527741668389
0.42  0.84  0.443097663524
0.42  0.86  0.3720296334
0.42  0.88  0.312360139809
0.42  0.9  0.262260981874
0.42  0.92  0.220197182187
0.42  0.94  0.184879956967
0.42  0.96  0.155227229289
0.42  0.98  0.130330475559
0.44  -1  0.0956872682917
0.44  -0.98  0.113966203772
0.44  -0.96  0.135736925444
0.44  -0.94  0.161666461805
0.44  -0.92  0.192549262384
0.44  -0.9  0.229331538716
0.44  -0.88  0.273140255116
0.44  -0.86  0.325317657495
0.44  -0.84  0.387462398148
0.44  -0.82  0.461478516521
0.44  -0.8  0.549633776665
0.44  -0.78  0.654629148783
0.44  -0.76  0.779681563669
0.44  -0.74  0.928622475575
0.44  -0.72  1.10601525331
0.44  -0.7  1.31729499633
0.44  -0.68  1.56893505959
0.44  -0.66  1.86864538927
0.44  -0.64  2.2256087462
0.44  -0.62  2.65076205449
0.44  -0.6  3.1571314956
0.44  -0.58  3.76023161476
0.44  -0.56  4.47854066781
0.44  -0.54  5.3340667725
0.44  -0.52  6.35302221057
0.44  -0.5  7.56662654019
0.44  -0.48  9.0120631254
0.44  -0.46  10.7336183892
0.44  -0.44  12.784038696
0.44  -0.42  15.2261464358
0.44  -0.4  18.1347648264
0.44  -0.38  21.599010406
0.44  -0.36  25.7250234555
0.44  -0.34  30.639220008
0.44  -0.32  36.4921650829
0.44  -0.3  43.4631858151
0.44  -0.28  51.7658658209
0.44  -0.26  61.654589141
0.44  -0.24  73.4323342587
0.44  -0.22  87.4599569927
0.44  -0.2  57.1699345055
0.44  -0.18  54.6814322637
0.44  -0.16  51.8854461265
0.44  -0.14  48.8623964215
0.44  -0.12  45.7128123839
0.44  -0.1  42.561589911
0.44  -0.08  39.5621513077
0.44  -0.06  36.8977244386
0.44  -0.04  34.7738343523
0.44  -0.02  33.3937619239
0.44  6.17561557e-16  32.913848285
0.44  0.02  33.3937619239
0.44  0.04  34.7738343523
0.44  0.06  36.8977244386
0.44  0.08  39.5621513077
0.44  0.1  42.561589911
0.44  0.12  45.7128123839
0.44  0.14  48.8623964215
0.44  0.16  51.8854461265
0.44  0.18  54.6814322637
0.44  0.2  104.167246682
0.44  0.22  87.4599569927
0.44  0.24  73.4323342587
0.44  0.26  61.654589141
0.44  0.28  51.7658658209
0.44  0.3  43.4631858151
0.44  0.32  36.4921650829
0.44  0.34  30.639220008
0.44  0.36  25.7250234555
0.44  0.38  21.599010406
0.44  0.4  18.1347648264
0.44  0.42  15.2261464358
0.44  0.44  12.784038696
0.44  0.46  10.7336183892
0.44  0.48  9.0120631254
0.44  0.5  7.56662654019
0.44  0.52  6.35302221057
0.44  0.54  5.3340667725
0.44  0.56  4.47854066781
0.44  0.58  3.76023161476
0.44  0.6  3.1571314956
0.44  0.62  2.65076205449
0.44  0.64  2.2256087462
0.44  0.66  1.86864538927
0.44  0.68  1.56893505959
0.44  0.7  1.31729499633
0.44  0.72  1.10601525331
0.44  0.74  0.928622475575
0.44  0.76  0.779681563669
0.44  0.78  0.654629148783
0.44  0.8  0.549633776665
0.44  0.82  0.461478516521
0.44  0.84  0.387462398148
0.44  0.86  0.325317657495
0.44  0.88  0.273140255116
0.44  0.9  0.229331538716
0.44  0.92  0.192549262384
0.44  0.94  0.161666461805
0.44  0.96  0.135736925444
0.44  0.98  0.113966203772
0.46  -1  0.0836727915686
0.46  -0.98  0.0996566270966
0.46  -0.96  0.118693820752
0.46  -0.94  0.141367649048
0.46  -0.92  0.168372810571
0.46  -0.9  0.2005367107
0.46  -0.88  0.238844812307
0.46  -0.86  0.284470829141
0.46  -0.84  0.338812686993
0.46  -0.82  0.403535354447
0.46  -0.8  0.480621855499
0.46  -0.78  0.572434026999
0.46  -0.76  0.681784882476
0.46  -0.74  0.812024799451
0.46  -0.72  0.967144170943
0.46  -0.7  1.15189566627
0.46  -0.68  1.37193984706
0.46  -0.66  1.6340186
0.46  -0.64  1.94616170007
0.46  -0.62  2.3179328331
0.46  -0.6  2.76072261547
0.46  -0.58  3.28809758882
0.46  -0.56  3.91621588241
0.46  -0.54  4.66432227857
0.46  -0.52  5.55533784949
0.46  -0.5  6.61656223108
0.46  -0.48  7.88051005067
0.46  -0.46  9.38590713574
0.46  -0.44  11.1788770263
0.46  -0.42  13.314354144
0.46  -0.4  15.8577669167
0.46  -0.38  18.8870424253
0.46  -0.36  22.4949939957
0.46  -0.34  26.7921648859
0.46  -0.32  31.9102151977
0.46  -0.3  38.0059557821
0.46  -0.28  45.2661527341
0.46  -0.26  53.9132496783
0.46  -0.24  64.2121831724
0.46  -0.22  76.4785000418
0.46  -0.2  49.9916874968
0.46  -0.18  47.8156411627
0.46  -0.16  45.3707185574
0.46  -0.14  42.7272424462
0.46  -0.12  39.9731196312
0.46  -0.1  37.2175641026
0.46  -0.08  34.5947344873
0.46  -0.06  32.2648525914
0.46  -0.04  30.4076377741
0.46  -0.02  29.2008469991
0.46  6.17561557e-16  28.781191233
0.46  0.02  29.2008469991
0.46  0.04  30.4076377741
0.46  0.06  32.2648525914
0.46  0.08  34.5947344873
0.46  0.1  37.2175641026
0.46  0.12  39.9731196312
0.46  0.14  42.7272424462
0.46  0.16  45.3707185574
0.46  0.18  47.8156411627
0.46  0.2  91.0880253507
0.46  0.22  76.4785000418
0.46  0.24  64.2121831724
0.46  0.26  53.9132496783
0.46  0.28  45.2661527341
0.46  0.3  38.0059557821
0.46  0.32  31.9102151977
0.46  0.34  26.7921648859
0.46  0.36  22.4949939957
0.46  0.38  18.8870424253
0.46  0.4  15.8577669167
0.46  0.42  13.314354144
0.46  0.44  11.1788770263
0.46  0.46  9.38590713574
0.46  0.48  7.88051005067
0.46  0.5  6.61656223108
0.46  0.52  5.55533784949
0.46  0.54  4.66432227857
0.46  0.56  3.91621588241
0.46  0.58  3.28809758882
0.46  0.6  2.76072261547
0.46  0.62  2.3179328331
0.46  0.64  1.94616170007
0.46  0.66  1.6340186
0.46  0.68  1.37193984706
0.46  0.7  1.15189566627
0.46  0.72  0.967144170943
0.46  0.74  0.812024799451
0.46  0.76  0.681784882476
0.46  0.78  0.572434026999
0.46  0.8  0.480621855499
0.46  0.82  0.403535354447
0.46  0.84  0.338812686993
0.46  0.86  0.284470829141
0.46  0.88  0.238844812307
0.46  0.9  0.2005367107
0.46  0.92  0.168372810571
0.46  0.94  0.141367649048
0.46  0.96  0.118693820752
0.46  0.98  0.0996566270966
0.48  -1  0.073166850448
0.48  -0.98  0.0871437583739
0.48  -0.96  0.103790645313
0.48  -0.94  0.123617551682
0.48  -0.92  0.147231949832
0.48  -0.9  0.175357356269
0.48  -0.88  0.208855499318
0.48  -0.86  0.248752721433
0.48  -0.84  0.296271425088
0.48  -0.82  0.352867525701
0.48  -0.8  0.420275059121
0.48  -0.78  0.500559310376
0.48  -0.76  0.596180091505
0.48  -0.74  0.710067107213
0.48  -0.72  0.845709717466
0.48  -0.7  1.00726384725
0.48  -0.68  1.19967931906
0.48  -0.66  1.42885150948
0.48  -0.64  1.70180197633
0.48  -0.62  2.02689359072
0.48  -0.6  2.41408676522
0.48  -0.58  2.87524462887
0.48  -0.56  3.42449649903
0.48  -0.54  4.07867078652
0.48  -0.52  4.85781059771
0.48  -0.5  5.78578783098
0.48  -0.48  6.89103458272
0.48  -0.46  8.20741427225
0.48  -0.44  9.77525917594
0.48  -0.42  11.6426061591
0.48  -0.4  13.8666684675
0.48  -0.38  16.5155886715
0.48  -0.36  19.6705264717
0.48  -0.34  23.4281453342
0.48  -0.32  27.9035741411
0.48  -0.3  33.2339346007
0.48  -0.28  39.5825424892
0.48  -0.26  47.1439114487
0.48  -0.24  56.149712649
0.48  -0.22  66.8758729109
0.48  -0.2  43.714739931
0.48  -0.18  41.8119175952
0.48  -0.16  39.6739790459
0.48  -0.14  37.3624173343
0.48  -0.12  34.9541016998
0.48  -0.1  32.5445332429
0.48  -0.08  30.2510256569
0.48  -0.06  28.2136833255
0.48  -0.04  26.5896600769
0.48  -0.02  25.5343937412
0.48  6.17561557e-16  25.16742988
0.48  0.02  25.5343937412
0.48  0.04  26.5896600769
0.48  0.06  28.2136833255
0.48  0.08  30.2510256569
0.48  0.1  32.5445332429
0.48  0.12  34.9541016998
0.48  0.14  37.3624173343
0.48  0.16  39.6739790459
0.48  0.18  41.8119175952
0.48  0.2  79.6510287693
0.48  0.22  66.8758729109
0.48  0.24  56.149712649
0.48  0.26  47.1439114487
0.48  0.28  39.5825424892
0.48  0.3  33.2339346007
0.48  0.32  27.9035741411
0.48  0.34  23.4281453342
0.48  0.36  19.6705264717
0.48  0.38  16.5155886715
0.48  0.4  13.8666684675
0.48  0.42  11.6426061591
0.48  0.44  9.77525917594
0.48  0.46  8.20741427225
0.48  0.48  6.89103458272
0.48  0.5  5.78578783098
0.48  0.52  4.85781059771
0.48  0.54  4.07867078652
0.48  0.56  3.42449649903
0.48  0.58  2.87524462887
0.48  0.6  2.41408676522
0.48  0.62  2.02689359072
0.48  0.64  1.70180197633
0.48  0.66  1.42885150948
0.48  0.68  1.19967931906
0.48  0.7  1.00726384725
0.48  0.72  0.845709717466
0.48  0.74  0.710067107213
0.48  0.76  0.596180091505
0.48  0.78  0.500559310376
0.48  0.8  0.420275059121
0.48  0.82  0.352867525701
0.48  0.84  0.296271425088
0.48  0.86  0.248752721433
0.48  0.88  0.208855499318
0.48  0.9  0.175357356269
0.48  0.92  0.147231949832
0.48  0.94  0.123617551682
0.48  0.96  0.103790645313
0.48  0.98  0.0871437583739
0.5  -1  0.0639800334628
0.5  -0.98  0.0762020032665
0.5  -0.96  0.0907587099841
0.5  -0.94  0.108096153446
0.5  -0.92  0.128745531882
0.5  -0.9  0.15333951719
0.5  -0.88  0.182631639238
0.5  -0.86  0.217519373101
0.5  -0.84  0.25907163661
0.5  -0.82  0.308561540698
0.5  -0.8  0.367505395975
0.5  -0.78  0.43770917064
0.5  -0.76  0.521323823163
0.5  -0.74  0.620911205035
0.5  -0.72  0.739522552795
0.5  -0.7  0.88079197421
0.5  -0.68  1.04904779293
0.5  -0.66  1.24944516308
0.5  -0.64  1.4881240169
0.5  -0.62  1.77239718487
0.5  -0.6  2.11097445188
0.5  -0.58  2.51422941458
0.5  -0.56  2.99451731569
0.5  -0.54  3.5665535937
0.5  -0.52  4.24786474604
0.5  -0.5  5.0593253197
0.5  -0.48  6.025797482
0.5  -0.46  7.17689276723
0.5  -0.44  8.54787933817
0.5  -0.42  10.1807625597
0.5  -0.4  12.1255719925
0.5  -0.38  14.4418942374
0.5  -0.36  17.2006985976
0.5  -0.34  20.4865114908
0.5  -0.32  24.4000062371
0.5  -0.3  29.0610875667
0.5  -0.28  34.6125653556
0.5  -0.26  41.224530147
0.5  -0.24  49.0995645188
0.5  -0.22  58.4789499684
0.5  -0.2  38.2259248072
0.5  -0.18  36.5620205121
0.5  -0.16  34.6925211543
0.5  -0.14  32.6711987282
0.5  -0.12  30.5652707848
0.5  -0.1  28.4582473232
0.5  -0.08  26.4527121498
0.5  -0.06  24.6711781664
0.5  -0.04  23.2510669937
0.5  -0.02  22.3282997151
0.5  6.17561557e-16  22.0074117723
0.5  0.02  22.3282997151
0.5  0.04  23.2510669937
0.5  0.06  24.6711781664
0.5  0.08  26.4527121498
0.5  0.1  28.4582473232
0.5  0.12  30.5652707848
0.5  0.14  32.6711987282
0.5  0.16  34.6925211543
0.5  0.18  36.5620205121
0.5  0.2  69.6500594846
0.5  0.22  58.4789499684
0.5  0.24  49.0995645188
0.5  0.26  41.224530147
0.5  0.28  34.6125653556
0.5  0.3  29.0610875667
0.5  0.32  24.4000062371
0.5  0.34  20.4865114908
0.5  0.36  17.2006985976
0.5  0.38  14.4418942374
0.5  0.4  12.1255719925
0.5  0.42  10.1807625597
0.5  0.44  8.54787933817
0.5  0.46  7.17689276723
0.5  0.48  6.025797482
0.5  0.5  5.0593253197
0.5  0.52  4.24786474604
0.5  0.54  3.5665535937
0.5  0.56  2.99451731569
0.5  0.58  2.51422941458
0.5  0.6  2.11097445188
0.5  0.62  1.77239718487
0.5  0.64  1.4881240169
0.5  0.66  1.24944516308
0.5  0.68  1.04904779293
0.5  0.7  0.88079197421
0.5  0.72  0.739522552795
0.5  0.74  0.620911205035
0.5  0.76  0.521323823163
0.5  0.78  0.43770917064
0.5  0.8  0.367505395975
0.5  0.82  0.308561540698
0.5  0.84  0.25907163661
0.5  0.86  0.217519373101
0.5  0.88  0.182631639238
0.5  0.9  0.15333951719
0.5  0.92  0.128745531882
0.5  0.94  0.108096153446
0.5  0.96  0.0907587099841
0.5  0.98  0.0762020032665
0.52  -1  0.0559467116164
0.52  -0.98  0.0666340930225
0.52  -0.96  0.0793630621828
0.52  -0.94  0.0945236192664
0.52  -0.92  0.112580265346
0.52  -0.9  0.134086234148
0.52  -0.88  0.159700442458
0.52  -0.86  0.19020767854
0.52  -0.84  0.226542647088
0.52  -0.82  0.269818607448
0.52  -0.8  0.321361482533
0.52  -0.78  0.382750483491
0.52  -0.76  0.455866494822
0.52  -0.74  0.54294970239
0.52  -0.72  0.646668230005
0.52  -0.7  0.770199887499
0.52  -0.68  0.917329534958
0.52  -0.66  1.09256504625
0.52  -0.64  1.3012754248
0.52  -0.62  1.54985530336
0.52  -0.6  1.84592086776
0.52  -0.58  2.19854320765
0.52  -0.56  2.61852624364
0.52  -0.54  3.11873774632
0.52  -0.52  3.71450358917
0.52  -0.5  4.42407731468
0.52  -0.48  5.26919940079
0.52  -0.46  6.27576336271
0.52  -0.44  7.47460909884
0.52  -0.42  8.90246778781
0.52  -0.4  10.6030872872
0.52  -0.38  12.628572515
0.52  -0.36  15.0409818807
0.52  -0.34  17.91422868
0.52  -0.32  21.3363457082
0.52  -0.3  25.4121824788
0.52  -0.28  30.2666176845
0.52  -0.26  36.0483853294
0.52  -0.24  42.9346317586
0.52  -0.22  51.1363432064
0.52  -0.2  33.4262843533
0.52  -0.18  31.9712995913
0.52  -0.16  30.3365342469
0.52  -0.14  28.5690087122
0.52  -0.12  26.7275007143
0.52  -0.1  24.8850347512
0.52  -0.08  23.1313142244
0.52  -0.06  21.5734693373
0.52  -0.04  20.3316670759
0.52  -0.02  19.5247622959
0.52  6.17561557e-16  19.2441649873
0.52  0.02  19.5247622959
0.52  0.04  20.3316670759
0.52  0.06  21.5734693373
0.52  0.08  23.1313142244
0.52  0.1  24.8850347512
0.52  0.12  26.7275007143
0.52  0.14  28.5690087122
0.52  0.16  30.3365342469
0.52  0.18  31.9712995913
0.52  0.2  60.9048101596
0.52  0.22  51.1363432064
0.52  0.24  42.9346317586
0.52  0.26  36.0483853294
0.52  0.28  30.2666176845
0.52  0.3  25.4121824788
0.52  0.32  21.3363457082
0.52  0.34  17.91422868
0.52  0.36  15.0409818807
0.52  0.38  12.628572515
0.52  0.4  10.6030872872
0.52  0.42  8.90246778781
0.52  0.44  7.47460909884
0.52  0.46  6.27576336271
0.52  0.48  5.26919940079
0.52  0.5  4.42407731468
0.52  0.52  3.71450358917
0.52  0.54  3.11873774632
0.52  0.56  2.61852624364
0.52  0.58  2.19854320765
0.52  0.6  1.84592086776
0.52  0.62  1.54985530336
0.52  0.64  1.3012754248
0.52  0.66  1.09256504625
0.52  0.68  0.917329534958
0.52  0.7  0.770199887499
0.52  0.72  0.646668230005
0.52  0.74  0.54294970239
0.52  0.76  0.455866494822
0.52  0.78  0.382750483491
0.52  0.8  0.321361482533
0.52  0.82  0.269818607448
0.52  0.84  0.226542647088
0.52  0.86  0.19020767854
0.52  0.88  0.159700442458
0.52  0.9  0.134086234148
0.52  0.92  0.112580265346
0.52  0.94  0.0945236192664
0.52  0.96  0.0793630621828
0.52  0.98  0.0666340930225
0.54  -1  0.0489220522604
0.54  -0.98  0.0582675279206
0.54  -0.96  0.0693982499324
0.54  -0.94  0.082655250112
0.54  -0.92  0.0984447068583
0.54  -0.9  0.117250389967
0.54  -0.88  0.139648482748
0.54  -0.86  0.166325235586
0.54  -0.84  0.198097991818
0.54  -0.82  0.235940230141
0.54  -0.8  0.281011390817
0.54  -0.78  0.334692399519
0.54  -0.76  0.398627977215
0.54  -0.74  0.474777032424
0.54  -0.72  0.565472679795
0.54  -0.7  0.673493723912
0.54  -0.68  0.80214979849
0.54  -0.66  0.955382769537
0.54  -0.64  1.13788750935
0.54  -0.62  1.3552557417
0.54  -0.6  1.61414736545
0.54  -0.58  1.92249450583
0.54  -0.56  2.28974454504
0.54  -0.54  2.72714957866
0.54  -0.52  3.24811116615
0.54  -0.5  3.86859093841
0.54  -0.48  4.60759964273
0.54  -0.46  5.4877796091
0.54  -0.44  6.53609848362
0.54  -0.42  7.78467548456
0.54  -0.4  9.27176549615
0.54  -0.38  11.0429311519
0.54  -0.36  13.1524388182
0.54  -0.34  15.6649212503
0.54  -0.32  18.6573578612
0.54  -0.3  22.2214332775
0.54  -0.28  26.4663464451
0.54  -0.26  31.5221563527
0.54  -0.24  37.5437668808
0.54  -0.22  44.7156728693
0.54  -0.2  29.2292859179
0.54  -0.18  27.956988789
0.54  -0.16  26.5274842962
0.54  -0.14  24.9818889595
0.54  -0.12  23.3716003847
0.54  -0.1  21.7604741266
0.54  -0.08  20.2269504435
0.54  -0.06  18.8647082888
0.54  -0.04  17.7788265028
0.54  -0.02  17.0732365463
0.54  6.17561557e-16  16.8278709868
0.54  0.02  17.0732365463
0.54  0.04  17.7788265028
0.54  0.06  18.8647082888
0.54  0.08  20.2269504435
0.54  0.1  21.7604741266
0.54  0.12  23.3716003847
0.54  0.14  24.9818889595
0.54  0.16  26.5274842962
0.54  0.18  27.956988789
0.54  0.2  53.257612815
0.54  0.22  44.7156728693
0.54  0.24  37.5437668808
0.54  0.26  31.5221563527
0.54  0.28  26.4663464451
0.54  0.3  22.2214332775
0.54  0.32  18.6573578612
0.54  0.34  15.6649212503
0.54  0.36  13.1524388182
0.54  0.38  11.0429311519
0.54  0.4  9.27176549615
0.54  0.42  7.78467548456
0.54  0.44  6.53609848362
0.54  0.46  5.4877796091
0.54  0.48  4.60759964273
0.54  0.5  3.86859093841
0.54  0.52  3.24811116615
0.54  0.54  2.72714957866
0.54  0.56  2.28974454504
0.54  0.58  1.92249450583
0.54  0.6  1.61414736545
0.54  0.62  1.3552557417
0.54  0.64  1.13788750935
0.54  0.66  0.955382769537
0.54  0.68  0.80214979849
0.54  0.7  0.673493723912
0.54  0.72  0.565472679795
0.54  0.74  0.474777032424
0.54  0.76  0.398627977215
0.54  0.78  0.334692399519
0.54  0.8  0.281011390817
0.54  0.82  0.235940230141
0.54  0.84  0.198097991818
0.54  0.86  0.166325235586
0.54  0.88  0.139648482748
0.54  0.9  0.117250389967
0.54  0.92  0.0984447068583
0.54  0.94  0.082655250112
0.54  0.96  0.0693982499324
0.54  0.98  0.0582675279206
0.56  -1  0.0427794079084
0.56  -0.98  0.0509514672741
0.56  -0.96  0.0606846177709
0.56  -0.94  0.0722770713193
0.56  -0.92  0.0860840066295
0.56  -0.9  0.102528451446
0.56  -0.88  0.122114243602
0.56  -0.86  0.145441468006
0.56  -0.84  0.173224842505
0.56  -0.82  0.206315615982
0.56  -0.8  0.245727649582
0.56  -0.78  0.29266848019
0.56  -0.76  0.348576317898
0.56  -0.74  0.415164111012
0.56  -0.72  0.494472028713
0.56  -0.7  0.588929969365
0.56  -0.68  0.70143200965
0.56  -0.66  0.83542507557
0.56  -0.64  0.995014552071
0.56  -0.62  1.18509006706
0.56  -0.6  1.41147530368
0.56  -0.58  1.68110643087
0.56  -0.56  2.00224461919
0.56  -0.54  2.38472915306
0.56  -0.52  2.84027889445
0.56  -0.5  3.38285133469
0.56  -0.48  4.02907023495
0.56  -0.46  4.7987349582
0.56  -0.44  5.71542709762
0.56  -0.42  6.80723298802
0.56  -0.4  8.10760423704
0.56  -0.38  9.65638264184
0.56  -0.36  11.5010208934
0.56  -0.34  13.6980364694
0.56  -0.32  16.3147432612
0.56  -0.3  19.4313139896
0.56  -0.28  23.1432366
0.56  -0.26  27.5642398971
0.56  -0.24  32.8297780572
0.56  -0.22  39.1011807802
0.56  -0.2  25.5592618743
0.56  -0.18  24.4467141511
0.56  -0.16  23.1966979932
0.56  -0.14  21.8451673374
0.56  -0.12  20.4370663153
0.56  -0.1  19.0282327893
0.56  -0.08  17.6872580725
0.56  -0.06  16.4960588052
0.56  -0.04  15.5465201469
0.56  -0.02  14.9295239423
0.56  6.17561557e-16  14.7149664397
0.56  0.02  14.9295239423
0.56  0.04  15.5465201469
0.56  0.06  16.4960588052
0.56  0.08  17.6872580725
0.56  0.1  19.0282327893
0.56  0.12  20.4370663153
0.56  0.14  21.8451673374
0.56  0.16  23.1966979932
0.56  0.18  24.4467141511
0.56  0.2  46.5705962357
0.56  0.22  39.1011807802
0.56  0.24  32.8297780572
0.56  0.26  27.5642398971
0.56  0.28  23.1432366
0.56  0.3  19.4313139896
0.56  0.32  16.3147432612
0.56  0.34  13.6980364694
0.56  0.36  11.5010208934
0.56  0.38  9.65638264184
0.56  0.4  8.10760423704
0.56  0.42  6.80723298802
0.56  0.44  5.71542709762
0.56  0.46  4.7987349582
0.56  0.48  4.02907023495
0.56  0.5  3.38285133469
0.56  0.52  2.84027889445
0.56  0.54  2.38472915306
0.56  0.56  2.00224461919
0.56  0.58  1.68110643087
0.56  0.6  1.41147530368
0.56  0.62  1.18509006706
0.56  0.64  0.995014552071
0.56  0.66  0.83542507557
0.56  0.68  0.70143200965
0.56  0.7  0.588929969365
0.56  0.72  0.494472028713
0.56  0.74  0.415164111012
0.56  0.76  0.348576317898
0.56  0.78  0.29266848019
0.56  0.8  0.245727649582
0.56  0.82  0.206315615982
0.56  0.84  0.173224842505
0.56  0.86  0.145441468006
0.56  0.88  0.122114243602
0.56  0.9  0.102528451446
0.56  0.92  0.0860840066295
0.56  0.94  0.0722770713193
0.56  0.96  0.0606846177709
0.56  0.98  0.0509514672741
0.58  -1  0.0374080329102
0.58  -0.98  0.0445540099268
0.58  -0.96  0.0530650677442
0.58  -0.94  0.0632019748463
0.58  -0.92  0.0752753137663
0.58  -0.9  0.0896549969584
0.58  -0.88  0.106781600467
0.58  -0.86  0.127179862641
0.58  -0.84  0.151474761483
0.58  -0.82  0.180410663211
0.58  -0.8  0.214874128744
0.58  -0.78  0.255921076846
0.58  -0.76  0.304809136199
0.58  -0.74  0.36303617762
0.58  -0.72  0.432386207002
0.58  -0.7  0.514984025094
0.58  -0.68  0.613360328817
0.58  -0.66  0.730529248742
0.58  -0.64  0.870080698399
0.58  -0.62  1.03629036487
0.58  -0.6  1.23425071065
0.58  -0.58  1.47002700052
0.58  -0.56  1.75084313391
0.58  -0.54  2.08530297639
0.58  -0.52  2.48365397168
0.58  -0.5  2.95810111092
0.58  -0.48  3.52318087874
0.58  -0.46  4.19620663353
0.58  -0.44  4.99779906775
0.58  -0.42  5.95251800091
0.58  -0.4  7.08961486263
0.58  -0.38  8.44392892096
0.58  -0.36  10.0569547153
0.58  -0.34  11.9781133986
0.58  -0.32  14.2662669418
0.58  -0.3  16.991521593
0.58  -0.28  20.2373758477
0.58  -0.26  24.1032787416
0.58  -0.24  28.7076768484
0.58  -0.22  34.191643339
0.58  -0.2  22.3500454098
0.58  -0.18  21.3771889847
0.58  -0.16  20.2841246376
0.58  -0.14  19.1022919354
0.58  -0.12  17.8709918321
0.58  -0.1  16.639051198
0.58  -0.08  15.4664490328
0.58  -0.06  14.4248165378
0.58  -0.04  13.5945017879
0.58  -0.02  13.0549755192
0.58  6.17561557e-16  12.8673578192
0.58  0.02  13.0549755192
0.58  0.04  13.5945017879
0.58  0.06  14.4248165378
0.58  0.08  15.4664490328
0.58  0.1  16.639051198
0.58  0.12  17.8709918321
0.58  0.14  19.1022919354
0.58  0.16  20.2841246376
0.58  0.18  21.3771889847
0.58  0.2  40.7232002921
0.58  0.22  34.191643339
0.58  0.24  28.7076768484
0.58  0.26  24.1032787416
0.58  0.28  20.2373758477
0.58  0.3  16.991521593
0.58  0.32  14.2662669418
0.58  0.34  11.9781133986
0.58  0.36  10.0569547153
0.58  0.38  8.44392892096
0.58  0.4  7.08961486263
0.58  0.42  5.95251800091
0.58  0.44  4.99779906775
0.58  0.46  4.19620663353
0.58  0.48  3.52318087874
0.58  0.5  2.95810111092
0.58  0.52  2.48365397168
0.58  0.54  2.08530297639
0.58  0.56  1.75084313391
0.58  0.58  1.47002700052
0.58  0.6  1.23425071065
0.58  0.62  1.03629036487
0.58  0.64  0.870080698399
0.58  0.66  0.730529248742
0.58  0.68  0.613360328817
0.58  0.7  0.514984025094
0.58  0.72  0.432386207002
0.58  0.74  0.36303617762
0.58  0.76  0.304809136199
0.58  0.78  0.255921076846
0.58  0.8  0.214874128744
0.58  0.82  0.180410663211
0.58  0.84  0.151474761483
0.58  0.86  0.127179862641
0.58  0.88  0.106781600467
0.58  0.9  0.0896549969584
0.58  0.92  0.0752753137663
0.58  0.94  0.0632019748463
0.58  0.96  0.0530650677442
0.58  0.98  0.0445540099268
0.6  -1  0.0327110868203
0.6  -0.98  0.0389598162086
0.6  -0.96  0.0464022270904
0.6  -0.94  0.0552663459042
0.6  -0.92  0.0658237584944
0.6  -0.9  0.0783979311721
0.6  -0.88  0.0933741213302
0.6  -0.86  0.111211181262
0.6  -0.84  0.132455616841
0.6  -0.82  0.157758331794
0.6  -0.8  0.187894570603
0.6  -0.78  0.223787671058
0.6  -0.76  0.266537354203
0.6  -0.74  0.317453418455
0.6  -0.72  0.378095870239
0.6  -0.7  0.450322720694
0.6  -0.68  0.536346912873
0.6  -0.66  0.638804123641
0.6  -0.64  0.760833517611
0.6  -0.62  0.906173927339
0.6  -0.6  1.07927840662
0.6  -0.58  1.28545066664
0.6  -0.56  1.53100757528
0.6  -0.54  1.82347269825
0.6  -0.52  2.17180681204
0.6  -0.5  2.58668245119
0.6  -0.48  3.08081090189
0.6  -0.46  3.66933166025
0.6  -0.44  4.3702762882
0.6  -0.42  5.20512087857
0.6  -0.4  6.19944405659
0.6  -0.38  7.38371067789
0.6  -0.36  8.79420523471
0.6  -0.34  10.4741435687
0.6  -0.32  12.474996952
0.6  -0.3  14.8580691043
0.6  -0.28  17.6963744647
0.6  -0.26  21.0768752653
0.6  -0.24  25.1031459486
0.6  -0.22  29.8985465628
0.6  -0.2  19.543777605
0.6  -0.18  18.693072863
0.6  -0.16  17.7372534848
0.6  -0.14  16.7038114905
0.6  -0.12  15.6271132135
0.6  -0.1  14.5498548307
0.6  -0.08  13.5244843889
0.6  -0.06  12.6136390883
0.6  -0.04  11.8875785136
0.6  -0.02  11.4157950692
0.6  6.17561557e-16  11.2517346149
0.6  0.02  11.4157950692
0.6  0.04  11.8875785136
0.6  0.06  12.6136390883
0.6  0.08  13.5244843889
0.6  0.1  14.5498548307
0.6  0.12  15.6271132135
0.6  0.14  16.7038114905
0.6  0.16  17.7372534848
0.6  0.18  18.693072863
0.6  0.2  35.6100023637
0.6  0.22  29.8985465628
0.6  0.24  25.1031459486
0.6  0.26  21.0768752653
0.6  0.28  17.6963744647
0.6  0.3  14.8580691043
0.6  0.32  12.474996952
0.6  0.34  10.4741435687
0.6  0.36  8.79420523471
0.6  0.38  7.38371067789
0.6  0.4  6.19944405659
0.6  0.42  5.20512087857
0.6  0.44  4.3702762882
0.6  0.46  3.66933166025
0.6  0.48  3.08081090189
0.6  0.5  2.58668245119
0.6  0.52  2.17180681204
0.6  0.54  1.82347269825
0.6  0.56  1.53100757528
0.6  0.58  1.28545066664
0.6  0.6  1.07927840662
0.6  0.62  0.906173927339
0.6  0.64  0.760833517611
0.6  0.66  0.638804123641
0.6  0.68  0.536346912873
0.6  0.7  0.450322720694
0.6  0.72  0.378095870239
0.6  0.74  0.317453418455
0.6  0.76  0.266537354203
0.6  0.78  0.223787671058
0.6  0.8  0.187894570603
0.6  0.82  0.157758331794
0.6  0.84  0.132455616841
0.6  0.86  0.111211181262
0.6  0.88  0.0933741213302
0.6  0.9  0.0783979311721
0.6  0.92  0.0658237584944
0.6  0.94  0.0552663459042
0.6  0.96  0.0464022270904
0.6  0.98  0.0389598162086
0.62  -1  0.0286038884625
0.62  -0.98  0.0340680284783
0.62  -0.96  0.0405759715474
0.62  -0.94  0.0483271131484
0.62  -0.92  0.0575589388546
0.62  -0.9  0.0685543006032
0.62  -0.88  0.0816500829362
0.62  -0.86  0.0972475247334
0.62  -0.84  0.115824512685
0.62  -0.82  0.13795022316
0.62  -0.8  0.164302561079
0.62  -0.78  0.195688930099
0.62  -0.76  0.233070970481
0.62  -0.74  0.277594022583
0.62  -0.72  0.330622218695
0.62  -0.7  0.393780278399
0.62  -0.68  0.469003288007
0.62  -0.66  0.558595989255
0.62  -0.64  0.665303393795
0.62  -0.62  0.792394887018
0.62  -0.6  0.943764398061
0.62  -0.58  1.12404970506
0.62  -0.56  1.33877453107
0.62  -0.54  1.59451778419
0.62  -0.52  1.89911512738
0.62  -0.5  2.26189905362
0.62  -0.48  2.6939848222
0.62  -0.46  3.20861101676
0.62  -0.44  3.82154515943
0.62  -0.42  4.5515668086
0.62  -0.4  5.42104294175
0.62  -0.38  6.45661325256
0.62  -0.36  7.69000635875
0.62  -0.34  9.15901192846
0.62  -0.32  10.9086385098
0.62  -0.3  12.9924925382
0.62  -0.28  15.4744207724
0.62  -0.26  18.4304664819
0.62  -0.24  21.9511993202
0.62  -0.22  26.1444902693
0.62  -0.2  17.0898642964
0.62  -0.18  16.3459738935
0.62  -0.16  15.5101670298
0.62  -0.14  14.6064838322
0.62  -0.12  13.6649756031
0.62  -0.1  12.722977595
0.62  -0.08  11.826352487
0.62  -0.06  11.0298727637
0.62  -0.04  10.3949762281
0.62  -0.02  9.9824298307
0.62  6.17561557e-16  9.83896877843
0.62  0.02  9.9824298307
0.62  0.04  10.3949762281
0.62  0.06  11.0298727637
0.62  0.08  11.826352487
0.62  0.1  12.722977595
0.62  0.12  13.6649756031
0.62  0.14  14.6064838322
0.62  0.16  15.5101670298
0.62  0.18  16.3459738935
0.62  0.2  31.1388166757
0.62  0.22  26.1444902693
0.62  0.24  21.9511993202
0.62  0.26  18.4304664819
0.62  0.28  15.4744207724
0.62  0.3  12.9924925382
0.62  0.32  10.9086385098
0.62  0.34  9.15901192846
0.62  0.36  7.69000635875
0.62  0.38  6.45661325256
0.62  0.4  5.42104294175
0.62  0.42  4.5515668086
0.62  0.44  3.82154515943
0.62  0.46  3.20861101676
0.62  0.48  2.6939848222
0.62  0.5  2.26189905362
0.62  0.52  1.89911512738
0.62  0.54  1.59451778419
0.62  0.56  1.33877453107
0.62  0.58  1.12404970506
0.62  0.6  0.943764398061
0.62  0.62  0.792394887018
0.62  0.64  0.665303393795
0.62  0.66  0.558595989255
0.62  0.68  0.469003288007
0.62  0.7  0.393780278399
0.62  0.72  0.330622218695
0.62  0.74  0.277594022583
0.62  0.76  0.233070970481
0.62  0.78  0.195688930099
0.62  0.8  0.164302561079
0.62  0.82  0.13795022316
0.62  0.84  0.115824512685
0.62  0.86  0.0972475247334
0.62  0.88  0.0816500829362
0.62  0.9  0.0685543006032
0.62  0.92  0.0575589388546
0.62  0.94  0.0483271131484
0.62  0.96  0.0405759715474
0.62  0.98  0.0340680284783
0.64  -1  0.0250123892144
0.64  -0.98  0.0297904527625
0.64  -0.96  0.0354812596345
0.64  -0.94  0.0422591692476
0.64  -0.92  0.0503318485277
0.64  -0.9  0.0599466345723
0.64  -0.88  0.0713981127588
0.64  -0.86  0.0850371424835
0.64  -0.84  0.101281607067
0.64  -0.82  0.120629217192
0.64  -0.8  0.143672760157
0.64  -0.78  0.171118262155
0.64  -0.76  0.203806620065
0.64  -0.74  0.242739365508
0.64  -0.72  0.289109350561
0.64  -0.7  0.344337295301
0.64  -0.68  0.410115316938
0.64  -0.66  0.488458774238
0.64  -0.64  0.581768015669
0.64  -0.62  0.692901923162
0.64  -0.6  0.82526550479
0.64  -0.58  0.98291422008
0.64  -0.56  1.17067823437
0.64  -0.54  1.39431040922
0.64  -0.52  1.66066256311
0.64  -0.5  1.97789540282
0.64  -0.48  2.35572855764
0.64  -0.46  2.80573837693
0.64  -0.44  3.34171261552
0.64  -0.42  3.9800728737
0.64  -0.4  4.74037773517
0.64  -0.38  5.64592201831
0.64  -0.36  6.72445050114
0.64  -0.34  8.00900798765
0.64  -0.32  9.53895176049
0.64  -0.3  11.3611574404
0.64  -0.28  13.5314551982
0.64  -0.26  16.1163403238
0.64  -0.24  19.1950105608
0.64  -0.22  22.8617926295
0.64  -0.2  14.9440639151
0.64  -0.18  14.2935762615
0.64  -0.16  13.5627131618
0.64  -0.14  12.7724962689
0.64  -0.12  11.9492036489
0.64  -0.1  11.1254827465
0.64  -0.08  10.3414377308
0.64  -0.06  9.64496386257
0.64  -0.04  9.08978482535
0.64  -0.02  8.72903768165
0.64  6.17561557e-16  8.60358957408
0.64  0.02  8.72903768165
0.64  0.04  9.08978482535
0.64  0.06  9.64496386257
0.64  0.08  10.3414377308
0.64  0.1  11.1254827465
0.64  0.12  11.9492036489
0.64  0.14  12.7724962689
0.64  0.16  13.5627131618
0.64  0.18  14.2935762615
0.64  0.2  27.2290322831
0.64  0.22  22.8617926295
0.64  0.24  19.1950105608
0.64  0.26  16.1163403238
0.64  0.28  13.5314551982
0.64  0.3  11.3611574404
0.64  0.32  9.53895176049
0.64  0.34  8.00900798765
0.64  0.36  6.72445050114
0.64  0.38  5.64592201831
0.64  0.4  4.74037773517
0.64  0.42  3.9800728737
0.64  0.44  3.34171261552
0.64  0.46  2.80573837693
0.64  0.48  2.35572855764
0.64  0.5  1.97789540282
0.64  0.52  1.66066256311
0.64  0.54  1.39431040922
0.64  0.56  1.17067823437
0.64  0.58  0.98291422008
0.64  0.6  0.82526550479
0.64  0.62  0.692901923162
0.64  0.64  0.581768015669
0.64  0.66  0.488458774238
0.64  0.68  0.410115316938
0.64  0.7  0.344337295301
0.64  0.72  0.289109350561
0.64  0.74  0.242739365508
0.64  0.76  0.203806620065
0.64  0.78  0.171118262155
0.64  0.8  0.143672760157
0.64  0.82  0.120629217192
0.64  0.84  0.101281607067
0.64  0.86  0.0850371424835
0.64  0.88  0.0713981127588
0.64  0.9  0.0599466345723
0.64  0.92  0.0503318485277
0.64  0.94  0.0422591692476
0.64  0.96  0.0354812596345
0.64  0.98  0.0297904527625
0.66  -1  0.0218718379857
0.66  -0.98  0.0260499687078
0.66  -0.96  0.0310262388612
0.66  -0.94  0.036953115325
0.66  -0.92  0.0440121904021
0.66  -0.9  0.0524197455874
0.66  -0.88  0.0624333781695
0.66  -0.86  0.0743598936999
0.66  -0.84  0.0885647061424
0.66  -0.82  0.105483033714
0.66  -0.8  0.125633233441
0.66  -0.78  0.149632682994
0.66  -0.76  0.178216696384
0.66  -0.74  0.212261053097
0.66  -0.72  0.252808830912
0.66  -0.7  0.30110236454
0.66  -0.68  0.358621309249
0.66  -0.66  0.42712797571
0.66  -0.64  0.508721325056
0.66  -0.62  0.605901278501
0.66  -0.6  0.721645311898
0.66  -0.58  0.859499681983
0.66  -0.56  1.02368807938
0.66  -0.54  1.21924103735
0.66  -0.52  1.45215006123
0.66  -0.5  1.7295512009
0.66  -0.48  2.05994369067
0.66  -0.46  2.45345035552
0.66  -0.44  2.92212776216
0.66  -0.42  3.48033561762
0.66  -0.4  4.14517673325
0.66  -0.38  4.93702103409
0.66  -0.36  5.88012966866
0.66  -0.34  7.00339834113
0.66  -0.32  8.34124264061
0.66  -0.3  9.93465249304
0.66  -0.28  11.8324480428
0.66  -0.26  14.0927754427
0.66  -0.24  16.7848883816
0.66  -0.22  19.991269933
0.66  -0.2  13.0676898555
0.66  -0.18  12.4988773182
0.66  -0.16  11.8597812619
0.66  -0.14  11.1687838644
0.66  -0.12  10.4488637222
0.66  -0.1  9.7285690726
0.66  -0.08  9.04296861237
0.66  -0.06  8.43394388163
0.66  -0.04  7.94847302752
0.66  -0.02  7.63302123229
0.66  6.17561557e-16  7.52332436724
0.66  0.02  7.63302123229
0.66  0.04  7.94847302752
0.66  0.06  8.43394388163
0.66  0.08  9.04296861237
0.66  0.1  9.7285690726
0.66  0.12  10.4488637222
0.66  0.14  11.1687838644
0.66  0.16  11.8597812619
0.66  0.18  12.4988773182
0.66  0.2  23.8101597372
0.66  0.22  19.991269933
0.66  0.24  16.7848883816
0.66  0.26  14.0927754427
0.66  0.28  11.8324480428
0.66  0.3  9.93465249304
0.66  0.32  8.34124264061
0.66  0.34  7.00339834113
0.66  0.36  5.88012966866
0.66  0.38  4.93702103409
0.66  0.4  4.14517673325
0.66  0.42  3.48033561762
0.66  0.44  2.92212776216
0.66  0.46  2.45345035552
0.66  0.48  2.05994369067
0.66  0.5  1.7295512009
0.66  0.52  1.45215006123
0.66  0.54  1.21924103735
0.66  0.56  1.02368807938
0.66  0.58  0.859499681983
0.66  0.6  0.721645311898
0.66  0.62  0.605901278501
0.66  0.64  0.508721325056
0.66  0.66  0.42712797571
0.66  0.68  0.358621309249
0.66  0.7  0.30110236454
0.66  0.72  0.252808830912
0.66  0.74  0.212261053097
0.66  0.76  0.178216696384
0.66  0.78  0.149632682994
0.66  0.8  0.125633233441
0.66  0.82  0.105483033714
0.66  0.84  0.0885647061424
0.66  0.86  0.0743598936999
0.66  0.88  0.0624333781695
0.66  0.9  0.0524197455874
0.66  0.92  0.0440121904021
0.66  0.94  0.036953115325
0.66  0.96  0.0310262388612
0.66  0.98  0.0260499687078
0.68  -1  0.0191256138216
0.68  -0.98  0.0227791391788
0.68  -0.96  0.0271305897193
0.68  -0.94  0.0323132886077
0.68  -0.92  0.038486027449
0.68  -0.9  0.0458379314711
0.68  -0.88  0.0545942540921
0.68  -0.86  0.065023278412
0.68  -0.84  0.0774445370809
0.68  -0.82  0.0922386023922
0.68  -0.8  0.109858746555
0.68  -0.78  0.130844829406
0.68  -0.76  0.155839839059
0.68  -0.74  0.185609592279
0.68  -0.72  0.221066198182
0.68  -0.7  0.263296004147
0.68  -0.68  0.313592880187
0.68  -0.66  0.373497861552
0.68  -0.64  0.44484636418
0.68  -0.62  0.529824419614
0.68  -0.6  0.631035652358
0.68  -0.58  0.751581051771
0.68  -0.56  0.895153982616
0.68  -0.54  1.06615334528
0.68  -0.52  1.26981835273
0.68  -0.5  1.51238905367
0.68  -0.48  1.80129752003
0.68  -0.46  2.14539555665
0.68  -0.44  2.55522590983
0.68  -0.42  3.04334528429
0.68  -0.4  3.62470906536
0.68  -0.38  4.31712953384
0.68  -0.36  5.14182161269
0.68  -0.34  6.12405286649
0.68  -0.32  7.29391766899
0.68  -0.3  8.68725925817
0.68  -0.28  10.3467679296
0.68  -0.26  12.3232890153
0.68  -0.24  14.6773807229
0.68  -0.22  17.4811695658
0.68  -0.2  11.4269129956
0.68  -0.18  10.9295204614
0.68  -0.16  10.3706691945
0.68  -0.14  9.76643330968
0.68  -0.12  9.13690621504
0.68  -0.1  8.50705163606
0.68  -0.08  7.90753505008
0.68  -0.06  7.37497935836
0.68  -0.04  6.95046414004
0.68  -0.02  6.67462041722
0.68  6.17561557e-16  6.57869707142
0.68  0.02  6.67462041722
0.68  0.04  6.95046414004
0.68  0.06  7.37497935836
0.68  0.08  7.90753505008
0.68  0.1  8.50705163606
0.68  0.12  9.13690621504
0.68  0.14  9.76643330968
0.68  0.16  10.3706691945
0.68  0.18  10.9295204614
0.68  0.2  20.820560232
0.68  0.22  17.4811695658
0.68  0.24  14.6773807229
0.68  0.26  12.3232890153
0.68  0.28  10.3467679296
0.68  0.3  8.68725925817
0.68  0.32  7.29391766899
0.68  0.34  6.12405286649
0.68  0.36  5.14182161269
0.68  0.38  4.31712953384
0.68  0.4  3.62470906536
0.68  0.42  3.04334528429
0.68  0.44  2.55522590983
0.68  0.46  2.14539555665
0.68  0.48  1.80129752003
0.68  0.5  1.51238905367
0.68  0.52  1.26981835273
0.68  0.54  1.06615334528
0.68  0.56  0.895153982615
0.68  0.58  0.751581051771
0.68  0.6  0.631035652358
0.68  0.62  0.529824419614
0.68  0.64  0.44484636418
0.68  0.66  0.373497861552
0.68  0.68  0.313592880187
0.68  0.7  0.263296004147
0.68  0.72  0.221066198182
0.68  0.74  0.185609592279
0.68  0.76  0.155839839059
0.68  0.78  0.130844829406
0.68  0.8  0.109858746555
0.68  0.82  0.0922386023922
0.68  0.84  0.0774445370809
0.68  0.86  0.0650232784119
0.68  0.88  0.0545942540921
0.68  0.9  0.0458379314711
0.68  0.92  0.038486027449
0.68  0.94  0.0323132886077
0.68  0.96  0.0271305897193
0.68  0.98  0.0227791391788
0.7  -1  0.0167242050848
0.7  -0.98  0.0199189944351
0.7  -0.96  0.0237240776045
0.7  -0.94  0.0282560377241
0.7  -0.92  0.0336537285527
0.7  -0.9  0.0400825287876
0.7  -0.88  0.0477394090671
0.7  -0.86  0.0568589669117
0.7  -0.84  0.0677206145079
0.7  -0.82  0.0806571395581
0.7  -0.8  0.0960649014922
0.7  -0.78  0.11441597544
0.7  -0.76  0.136272616038
0.7  -0.74  0.162304484235
0.7  -0.72  0.193309164882
0.7  -0.7  0.230236603773
0.7  -0.68  0.274218212827
0.7  -0.66  0.326601535177
0.7  -0.64  0.388991532254
0.7  -0.62  0.463299757865
0.7  -0.6  0.551802925873
0.7  -0.58  0.657212665952
0.7  -0.56  0.782758604633
0.7  -0.54  0.932287317133
0.7  -0.52  1.11038018176
0.7  -0.5  1.32249374779
0.7  -0.48  1.57512691748
0.7  -0.46  1.87602006462
0.7  -0.44  2.23439219011
0.7  -0.42  2.66122338101
0.7  -0.4  3.1695912271
0.7  -0.38  3.77507150229
0.7  -0.36  4.4962153875
0.7  -0.34  5.35511785634
0.7  -0.32  6.3780946382
0.7  -0.3  7.59648850038
0.7  -0.28  9.04762955238
0.7  -0.26  10.7759789952
0.7  -0.24  12.8344913584
0.7  -0.22  15.2862369631
0.7  -0.2  9.99215179224
0.7  -0.18  9.55721177789
0.7  -0.16  9.06852977862
0.7  -0.14  8.54016164614
0.7  -0.12  7.98967786375
0.7  -0.1  7.43890771589
0.7  -0.08  6.91466632791
0.7  -0.06  6.44897823598
0.7  -0.04  6.07776507447
0.7  -0.02  5.83655624139
0.7  6.17561557e-16  5.75267701416
0.7  0.02  5.83655624139
0.7  0.04  6.07776507447
0.7  0.06  6.44897823598
0.7  0.08  6.91466632791
0.7  0.1  7.43890771589
0.7  0.12  7.98967786375
0.7  0.14  8.54016164614
0.7  0.16  9.06852977862
0.7  0.18  9.55721177789
0.7  0.2  18.2063343194
0.7  0.22  15.2862369631
0.7  0.24  12.8344913584
0.7  0.26  10.7759789952
0.7  0.28  9.04762955238
0.7  0.3  7.59648850038
0.7  0.32  6.3780946382
0.7  0.34  5.35511785634
0.7  0.36  4.4962153875
0.7  0.38  3.77507150229
0.7  0.4  3.1695912271
0.7  0.42  2.66122338101
0.7  0.44  2.23439219011
0.7  0.46  1.87602006462
0.7  0.48  1.57512691748
0.7  0.5  1.32249374779
0.7  0.52  1.11038018176
0.7  0.54  0.932287317133
0.7  0.56  0.782758604633
0.7  0.58  0.657212665952
0.7  0.6  0.551802925873
0.7  0.62  0.463299757865
0.7  0.64  0.388991532254
0.7  0.66  0.326601535177
0.7  0.68  0.274218212827
0.7  0.7  0.230236603773
0.7  0.72  0.193309164882
0.7  0.74  0.162304484235
0.7  0.76  0.136272616038
0.7  0.78  0.11441597544
0.7  0.8  0.0960649014922
0.7  0.82  0.0806571395581
0.7  0.84  0.0677206145079
0.7  0.86  0.0568589669117
0.7  0.88  0.0477394090671
0.7  0.9  0.0400825287876
0.7  0.92  0.0336537285527
0.7  0.94  0.0282560377241
0.7  0.96  0.0237240776045
0.7  0.98  0.0199189944351
0.72  -1  0.0146243168103
0.72  -0.98  0.0174179689668
0.72  -0.96  0.0207452865569
0.72  -0.94  0.0247082145541
0.72  -0.92  0.0294281722633
0.72  -0.9  0.0350497734616
0.72  -0.88  0.0417452571882
0.72  -0.86  0.0497197649399
0.72  -0.84  0.0592176259577
0.72  -0.82  0.0705298431781
0.72  -0.8  0.0840030092102
0.72  -0.78  0.100049925512
0.72  -0.76  0.119162250128
0.72  -0.74  0.141925561493
0.72  -0.72  0.169037299844
0.72  -0.7  0.201328135946
0.72  -0.68  0.239787421836
0.72  -0.66  0.285593503365
0.72  -0.64  0.340149823287
0.72  -0.62  0.405127921046
0.72  -0.6  0.48251864671
0.72  -0.58  0.574693158204
0.72  -0.56  0.684475570713
0.72  -0.54  0.815229484143
0.72  -0.52  0.97096103974
0.72  -0.5  1.1564416634
0.72  -0.48  1.37735425635
0.72  -0.46  1.6404673124
0.72  -0.44  1.9538422963
0.72  -0.42  2.32708063729
0.72  -0.4  2.77161790526
0.72  -0.38  3.30107418266
0.72  -0.36  3.93167136739
0.72  -0.34  4.68273019199
0.72  -0.32  5.57726218748
0.72  -0.3  6.64267472876
0.72  -0.28  7.91161076328
0.72  -0.26  9.42294895137
0.72  -0.24  11.2229948612
0.72  -0.22  13.3668997152
0.72  -0.2  8.73753895539
0.72  -0.18  8.3572099334
0.72  -0.16  7.92988676076
0.72  -0.14  7.46786043887
0.72  -0.12  6.98649530421
0.72  -0.1  6.50487976009
0.72  -0.08  6.04646202939
0.72  -0.06  5.63924565309
0.72  -0.04  5.31464195141
0.72  -0.02  5.10371925735
0.72  6.17561557e-16  5.03037189127
0.72  0.02  5.10371925735
0.72  0.04  5.31464195141
0.72  0.06  5.63924565309
0.72  0.08  6.04646202939
0.72  0.1  6.50487976009
0.72  0.12  6.98649530421
0.72  0.14  7.46786043887
0.72  0.16  7.92988676076
0.72  0.18  8.3572099334
0.72  0.2  15.9203501567
0.72  0.22  13.3668997152
0.72  0.24  11.2229948612
0.72  0.26  9.42294895137
0.72  0.28  7.91161076328
0.72  0.3  6.64267472876
0.72  0.32  5.57726218748
0.72  0.34  4.68273019199
0.72  0.36  3.93167136739
0.72  0.38  3.30107418266
0.72  0.4  2.77161790526
0.72  0.42  2.32708063729
0.72  0.44  1.9538422963
0.72  0.46  1.6404673124
0.72  0.48  1.37735425635
0.72  0.5  1.1564416634
0.72  0.52  0.97096103974
0.72  0.54  0.815229484143
0.72  0.56  0.684475570713
0.72  0.58  0.574693158204
0.72  0.6  0.48251864671
0.72  0.62  0.405127921046
0.72  0.64  0.340149823287
0.72  0.66  0.285593503365
0.72  0.68  0.239787421836
0.72  0.7  0.201328135946
0.72  0.72  0.169037299844
0.72  0.74  0.141925561493
0.72  0.76  0.119162250128
0.72  0.78  0.100049925512
0.72  0.8  0.0840030092102
0.72  0.82  0.0705298431781
0.72  0.84  0.0592176259577
0.72  0.86  0.0497197649399
0.72  0.88  0.0417452571882
0.72  0.9  0.0350497734616
0.72  0.92  0.0294281722633
0.72  0.94  0.0247082145541
0.72  0.96  0.0207452865569
0.72  0.98  0.0174179689668
0.74  -1  0.0127880901415
0.74  -0.98  0.0152309718203
0.74  -0.96  0.0181405119939
0.74  -0.94  0.0216058554426
0.74  -0.92  0.0257331760849
0.74  -0.9  0.0306489300169
0.74  -0.88  0.0365037299741
0.74  -0.86  0.0434769599229
0.74  -0.84  0.0517822711673
0.74  -0.82  0.0616741283659
0.74  -0.8  0.0734556060201
0.74  -0.78  0.0874876743093
0.74  -0.76  0.104200258779
0.74  -0.74  0.124105412737
0.74  -0.72  0.147813005948
0.74  -0.7  0.1760494103
0.74  -0.68  0.209679754958
0.74  -0.66  0.249734432877
0.74  -0.64  0.297440670782
0.74  -0.62  0.354260129916
0.74  -0.6  0.421933689558
0.74  -0.58  0.50253478546
0.74  -0.56  0.598532937396
0.74  -0.54  0.712869412253
0.74  -0.52  0.849047340882
0.74  -0.5  1.01123904977
0.74  -0.48  1.20441389608
0.74  -0.46  1.43449052268
0.74  -0.44  1.70851819823
0.74  -0.42  2.03489279821
0.74  -0.4  2.42361404432
0.74  -0.38  2.88659188384
0.74  -0.36  3.438011396
0.74  -0.34  4.09476740554
0.74  -0.32  4.87698211964
0.74  -0.3  5.808621648
0.74  -0.28  6.91823029527
0.74  -0.26  8.23980512398
0.74  -0.24  9.81383758322
0.74  -0.22  11.6885541176
0.74  -0.2  7.64045508759
0.74  -0.18  7.30788011129
0.74  -0.16  6.93421156169
0.74  -0.14  6.53019718422
0.74  -0.12  6.10927217195
0.74  -0.1  5.68812819157
0.74  -0.08  5.28726931121
0.74  -0.06  4.93118295212
0.74  -0.04  4.64733643462
0.74  -0.02  4.46289715726
0.74  6.17561557e-16  4.39875927367
0.74  0.02  4.46289715726
0.74  0.04  4.64733643462
0.74  0.06  4.93118295212
0.74  0.08  5.28726931121
0.74  0.1  5.68812819157
0.74  0.12  6.10927217195
0.74  0.14  6.53019718422
0.74  0.16  6.93421156169
0.74  0.18  7.30788011129
0.74  0.2  13.9213937668
0.74  0.22  11.6885541176
0.74  0.24  9.81383758322
0.74  0.26  8.23980512398
0.74  0.28  6.91823029527
0.74  0.3  5.808621648
0.74  0.32  4.87698211964
0.74  0.34  4.09476740554
0.74  0.36  3.438011396
0.74  0.38  2.88659188384
0.74  0.4  2.42361404432
0.74  0.42  2.03489279821
0.74  0.44  1.70851819823
0.74  0.46  1.43449052268
0.74  0.48  1.20441389608
0.74  0.5  1.01123904977
0.74  0.52  0.849047340882
0.74  0.54  0.712869412253
0.74  0.56  0.598532937396
0.74  0.58  0.50253478546
0.74  0.6  0.421933689558
0.74  0.62  0.354260129916
0.74  0.64  0.297440670782
0.74  0.66  0.249734432877
0.74  0.68  0.209679754958
0.74  0.7  0.1760494103
0.74  0.72  0.147813005948
0.74  0.74  0.124105412737
0.74  0.76  0.104200258779
0.74  0.78  0.0874876743093
0.74  0.8  0.0734556060201
0.74  0.82  0.0616741283659
0.74  0.84  0.0517822711673
0.74  0.86  0.0434769599229
0.74  0.88  0.0365037299741
0.74  0.9  0.0306489300169
0.74  0.92  0.0257331760849
0.74  0.94  0.0216058554426
0.74  0.96  0.0181405119939
0.74  0.98  0.0152309718203
0.76  -1  0.011182419773
0.76  -0.98  0.0133185736541
0.76  -0.96  0.0158627924708
0.76  -0.94  0.0188930280004
0.76  -0.92  0.0225021229824
0.76  -0.9  0.0268006557078
0.76  -0.88  0.0319203280032
0.76  -0.86  0.0380180004154
0.76  -0.84  0.0452804982281
0.76  -0.82  0.0539303355615
0.76  -0.8  0.0642325329356
0.76  -0.78  0.0765027371769
0.76  -0.76  0.0911168924543
0.76  -0.74  0.108522758752
0.76  -0.72  0.129253630693
0.76  -0.7  0.153944677037
0.76  -0.68  0.183352401485
0.76  -0.66  0.218377821027
0.76  -0.64  0.260094072019
0.76  -0.62  0.30977928977
0.76  -0.6  0.368955769064
0.76  -0.58  0.439436605417
0.76  -0.56  0.523381246134
0.76  -0.54  0.623361653143
0.76  -0.52  0.742441104796
0.76  -0.5  0.884268050997
0.76  -0.48  1.05318789728
0.76  -0.46  1.25437614276
0.76  -0.44  1.49399695115
0.76  -0.42  1.77939201326
0.76  -0.4  2.11930548748
0.76  -0.38  2.5241519102
0.76  -0.36  3.00633528456
0.76  -0.34  3.58062912404
0.76  -0.32  4.26462909503
0.76  -0.3  5.07929212664
