0.3  -0.72  1.54863163892
0.3  -0.7  1.88949289582
0.3  -0.68  2.30537935144
0.3  -0.66  2.81280441212
0.3  -0.64  3.43191616422
0.3  -0.62  4.18729738459
0.3  -0.6  5.10894163727
0.3  -0.58  6.2334442137
0.3  -0.56  7.60545520462
0.3  -0.54  9.27945240008
0.3  -0.52  11.3219044132
0.3  -0.5  13.8139099177
0.3  -0.48  16.8544177951
0.3  -0.46  20.5641560502
0.3  -0.44  25.0904255014
0.3  -0.42  30.6129485841
0.3  -0.4  37.3510055045
0.3  -0.38  45.5721410946
0.3  -0.36  55.6027880882
0.3  -0.34  67.8412286305
0.3  -0.32  82.7734086786
0.3  -0.3  100.992233227
0.3  -0.28  123.221108506
0.3  -0.26  150.342665929
0.3  -0.24  183.43380832
0.3  -0.22  223.808469983
0.3  -0.2  137.658151072
0.3  -0.18  129.760976955
0.3  -0.16  121.206111719
0.3  -0.14  112.167781147
0.3  -0.12  102.866493791
0.3  -0.1  93.5866786159
0.3  -0.08  84.7011864755
0.3  -0.06  76.6988612482
0.3  -0.04  70.1964539749
0.3  -0.02  65.8875210247
0.3  6.17561557e-16  64.3698038155
0.3  0.02  65.8875210247
0.3  0.04  70.1964539749
0.3  0.06  76.6988612482
0.3  0.08  84.7011864755
0.3  0.1  93.5866786159
0.3  0.12  102.866493791
0.3  0.14  112.167781147
0.3  0.16  121.206111719
0.3  0.18  129.760976955
0.3  0.2  273.06978847
0.3  0.22  223.808469983
0.3  0.24  183.43380832
0.3  0.26  150.342665929
0.3  0.28  123.221108506
0.3  0.3  100.992233227
0.3  0.32  82.7734086786
0.3  0.34  67.8412286305
0.3  0.36  55.6027880882
0.3  0.38  45.5721410946
0.3  0.4  37.3510055045
0.3  0.42  30.6129485841
0.3  0.44  25.0904255014
0.3  0.46  20.5641560502
0.3  0.48  16.8544177951
0.3  0.5  13.8139099177
0.3  0.52  11.3219044132
0.3  0.54  9.27945240008
0.3  0.56  7.60545520462
0.3  0.58  6.2334442137
0.3  0.6  5.10894163727
0.3  0.62  4.18729738459
0.3  0.64  3.43191616422
0.3  0.66  2.81280441212
0.3  0.68  2.30537935144
0.3  0.7  1.88949289582
0.3  0.72  1.54863163892
0.3  0.74  1.26926116439
0.3  0.76  1.04028864124
0.3  0.78  0.852622366034
0.3  0.8  0.698810762937
0.3  0.82  0.57274650754
0.3  0.84  0.469424026213
0.3  0.86  0.38474074217
0.3  0.88  0.315334176394
0.3  0.9  0.25844843528
0.3  0.92  0.21182478367
0.3  0.94  0.173611958333
0.3  0.96  0.142292660726
0.3  0.98  0.116623310346
0.32  -1  0.0819154880678
0.32  -0.98  0.0999454801721
0.32  -0.96  0.12194396008
0.32  -0.94  0.148784411004
0.32  -0.92  0.181532574006
0.32  -0.9  0.221488764871
0.32  -0.88  0.270239505128
0.32  -0.86  0.329720517311
0.32  -0.84  0.402293585775
0.32  -0.82  0.490840334946
0.32  -0.8  0.598876648619
0.32  -0.78  0.730692273488
0.32  -0.76  0.891521150084
0.32  -0.74  1.08774923437
0.32  -0.72  1.32716806187
0.32  -0.7  1.61928412247
0.32  -0.68  1.97569633012
0.32  -0.66  2.41055657539
0.32  -0.64  2.94113164791
0.32  -0.62  3.58848884055
0.32  -0.6  4.37833245851
0.32  -0.58  5.34202444789
0.32  -0.56  6.51782966969
0.32  -0.54  7.95243526449
0.32  -0.52  9.70280443656
0.32  -0.5  11.8384382649
0.32  -0.48  14.4441353495
0.32  -0.46  17.6233588694
0.32  -0.44  21.5023447457
0.32  -0.42  26.2351140319
0.32  -0.4  32.0095885545
0.32  -0.38  39.055052636
0.32  -0.36  47.651257179
0.32  -0.34  58.1395276021
0.32  -0.32  70.9363166874
0.32  -0.3  86.5497404728
0.32  -0.28  105.599753775
0.32  -0.26  128.842766442
0.32  -0.24  157.20167776
0.32  -0.22  191.802521577
0.32  -0.2  117.972212996
0.32  -0.18  111.204381962
0.32  -0.16  103.872913568
0.32  -0.14  96.1271182689
0.32  -0.12  88.155970578
0.32  -0.1  80.2032244171
0.32  -0.08  72.5884107413
0.32  -0.06  65.7304658334
0.32  -0.04  60.1579416504
0.32  -0.02  56.4652118569
0.32  6.17561557e-16  55.1645372766
0.32  0.02  56.4652118569
0.32  0.04  60.1579416504
0.32  0.06  65.7304658334
0.32  0.08  72.5884107414
0.32  0.1  80.2032244171
0.32  0.12  88.155970578
0.32  0.14  96.1271182689
0.32  0.16  103.872913568
0.32  0.18  111.204381962
0.32  0.2  234.019177196
0.32  0.22  191.802521577
0.32  0.24  157.20167776
0.32  0.26  128.842766442
0.32  0.28  105.599753775
0.32  0.3  86.5497404728
0.32  0.32  70.9363166874
0.32  0.34  58.1395276021
0.32  0.36  47.651257179
0.32  0.38  39.055052636
0.32  0.4  32.0095885545
0.32  0.42  26.2351140319
0.32  0.44  21.5023447457
0.32  0.46  17.6233588694
0.32  0.48  14.4441353495
0.32  0.5  11.8384382649
0.32  0.52  9.70280443656
0.32  0.54  7.95243526449
0.32  0.56  6.51782966969
0.32  0.58  5.34202444789
0.32  0.6  4.37833245851
0.32  0.62  3.58848884055
0.32  0.64  2.94113164791
0.32  0.66  2.41055657539
0.32  0.68  1.97569633012
0.32  0.7  1.61928412247
0.32  0.72  1.32716806187
0.32  0.74  1.08774923437
0.32  0.76  0.891521150084
0.32  0.78  0.730692273488
0.32  0.8  0.598876648619
0.32  0.82  0.490840334946
0.32  0.84  0.402293585775
0.32  0.86  0.329720517311
0.32  0.88  0.270239505128
0.32  0.9  0.221488764871
0.32  0.92  0.181532574006
0.32  0.94  0.148784411004
0.32  0.96  0.12194396008
0.32  0.98  0.0999454801721
0.34  -1  0.0702010838498
0.34  -0.98  0.0856526793586
0.34  -0.96  0.104505245204
0.34  -0.94  0.127507351281
0.34  -0.92  0.155572331312
0.34  -0.9  0.189814548155
0.34  -0.88  0.231593641282
0.34  -0.86  0.282568513339
0.34  -0.84  0.344763199407
0.34  -0.82  0.420647234402
0.34  -0.8  0.51323370973
0.34  -0.78  0.626198912678
0.34  -0.76  0.764028299009
0.34  -0.74  0.932194594829
0.34  -0.72  1.13737509953
0.34  -0.7  1.38771681815
0.34  -0.68  1.69315995063
0.34  -0.66  2.06583258265
0.34  -0.64  2.52053224974
0.34  -0.62  3.07531349604
0.34  -0.6  3.75220475751
0.34  -0.58  4.5780830346
0.34  -0.56  5.58574108454
0.34  -0.54  6.81518950788
0.34  -0.52  8.31524543033
0.34  -0.5  10.1454708613
0.34  -0.48  12.3785376945
0.34  -0.46  15.103113256
0.34  -0.44  18.427380976
0.34  -0.42  22.4833359772
0.34  -0.4  27.432026142
0.34  -0.38  33.469946765
0.34  -0.36  40.8368426982
0.34  -0.34  49.8252277861
0.34  -0.32  60.7919995746
0.34  -0.3  74.1726104724
0.34  -0.28  90.4983580535
0.34  -0.26  110.417481038
0.34  -0.24  134.7208986
0.34  -0.22  164.37361502
0.34  -0.2  101.101481683
0.34  -0.18  95.3014909231
0.34  -0.16  89.0184663131
0.34  -0.14  82.3803660212
0.34  -0.12  75.5491400758
0.34  -0.1  68.7336841315
0.34  -0.08  62.207834308
0.34  -0.06  56.3306164964
0.34  -0.04  51.554996566
0.34  -0.02  48.390349196
0.34  6.17561557e-16  47.2756788519
0.34  0.02  48.390349196
0.34  0.04  51.554996566
0.34  0.06  56.3306164964
0.34  0.08  62.207834308
0.34  0.1  68.7336841315
0.34  0.12  75.5491400758
0.34  0.14  82.3803660212
0.34  0.16  89.0184663131
0.34  0.18  95.3014909231
0.34  0.2  200.553036651
0.34  0.22  164.37361502
0.34  0.24  134.7208986
0.34  0.26  110.417481038
0.34  0.28  90.4983580535
0.34  0.3  74.1726104724
0.34  0.32  60.7919995746
0.34  0.34  49.8252277861
0.34  0.36  40.8368426982
0.34  0.38  33.469946765
0.34  0.4  27.432026142
0.34  0.42  22.4833359772
0.34  0.44  18.427380976
0.34  0.46  15.103113256
0.34  0.48  12.3785376945
0.34  0.5  10.1454708613
0.34  0.52  8.31524543033
0.34  0.54  6.81518950788
0.34  0.56  5.58574108454
0.34  0.58  4.5780830346
0.34  0.6  3.75220475751
0.34  0.62  3.07531349604
0.34  0.64  2.52053224974
0.34  0.66  2.06583258265
0.34  0.68  1.69315995063
0.34  0.7  1.38771681815
0.34  0.72  1.13737509953
0.34  0.74  0.932194594829
0.34  0.76  0.764028299009
0.34  0.78  0.626198912678
0.34  0.8  0.51323370973
0.34  0.82  0.420647234402
0.34  0.84  0.344763199407
0.34  0.86  0.282568513339
0.34  0.88  0.231593641282
0.34  0.9  0.189814548155
0.34  0.92  0.155572331312
0.34  0.94  0.127507351281
0.34  0.96  0.104505245204
0.34  0.98  0.0856526793586
0.36  -1  0.0601619094255
0.36  -0.98  0.0734038344572
0.36  -0.96  0.0895603707474
0.36  -0.94  0.109273038224
0.36  -0.92  0.133324558429
0.36  -0.9  0.162669933675
0.36  -0.88  0.198474366865
0.36  -0.86  0.242159527656
0.36  -0.84  0.295460002019
0.36  -0.82  0.360492166622
0.36  -0.8  0.439838222797
0.36  -0.78  0.536648726785
0.36  -0.76  0.654767687375
0.36  -0.74  0.798885198142
0.36  -0.72  0.974723664768
0.36  -0.7  1.18926502189
0.36  -0.68  1.45102796149
0.36  -0.66  1.7704061805
0.36  -0.64  2.16008107848
0.36  -0.62  2.63552529189
0.36  -0.6  3.21561705871
0.36  -0.58  3.92338980776
0.36  -0.56  4.78694673607
0.36  -0.54  5.84057668922
0.36  -0.52  7.12611565231
0.36  -0.5  8.69460791155
0.36  -0.48  10.6083328455
0.36  -0.46  12.9432778231
0.36  -0.44  15.7921553975
0.36  -0.42  19.2680846002
0.36  -0.4  23.5090825043
0.36  -0.38  28.6835444032
0.36  -0.36  34.9969302025
0.36  -0.34  42.6999225195
0.36  -0.32  52.0983804186
0.36  -0.3  63.5654840122
0.36  -0.28  77.556552147
0.36  -0.26  94.6271215331
0.36  -0.24  115.455005177
0.36  -0.22  140.867205981
0.36  -0.2  86.6433657469
0.36  -0.18  81.6728083188
0.36  -0.16  76.2882937675
0.36  -0.14  70.5994814784
0.36  -0.12  64.7451616579
0.36  -0.1  58.9043566343
0.36  -0.08  53.3117423259
0.36  -0.06  48.2750017762
0.36  -0.04  44.182324029
0.36  -0.02  41.4702401409
0.36  6.17561557e-16  40.5149743159
0.36  0.02  41.4702401409
0.36  0.04  44.182324029
0.36  0.06  48.2750017762
0.36  0.08  53.3117423259
0.36  0.1  58.9043566343
0.36  0.12  64.745161658
0.36  0.14  70.5994814784
0.36  0.16  76.2882937675
0.36  0.18  81.6728083188
0.36  0.2  171.872754157
0.36  0.22  140.867205981
0.36  0.24  115.455005177
0.36  0.26  94.6271215331
0.36  0.28  77.556552147
0.36  0.3  63.5654840122
0.36  0.32  52.0983804186
0.36  0.34  42.6999225195
0.36  0.36  34.9969302025
0.36  0.38  28.6835444032
0.36  0.4  23.5090825043
0.36  0.42  19.2680846002
0.36  0.44  15.7921553975
0.36  0.46  12.9432778231
0.36  0.48  10.6083328455
0.36  0.5  8.69460791155
0.36  0.52  7.12611565231
0.36  0.54  5.84057668922
0.36  0.56  4.78694673607
0.36  0.58  3.92338980776
0.36  0.6  3.21561705871
0.36  0.62  2.63552529189
0.36  0.64  2.16008107848
0.36  0.66  1.7704061805
0.36  0.68  1.45102796149
0.36  0.7  1.18926502189
0.36  0.72  0.974723664768
0.36  0.74  0.798885198142
0.36  0.76  0.654767687375
0.36  0.78  0.536648726785
0.36  0.8  0.439838222797
0.36  0.82  0.360492166622
0.36  0.84  0.295460002019
0.36  0.86  0.242159527656
0.36  0.88  0.198474366865
0.36  0.9  0.162669933675
0.36  0.92  0.133324558429
0.36  0.94  0.109273038224
0.36  0.96  0.0895603707474
0.36  0.98  0.0734038344572
0.38  -1  0.0515583969255
0.38  -0.98  0.0629066475605
0.38  -0.96  0.07675270263
0.38  -0.94  0.093646340879
0.38  -0.92  0.114258349993
0.38  -0.9  0.139407161248
0.38  -0.88  0.17009134657
0.38  -0.86  0.20752926836
0.38  -0.84  0.253207456431
0.38  -0.82  0.308939632945
0.38  -0.8  0.376938729015
0.38  -0.78  0.459904752515
0.38  -0.76  0.561131996009
0.38  -0.74  0.684639841671
0.38  -0.72  0.835332356979
0.38  -0.7  1.01919301821
0.38  -0.68  1.24352229347
0.38  -0.66  1.51722751896
0.38  -0.64  1.85117657832
0.38  -0.62  2.25862942855
0.38  -0.6  2.75576460682
0.38  -0.58  3.36232162399
0.38  -0.56  4.10238475201
0.38  -0.54  5.00533932669
0.38  -0.52  6.10703853729
0.38  -0.5  7.45122703212
0.38  -0.48  9.09127786653
0.38  -0.46  11.0923117616
0.38  -0.44  13.5337828215
0.38  -0.42  16.5126333805
0.38  -0.4  20.1471432454
0.38  -0.38  24.5816261766
0.38  -0.36  29.9921600858
0.38  -0.34  36.593578478
0.38  -0.32  44.6480007441
0.38  -0.3  54.4752400108
0.38  -0.28  66.4655018093
0.38  -0.26  81.0948777808
0.38  -0.24  98.9442496222
0.38  -0.22  120.72235388
0.38  -0.2  74.2528467729
0.38  -0.18  69.9931087549
0.38  -0.16  65.3786119555
0.38  -0.14  60.5033338129
0.38  -0.12  55.4862167049
0.38  -0.1  50.480681697
0.38  -0.08  45.6878446491
0.38  -0.06  41.3713880913
0.38  -0.04  37.8639877146
0.38  -0.02  35.5397480265
0.38  6.17561557e-16  34.721090922
0.38  0.02  35.5397480265
0.38  0.04  37.8639877146
0.38  0.06  41.3713880913
0.38  0.08  45.6878446491
0.38  0.1  50.480681697
0.38  0.12  55.4862167049
0.38  0.14  60.5033338129
0.38  0.16  65.3786119555
0.38  0.18  69.9931087549
0.38  0.2  147.293923416
0.38  0.22  120.72235388
0.38  0.24  98.9442496222
0.38  0.26  81.0948777808
0.38  0.28  66.4655018093
0.38  0.3  54.4752400108
0.38  0.32  44.6480007441
0.38  0.34  36.593578478
0.38  0.36  29.9921600858
0.38  0.38  24.5816261766
0.38  0.4  20.1471432454
0.38  0.42  16.5126333805
0.38  0.44  13.5337828215
0.38  0.46  11.0923117616
0.38  0.48  9.09127786653
0.38  0.5  7.45122703212
0.38  0.52  6.10703853729
0.38  0.54  5.00533932669
0.38  0.56  4.10238475201
0.38  0.58  3.36232162399
0.38  0.6  2.75576460682
0.38  0.62  2.25862942855
0.38  0.64  1.85117657832
0.38  0.66  1.51722751896
0.38  0.68  1.24352229347
0.38  0.7  1.01919301821
0.38  0.72  0.835332356979
0.38  0.74  0.684639841671
0.38  0.76  0.561131996009
0.38  0.78  0.459904752515
0.38  0.8  0.376938729015
0.38  0.82  0.308939632945
0.38  0.84  0.253207456431
0.38  0.86  0.20752926836
0.38  0.88  0.17009134657
0.38  0.9  0.139407161248
0.38  0.92  0.114258349993
0.38  0.94  0.093646340879
0.38  0.96  0.07675270263
0.38  0.98  0.0629066475605
0.4  -1  0.0441852381168
0.4  -0.98  0.0539106211081
0.4  -0.96  0.0657766075759
0.4  -0.94  0.0802543546201
0.4  -0.92  0.0979187232795
0.4  -0.9  0.119471104267
0.4  -0.88  0.145767267757
0.4  -0.86  0.177851343049
0.4  -0.84  0.216997277311
0.4  -0.82  0.264759419598
0.4  -0.8  0.323034238653
0.4  -0.78  0.394135625091
0.4  -0.76  0.480886767958
0.4  -0.74  0.586732253762
0.4  -0.72  0.715874839032
0.4  -0.7  0.873442327182
0.4  -0.68  1.06569117577
0.4  -0.66  1.3002549187
0.4  -0.64  1.58644726731
0.4  -0.62  1.93563192553
0.4  -0.6  2.36167380305
0.4  -0.58  2.88148954274
0.4  -0.56  3.51571922177
0.4  -0.54  4.28954589734
0.4  -0.52  5.23369553845
0.4  -0.5  6.38565704733
0.4  -0.48  7.79117081353
0.4  -0.46  9.50604490591
0.4  -0.44  11.5983710171
0.4  -0.42  14.1512281482
0.4  -0.4  17.2659813872
0.4  -0.38  21.0663067644
0.4  -0.36  25.7031019979
0.4  -0.34  31.3604781183
0.4  -0.32  38.2630698772
0.4  -0.3  46.6849552135
0.4  -0.28  56.960537936
0.4  -0.26  69.4978257368
0.4  -0.24  84.7946307594
0.4  -0.22  103.45833599
0.4  -0.2  63.6342460424
0.4  -0.18  59.9836760118
0.4  -0.16  56.0290798252
0.4  -0.14  51.8509955856
0.4  -0.12  47.5513562
0.4  -0.1  43.261642605
0.4  -0.08  39.154209891
0.4  -0.06  35.4550324107
0.4  -0.04  32.4492112437
0.4  -0.02  30.4573517178
0.4  6.17561557e-16  29.7557674704
0.4  0.02  30.4573517178
0.4  0.04  32.4492112437
0.4  0.06  35.4550324107
0.4  0.08  39.154209891
0.4  0.1  43.261642605
0.4  0.12  47.5513562
0.4  0.14  51.8509955856
0.4  0.16  56.0290798252
0.4  0.18  59.9836760118
0.4  0.2  126.230012324
0.4  0.22  103.45833599
0.4  0.24  84.7946307594
0.4  0.26  69.4978257368
0.4  0.28  56.960537936
0.4  0.3  46.6849552135
0.4  0.32  38.2630698772
0.4  0.34  31.3604781183
0.4  0.36  25.7031019979
0.4  0.38  21.0663067644
0.4  0.4  17.2659813872
0.4  0.42  14.1512281482
0.4  0.44  11.5983710171
0.4  0.46  9.50604490591
0.4  0.48  7.79117081353
0.4  0.5  6.38565704733
0.4  0.52  5.23369553845
0.4  0.54  4.28954589734
0.4  0.56  3.51571922177
0.4  0.58  2.88148954274
0.4  0.6  2.36167380305
0.4  0.62  1.93563192553
0.4  0.64  1.58644726731
0.4  0.66  1.3002549187
0.4  0.68  1.06569117577
0.4  0.7  0.873442327182
0.4  0.72  0.715874839032
0.4  0.74  0.586732253762
0.4  0.76  0.480886767958
0.4  0.78  0.39413562509
0.4  0.8  0.323034238653
0.4  0.82  0.264759419598
0.4  0.84  0.216997277311
0.4  0.86  0.177851343049
0.4  0.88  0.145767267757
0.4  0.9  0.119471104267
0.4  0.92  0.0979187232795
0.4  0.94  0.0802543546201
0.4  0.96  0.0657766075759
0.4  0.98  0.0539106211081
0.42  -1  0.0378664850705
0.42  -0.98  0.0462010801873
0.42  -0.96  0.056370159694
0.42  -0.94  0.06877750241
0.42  -0.92  0.083915760811
0.42  -0.9  0.102386022547
0.42  -0.88  0.124921677546
0.42  -0.86  0.152417538376
0.42  -0.84  0.185965370152
0.42  -0.82  0.226897240725
0.42  -0.8  0.276838412478
0.42  -0.78  0.337771875842
0.42  -0.76  0.412117086963
0.42  -0.74  0.502826035897
0.42  -0.72  0.613500459879
0.42  -0.7  0.748534855798
0.42  -0.68  0.913290970402
0.42  -0.66  1.11431069663
0.42  -0.64  1.35957582947
0.42  -0.62  1.65882499527
0.42  -0.6  2.02394033881
0.42  -0.58  2.46941932196
0.42  -0.56  3.01295036752
0.42  -0.54  3.67611520507
0.42  -0.52  4.48524580645
0.42  -0.5  5.47246993688
0.42  -0.48  6.67698683692
0.42  -0.46  8.14662368815
0.42  -0.44  9.93973466435
0.42  -0.42  12.127517973
0.42  -0.4  14.796842889
0.42  -0.38  18.0536990312
0.42  -0.36  22.0274048427
0.42  -0.34  26.8757423765
0.42  -0.32  32.7912222726
0.42  -0.3  40.0087276872
0.42  -0.28  48.8148406863
0.42  -0.26  59.5592214245
0.42  -0.24  72.6684919343
0.42  -0.22  88.6631758057
0.42  -0.2  54.5341686598
0.42  -0.18  51.4056519548
0.42  -0.16  48.0165866507
0.42  -0.14  44.4359934203
0.42  -0.12  40.7512281561
0.42  -0.1  37.0749692351
0.42  -0.08  33.5549239401
0.42  -0.06  30.3847509411
0.42  -0.04  27.80878016
0.42  -0.02  26.1017684471
0.42  6.17561557e-16  25.500514939
0.42  0.02  26.1017684471
0.42  0.04  27.80878016
0.42  0.06  30.3847509411
0.42  0.08  33.5549239401
0.42  0.1  37.0749692351
0.42  0.12  40.7512281561
0.42  0.14  44.4359934203
0.42  0.16  48.0165866507
0.42  0.18  51.4056519548
0.42  0.2  108.178366369
0.42  0.22  88.6631758057
0.42  0.24  72.6684919343
0.42  0.26  59.5592214245
0.42  0.28  48.8148406863
0.42  0.3  40.0087276872
0.42  0.32  32.7912222726
0.42  0.34  26.8757423765
0.42  0.36  22.0274048427
0.42  0.38  18.0536990312
0.42  0.4  14.796842889
0.42  0.42  12.127517973
0.42  0.44  9.93973466435
0.42  0.46  8.14662368815
0.42  0.48  6.67698683692
0.42  0.5  5.47246993688
0.42  0.52  4.48524580645
0.42  0.54  3.67611520507
0.42  0.56  3.01295036752
0.42  0.58  2.46941932196
0.42  0.6  2.02394033881
0.42  0.62  1.65882499527
0.42  0.64  1.35957582947
0.42  0.66  1.11431069663
0.42  0.68  0.913290970402
0.42  0.7  0.748534855798
0.42  0.72  0.613500459879
0.42  0.74  0.502826035897
0.42  0.76  0.412117086963
0.42  0.78  0.337771875842
0.42  0.8  0.276838412478
0.42  0.82  0.226897240725
0.42  0.84  0.185965370152
0.42  0.86  0.152417538376
0.42  0.88  0.124921677546
0.42  0.9  0.102386022547
0.42  0.92  0.083915760811
0.42  0.94  0.06877750241
0.42  0.96  0.056370159694
0.42  0.98  0.0462010801873
0.44  -1  0.0324513514627
0.44  -0.98  0.0395940496808
0.44  -0.96  0.0483088900603
0.44  -0.94  0.0589419086372
0.44  -0.92  0.0719153056396
0.44  -0.9  0.0877442095923
0.44  -0.88  0.107057131281
0.44  -0.86  0.130620919732
0.44  -0.84  0.159371211124
0.44  -0.82  0.194449579648
0.44  -0.8  0.237248865454
0.44  -0.78  0.289468479495
0.44  -0.76  0.353181881232
0.44  -0.74  0.430918908506
0.44  -0.72  0.525766228607
0.44  -0.7  0.641489899113
0.44  -0.68  0.782684904952
0.44  -0.66  0.954957609289
0.44  -0.64  1.16514836273
0.44  -0.62  1.42160310989
0.44  -0.6  1.73450477783
0.44  -0.58  2.11627760476
0.44  -0.56  2.58208046335
0.44  -0.54  3.15040876689
0.44  -0.52  3.84382885792
0.44  -0.5  4.68987403928
0.44  -0.48  5.72213782594
0.44  -0.46  6.98160782673
0.44  -0.44  8.51829321995
0.44  -0.42  10.393210444
0.44  -0.4  12.6808059485
0.44  -0.38  15.4719122035
0.44  -0.36  18.877354342
0.44  -0.34  23.0323506409
0.44  -0.32  28.1018815684
0.44  -0.3  34.2872405859
0.44  -0.28  41.8340268119
0.44  -0.26  51.0418969095
0.44  -0.24  62.2764634119
0.44  -0.22  75.9838119255
0.44  -0.2  46.7354567136
0.44  -0.18  44.0543365895
0.44  -0.16  41.1499278727
0.44  -0.14  38.0813808673
0.44  -0.12  34.9235590515
0.44  -0.1  31.773027121
0.44  -0.08  28.7563693345
0.44  -0.06  26.0395500153
0.44  -0.04  23.8319584467
0.44  -0.02  22.3690596077
0.44  6.17561557e-16  21.8537889436
0.44  0.02  22.3690596077
0.44  0.04  23.8319584467
0.44  0.06  26.0395500153
0.44  0.08  28.7563693345
0.44  0.1  31.773027121
0.44  0.12  34.9235590515
0.44  0.14  38.0813808673
0.44  0.16  41.1499278727
0.44  0.18  44.0543365895
0.44  0.2  92.7082136399
0.44  0.22  75.9838119255
0.44  0.24  62.2764634119
0.44  0.26  51.0418969095
0.44  0.28  41.8340268119
0.44  0.3  34.2872405859
0.44  0.32  28.1018815684
0.44  0.34  23.0323506409
0.44  0.36  18.877354342
0.44  0.38  15.4719122035
0.44  0.4  12.6808059485
0.44  0.42  10.393210444
0.44  0.44  8.51829321995
0.44  0.46  6.98160782673
0.44  0.48  5.72213782594
0.44  0.5  4.68987403928
0.44  0.52  3.84382885792
0.44  0.54  3.15040876689
0.44  0.56  2.58208046335
0.44  0.58  2.11627760476
0.44  0.6  1.73450477783
0.44  0.62  1.42160310989
0.44  0.64  1.16514836273
0.44  0.66  0.954957609289
0.44  0.68  0.782684904952
0.44  0.7  0.641489899113
0.44  0.72  0.525766228607
0.44  0.74  0.430918908506
0.44  0.76  0.353181881232
0.44  0.78  0.289468479495
0.44  0.8  0.237248865454
0.44  0.82  0.194449579648
0.44  0.84  0.159371211124
0.44  0.86  0.130620919732
0.44  0.88  0.107057131281
0.44  0.9  0.0877442095923
0.44  0.92  0.0719153056396
0.44  0.94  0.0589419086372
0.44  0.96  0.0483088900603
0.44  0.98  0.0395940496808
0.46  -1  0.027810614315
0.46  -0.98  0.033931864012
0.46  -0.96  0.0414004301483
0.46  -0.94  0.0505128635391
0.46  -0.92  0.0616309872574
0.46  -0.9  0.0751962633712
0.46  -0.88  0.0917473218687
0.46  -0.86  0.111941347784
0.46  -0.84  0.136580175731
0.46  -0.82  0.166642127971
0.46  -0.8  0.203320860192
0.46  -0.78  0.248072757426
0.46  -0.76  0.302674762044
0.46  -0.74  0.369294929958
0.46  -0.72  0.450578516596
0.46  -0.7  0.5497530108
0.46  -0.68  0.6707562872
0.46  -0.66  0.818392965531
0.46  -0.64  0.998525185394
0.46  -0.62  1.21830537145
0.46  -0.6  1.48646023137
0.46  -0.58  1.81363726306
0.46  -0.56  2.21282752981
0.46  -0.54  2.69988149033
0.46  -0.52  3.29413836533
0.46  -0.5  4.01919403085
0.46  -0.48  4.9038379285
0.46  -0.46  5.98319619417
0.46  -0.44  7.30012639485
0.46  -0.42  8.90691925374
0.46  -0.4  10.8673749332
0.46  -0.38  13.2593363176
0.46  -0.36  16.1777798837
0.46  -0.34  19.7385868868
0.46  -0.32  24.0831446025
0.46  -0.3  29.3839603245
0.46  -0.28  35.8515110301
0.46  -0.26  43.742600689
0.46  -0.24  53.3705570579
0.46  -0.22  65.1176728361
0.46  -0.2  40.0520071711
0.46  -0.18  37.7543032437
0.46  -0.16  35.2652423265
0.46  -0.14  32.6355158767
0.46  -0.12  29.9292814477
0.46  -0.1  27.2292944069
0.46  -0.08  24.6440367076
0.46  -0.06  22.3157387834
0.46  -0.04  20.4238459989
0.46  -0.02  19.1701504344
0.46  6.17561557e-16  18.7285665538
0.46  0.02  19.1701504344
0.46  0.04  20.4238459989
0.46  0.06  22.3157387834
0.46  0.08  24.6440367076
0.46  0.1  27.2292944069
0.46  0.12  29.9292814477
0.46  0.14  32.6355158767
0.46  0.16  35.2652423265
0.46  0.18  37.7543032437
0.46  0.2  79.4503851813
0.46  0.22  65.1176728361
0.46  0.24  53.3705570579
0.46  0.26  43.742600689
0.46  0.28  35.8515110301
0.46  0.3  29.3839603245
0.46  0.32  24.0831446025
0.46  0.34  19.7385868868
0.46  0.36  16.1777798837
0.46  0.38  13.2593363176
0.46  0.4  10.8673749332
0.46  0.42  8.90691925374
0.46  0.44  7.30012639485
0.46  0.46  5.98319619417
0.46  0.48  4.9038379285
0.46  0.5  4.01919403085
0.46  0.52  3.29413836533
0.46  0.54  2.69988149033
0.46  0.56  2.21282752981
0.46  0.58  1.81363726306
0.46  0.6  1.48646023137
0.46  0.62  1.21830537145
0.46  0.64  0.998525185394
0.46  0.66  0.818392965531
0.46  0.68  0.6707562872
0.46  0.7  0.5497530108
0.46  0.72  0.450578516596
0.46  0.74  0.369294929958
0.46  0.76  0.302674762044
0.46  0.78  0.248072757426
0.46  0.8  0.203320860192
0.46  0.82  0.166642127971
0.46  0.84  0.136580175731
0.46  0.86  0.111941347784
0.46  0.88  0.0917473218687
0.46  0.9  0.0751962633712
0.46  0.92  0.0616309872574
0.46  0.94  0.0505128635391
0.46  0.96  0.0414004301483
0.46  0.98  0.033931864012
0.48  -1  0.0238335303065
0.48  -0.98  0.029079404724
0.48  -0.96  0.03547992128
0.48  -0.94  0.0432892222514
0.48  -0.92  0.05281738785
0.48  -0.9  0.0644427484304
0.48  -0.88  0.0786269066744
0.48  -0.86  0.0959330662295
0.48  -0.84  0.117048394569
0.48  -0.82  0.142811308027
0.48  -0.8  0.174244762394
0.48  -0.78  0.212596870943
0.48  -0.76  0.259390462666
0.48  -0.74  0.31648354853
0.48  -0.72  0.38614309663
0.48  -0.7  0.471135045621
0.48  -0.68  0.574834130531
0.48  -0.66  0.701357881769
0.48  -0.64  0.855730117947
0.48  -0.62  1.04408042427
0.48  -0.6  1.27388753706
0.48  -0.58  1.55427629842
0.48  -0.56  1.89637997197
0.48  -0.54  2.3137823061
0.48  -0.52  2.82305689744
0.48  -0.5  3.44442527077
0.48  -0.48  4.20255980554
0.48  -0.46  5.12756339032
0.48  -0.44  6.25616470398
0.48  -0.42  7.63317658387
0.48  -0.4  9.31327538795
0.48  -0.38  11.363172003
0.48  -0.36  13.8642607022
0.48  -0.34  16.9158510289
0.48  -0.32  20.6391110336
0.48  -0.3  25.1818784364
0.48  -0.28  30.7245307491
0.48  -0.26  37.4871474395
0.48  -0.24  45.738248523
0.48  -0.22  55.8054565589
0.48  -0.2  34.324330845
0.48  -0.18  32.3552123075
0.48  -0.16  30.2221019729
0.48  -0.14  27.9684421174
0.48  -0.12  25.6492153808
0.48  -0.1  23.3353426186
0.48  -0.08  21.1197922165
0.48  -0.06  19.1244548065
0.48  -0.04  17.5031139938
0.48  -0.02  16.4287043855
0.48  6.17561557e-16  16.0502696381
0.48  0.02  16.4287043855
0.48  0.04  17.5031139938
0.48  0.06  19.1244548065
0.48  0.08  21.1197922165
0.48  0.1  23.3353426186
0.48  0.12  25.6492153808
0.48  0.14  27.9684421174
0.48  0.16  30.2221019729
0.48  0.18  32.3552123075
0.48  0.2  68.0885054044
0.48  0.22  55.8054565589
0.48  0.24  45.738248523
0.48  0.26  37.4871474395
0.48  0.28  30.7245307491
0.48  0.3  25.1818784364
0.48  0.32  20.6391110336
0.48  0.34  16.9158510289
0.48  0.36  13.8642607022
0.48  0.38  11.363172003
0.48  0.4  9.31327538795
0.48  0.42  7.63317658387
0.48  0.44  6.25616470398
0.48  0.46  5.12756339032
0.48  0.48  4.20255980554
0.48  0.5  3.44442527077
0.48  0.52  2.82305689744
0.48  0.54  2.3137823061
0.48  0.56  1.89637997197
0.48  0.58  1.55427629842
0.48  0.6  1.27388753706
0.48  0.62  1.04408042427
0.48  0.64  0.855730117947
0.48  0.66  0.701357881769
0.48  0.68  0.574834130531
0.48  0.7  0.471135045621
0.48  0.72  0.38614309663
0.48  0.74  0.31648354853
0.48  0.76  0.259390462666
0.48  0.78  0.212596870943
0.48  0.8  0.174244762394
0.48  0.82  0.142811308027
0.48  0.84  0.117048394569
0.48  0.86  0.0959330662295
0.48  0.88  0.0786269066744
0.48  0.9  0.0644427484304
0.48  0.92  0.05281738785
0.48  0.94  0.0432892222514
0.48  0.96  0.03547992128
0.48  0.98  0.029079404724
0.5  -1  0.0204251930734
0.5  -0.98  0.0249208761064
0.5  -0.96  0.0304060805534
0.5  -0.94  0.0370986048273
0.5  -0.92  0.0452641858169
0.5  -0.9  0.0552270503758
0.5  -0.88  0.0673827892441
0.5  -0.86  0.0822140645829
0.5  -0.84  0.100309774811
0.5  -0.82  0.122388437718
0.5  -0.8  0.149326720303
0.5  -0.78  0.182194248185
0.5  -0.76  0.222296076713
0.5  -0.74  0.271224510181
0.5  -0.72  0.330922326705
0.5  -0.7  0.403759919184
0.5  -0.68  0.492629415377
0.5  -0.66  0.60105951424
0.5  -0.64  0.73335559831
0.5  -0.62  0.894770685482
0.5  -0.6  1.09171400811
0.5  -0.58  1.33200550134
0.5  -0.56  1.62518630558
0.5  -0.54  1.98289761207
0.5  -0.52  2.41934289406
0.5  -0.5  2.95185187748
0.5  -0.48  3.60156864411
0.5  -0.46  4.39429118961
0.5  -0.44  5.36149577231
0.5  -0.42  6.54158672608
0.5  -0.4  7.98142136301
0.5  -0.38  9.7381705145
0.5  -0.36  11.8815885863
0.5  -0.34  14.4967832638
0.5  -0.32  17.6875948423
0.5  -0.3  21.5807193646
0.5  -0.28  26.3307392806
0.5  -0.26  32.1262613795
0.5  -0.24  39.1974057098
0.5  -0.22  47.8249428475
0.5  -0.2  29.415746455
0.5  -0.18  27.7282236333
0.5  -0.16  25.9001608214
0.5  -0.14  23.9687877902
0.5  -0.12  21.9812243338
0.5  -0.1  19.9982492013
0.5  -0.08  18.0995357442
0.5  -0.06  16.3895435054
0.5  -0.04  15.000064116
0.5  -0.02  14.079301501
0.5  6.17561557e-16  13.7549851836
0.5  0.02  14.079301501
0.5  0.04  15.000064116
0.5  0.06  16.3895435054
0.5  0.08  18.0995357442
0.5  0.1  19.9982492013
0.5  0.12  21.9812243338
0.5  0.14  23.9687877902
0.5  0.16  25.9001608214
0.5  0.18  27.7282236333
0.5  0.2  58.35144232
0.5  0.22  47.8249428475
0.5  0.24  39.1974057098
0.5  0.26  32.1262613795
0.5  0.28  26.3307392806
0.5  0.3  21.5807193646
0.5  0.32  17.6875948423
0.5  0.34  14.4967832638
0.5  0.36  11.8815885863
0.5  0.38  9.7381705145
0.5  0.4  7.98142136301
0.5  0.42  6.54158672608
0.5  0.44  5.36149577231
0.5  0.46  4.39429118961
0.5  0.48  3.60156864411
0.5  0.5  2.95185187748
0.5  0.52  2.41934289406
0.5  0.54  1.98289761207
0.5  0.56  1.62518630558
0.5  0.58  1.33200550134
0.5  0.6  1.09171400811
0.5  0.62  0.894770685482
0.5  0.64  0.73335559831
0.5  0.66  0.60105951424
0.5  0.68  0.492629415377
0.5  0.7  0.403759919184
0.5  0.72  0.330922326705
0.5  0.74  0.271224510181
0.5  0.76  0.222296076713
0.5  0.78  0.182194248185
0.5  0.8  0.149326720303
0.5  0.82  0.122388437717
0.5  0.84  0.100309774811
0.5  0.86  0.0822140645829
0.5  0.88  0.0673827892441
0.5  0.9  0.0552270503758
0.5  0.92  0.0452641858169
0.5  0.94  0.0370986048273
0.5  0.96  0.0304060805534
0.5  0.98  0.0249208761064
0.52  -1  0.0175042684285
0.52  -0.98  0.0213570419272
0.52  -0.96  0.0260578293656
0.52  -0.94  0.0317932826823
0.52  -0.92  0.0387911368031
0.52  -0.9  0.0473292522044
0.52  -0.88  0.0577466477871
0.52  -0.86  0.0704569621393
0.52  -0.84  0.0859648776878
0.52  -0.82  0.104886159884
0.52  -0.8  0.12797210711
0.52  -0.78  0.15613938213
0.52  -0.76  0.19050640958
0.52  -0.74  0.232437784728
0.52  -0.72  0.283598456809
0.52  -0.7  0.346019838378
0.52  -0.68  0.422180465642
0.52  -0.66  0.515104412525
0.52  -0.64  0.628481366137
0.52  -0.62  0.76681313143
0.52  -0.6  0.935592382233
0.52  -0.58  1.14152075625
0.52  -0.56  1.39277495381
0.52  -0.54  1.69933140623
0.52  -0.52  2.07336240525
0.52  -0.5  2.52971942244
0.52  -0.48  3.08652280954
0.52  -0.46  3.76588129472
0.52  -0.44  4.59476984329
0.52  -0.42  5.60610073993
0.52  -0.4  6.84003042113
0.52  -0.38  8.34555394783
0.52  -0.36  10.182450429
0.52  -0.34  12.4236566425
0.52  -0.32  15.158163101
0.52  -0.3  18.4945475562
0.52  -0.28  22.565286244
0.52  -0.26  27.5320140559
0.52  -0.24  33.5919424987
0.52  -0.22  40.9856902784
0.52  -0.2  25.2091189603
0.52  -0.18  23.7629219846
0.52  -0.16  22.196283077
0.52  -0.14  20.5411079288
0.52  -0.12  18.8377779218
0.52  -0.1  17.1383800811
0.52  -0.08  15.5111939926
0.52  -0.06  14.0457408607
0.52  -0.04  12.8549653258
0.52  -0.02  12.0658772661
0.52  6.17561557e-16  11.7879401198
0.52  0.02  12.0658772661
0.52  0.04  12.8549653258
0.52  0.06  14.0457408607
0.52  0.08  15.5111939926
0.52  0.1  17.1383800811
0.52  0.12  18.8377779218
0.52  0.14  20.5411079288
0.52  0.16  22.196283077
0.52  0.18  23.7629219846
0.52  0.2  50.0068374331
0.52  0.22  40.9856902784
0.52  0.24  33.5919424987
0.52  0.26  27.5320140559
0.52  0.28  22.565286244
0.52  0.3  18.4945475562
0.52  0.32  15.158163101
0.52  0.34  12.4236566425
0.52  0.36  10.182450429
0.52  0.38  8.34555394783
0.52  0.4  6.84003042113
0.52  0.42  5.60610073993
0.52  0.44  4.59476984329
0.52  0.46  3.76588129472
0.52  0.48  3.08652280954
0.52  0.5  2.52971942244
0.52  0.52  2.07336240525
0.52  0.54  1.69933140623
0.52  0.56  1.39277495381
0.52  0.58  1.14152075625
0.52  0.6  0.935592382233
0.52  0.62  0.76681313143
0.52  0.64  0.628481366137
0.52  0.66  0.515104412525
0.52  0.68  0.422180465642
0.52  0.7  0.346019838378
0.52  0.72  0.283598456809
0.52  0.74  0.232437784728
0.52  0.76  0.19050640958
0.52  0.78  0.15613938213
0.52  0.8  0.12797210711
0.52  0.82  0.104886159884
0.52  0.84  0.0859648776878
0.52  0.86  0.0704569621393
0.52  0.88  0.0577466477871
0.52  0.9  0.0473292522044
0.52  0.92  0.0387911368031
0.52  0.94  0.0317932826823
0.52  0.96  0.0260578293656
0.52  0.98  0.0213570419272
0.54  -1  0.0150010534597
0.54  -0.98  0.0183028573287
0.54  -0.96  0.0223314040774
0.54  -0.94  0.0272466533019
0.54  -0.92  0.033243772473
0.54  -0.9  0.0405608863589
0.54  -0.88  0.0494885321319
0.54  -0.86  0.0603811955909
0.54  -0.84  0.0736713865601
0.54  -0.82  0.0898868123523
0.54  -0.8  0.109671331193
0.54  -0.78  0.133810517592
0.54  -0.76  0.163262854783
0.54  -0.74  0.199197792755
0.54  -0.72  0.243042183056
0.54  -0.7  0.296536934109
0.54  -0.68  0.361806136634
0.54  -0.66  0.441441403916
0.54  -0.64  0.538604775763
0.54  -0.62  0.657154272121
0.54  -0.6  0.801797081646
0.54  -0.58  0.978276467808
0.54  -0.56  1.19359981394
0.54  -0.54  1.45631686206
0.54  -0.52  1.77685919348
0.54  -0.5  2.16795443059
0.54  -0.48  2.64513160659
0.54  -0.46  3.22733776939
0.54  -0.44  3.93769030311
0.54  -0.42  4.80439483908
0.54  -0.4  5.86186520346
0.54  -0.38  7.15208987071
0.54  -0.36  8.7262991801
0.54  -0.34  10.6469995144
0.54  -0.32  12.9904552114
0.54  -0.3  15.8497167554
0.54  -0.28  19.3383154892
0.54  -0.26  23.5947715491
0.54  -0.24  28.788094018
0.54  -0.22  35.1244916895
0.54  -0.2  21.6040643308
0.54  -0.18  20.3646821634
0.54  -0.16  19.0220819798
0.54  -0.14  17.6036067671
0.54  -0.12  16.143863128
0.54  -0.1  14.687489332
0.54  -0.08  13.2930005762
0.54  -0.06  12.0371159979
0.54  -0.04  11.0166284791
0.54  -0.02  10.3403847265
0.54  6.17561557e-16  10.1021942527
0.54  0.02  10.3403847265
0.54  0.04  11.0166284791
0.54  0.06  12.0371159979
0.54  0.08  13.2930005762
0.54  0.1  14.687489332
0.54  0.12  16.143863128
0.54  0.14  17.6036067671
0.54  0.16  19.0220819798
0.54  0.18  20.3646821634
0.54  0.2  42.855560902
0.54  0.22  35.1244916895
0.54  0.24  28.788094018
0.54  0.26  23.5947715491
0.54  0.28  19.3383154892
0.54  0.3  15.8497167554
0.54  0.32  12.9904552114
0.54  0.34  10.6469995144
0.54  0.36  8.7262991801
0.54  0.38  7.15208987071
0.54  0.4  5.86186520346
0.54  0.42  4.80439483908
0.54  0.44  3.93769030311
0.54  0.46  3.22733776939
0.54  0.48  2.64513160659
0.54  0.5  2.16795443059
0.54  0.52  1.77685919348
0.54  0.54  1.45631686206
0.54  0.56  1.19359981394
0.54  0.58  0.978276467808
0.54  0.6  0.801797081646
0.54  0.62  0.657154272121
0.54  0.64  0.538604775763
0.54  0.66  0.441441403916
0.54  0.68  0.361806136634
0.54  0.7  0.296536934109
0.54  0.72  0.243042183056
0.54  0.74  0.199197792755
0.54  0.76  0.163262854783
0.54  0.78  0.133810517592
0.54  0.8  0.109671331193
0.54  0.82  0.0898868123523
0.54  0.84  0.0736713865601
0.54  0.86  0.0603811955909
0.54  0.88  0.0494885321319
0.54  0.9  0.0405608863589
0.54  0.92  0.033243772473
0.54  0.94  0.0272466533019
0.54  0.96  0.0223314040774
0.54  0.98  0.0183028573287
0.56  -1  0.0128558131875
0.56  -0.98  0.0156854393758
0.56  -0.96  0.0191378798699
0.56  -0.94  0.0233502190878
0.56  -0.92  0.0284897143862
0.56  -0.9  0.0347604372685
0.56  -0.88  0.0424113763556
0.56  -0.86  0.051746323859
0.56  -0.84  0.0631359381141
0.56  -0.82  0.077032461135
0.56  -0.8  0.0939876755737
0.56  -0.78  0.114674814093
0.56  -0.76  0.139915291094
0.56  -0.74  0.170711318234
0.56  -0.72  0.208285698764
0.56  -0.7  0.254130380798
0.56  -0.68  0.310065697395
0.56  -0.66  0.378312645655
0.56  -0.64  0.461581074801
0.56  -0.62  0.563177284877
0.56  -0.6  0.687135308436
0.56  -0.58  0.838377087957
0.56  -0.56  1.02290790909
0.56  -0.54  1.24805484966
0.56  -0.52  1.52275771253
0.56  -0.5  1.85792399404
0.56  -0.48  2.26686198285
0.56  -0.46  2.76580918584
0.56  -0.44  3.37457706306
0.56  -0.42  4.11733767205
0.56  -0.4  5.0235834562
0.56  -0.38  6.12929828728
0.56  -0.36  7.47838625991
0.56  -0.34  9.12441497073
0.56  -0.32  11.1327425015
0.56  -0.3  13.5831125613
0.56  -0.28  16.5728208327
0.56  -0.26  20.2205782448
0.56  -0.24  24.6712245719
0.56  -0.22  30.1014795179
0.56  -0.2  18.5145540527
0.56  -0.18  17.4524109402
0.56  -0.16  16.3018106046
0.56  -0.14  15.0861858223
0.56  -0.12  13.8351942452
0.56  -0.1  12.5870906035
0.56  -0.08  11.3920220715
0.56  -0.06  10.3157364915
0.56  -0.04  9.44118478498
0.56  -0.02  8.8616479294
0.56  6.17561557e-16  8.65752011651
0.56  0.02  8.8616479294
0.56  0.04  9.44118478498
0.56  0.06  10.3157364915
0.56  0.08  11.3920220715
0.56  0.1  12.5870906035
0.56  0.12  13.8351942452
0.56  0.14  15.0861858223
0.56  0.16  16.3018106046
0.56  0.18  17.4524109402
0.56  0.2  36.7269596419
0.56  0.22  30.1014795179
0.56  0.24  24.6712245719
0.56  0.26  20.2205782448
0.56  0.28  16.5728208327
0.56  0.3  13.5831125613
0.56  0.32  11.1327425015
0.56  0.34  9.12441497073
0.56  0.36  7.47838625991
0.56  0.38  6.12929828728
0.56  0.4  5.0235834562
0.56  0.42  4.11733767205
0.56  0.44  3.37457706306
0.56  0.46  2.76580918584
0.56  0.48  2.26686198285
0.56  0.5  1.85792399404
0.56  0.52  1.52275771253
0.56  0.54  1.24805484966
0.56  0.56  1.02290790909
0.56  0.58  0.838377087957
0.56  0.6  0.687135308436
0.56  0.62  0.563177284877
0.56  0.64  0.461581074801
0.56  0.66  0.378312645655
0.56  0.68  0.310065697395
0.56  0.7  0.254130380798
0.56  0.72  0.208285698764
0.56  0.74  0.170711318234
0.56  0.76  0.139915291094
0.56  0.78  0.114674814093
0.56  0.8  0.0939876755737
0.56  0.82  0.077032461135
0.56  0.84  0.0631359381141
0.56  0.86  0.051746323859
0.56  0.88  0.0424113763556
0.56  0.9  0.0347604372685
0.56  0.92  0.0284897143862
0.56  0.94  0.0233502190878
0.56  0.96  0.0191378798699
0.56  0.98  0.0156854393758
0.58  -1  0.0110173550914
0.58  -0.98  0.0134423278285
0.58  -0.96  0.0164010487045
0.58  -0.94  0.0200109982466
0.58  -0.92  0.0244155150102
0.58  -0.9  0.0297894870543
0.58  -0.88  0.0363462961395
0.58  -0.86  0.044346290376
0.58  -0.84  0.0541071217425
0.58  -0.82  0.0660163589432
0.58  -0.8  0.0805468764141
0.58  -0.78  0.0982756305244
0.58  -0.76  0.119906568509
0.58  -0.74  0.14629857977
0.58  -0.72  0.178499599386
0.58  -0.7  0.217788217979
0.58  -0.68  0.265724450103
0.58  -0.66  0.324211677004
0.58  -0.64  0.395572223275
0.58  -0.62  0.482639568298
0.58  -0.6  0.58887085387
0.58  -0.58  0.718484155289
0.58  -0.56  0.876625966472
0.58  -0.54  1.06957554935
0.58  -0.52  1.30499426155
0.58  -0.5  1.59222976227
0.58  -0.48  1.94268717538
0.58  -0.46  2.37028194725
0.58  -0.44  2.8919923808
0.58  -0.42  3.5285337849
0.58  -0.4  4.30518100733
0.58  -0.38  5.25277201119
0.58  -0.36  6.40893234328
0.58  -0.34  7.81956911384
0.58  -0.32  9.54069380842
0.58  -0.3  11.6406463094
0.58  -0.28  14.2028084353
0.58  -0.26  17.328914743
0.58  -0.24  21.1430920538
0.58  -0.22  25.7967880981
0.58  -0.2  15.8668622034
0.58  -0.18  14.956611902
0.58  -0.16  13.9705542889
0.58  -0.14  12.9287711135
0.58  -0.12  11.8566788064
0.58  -0.1  10.7870614425
0.58  -0.08  9.76289485082
0.58  -0.06  8.84052453929
0.58  -0.04  8.09103895204
0.58  -0.02  7.5943793294
0.58  6.17561557e-16  7.41944301335
0.58  0.02  7.5943793294
0.58  0.04  8.09103895204
0.58  0.06  8.84052453929
0.58  0.08  9.76289485082
0.58  0.1  10.7870614425
0.58  0.12  11.8566788064
0.58  0.14  12.9287711135
0.58  0.16  13.9705542889
0.58  0.18  14.956611902
0.58  0.2  31.4747849788
0.58  0.22  25.7967880981
0.58  0.24  21.1430920538
0.58  0.26  17.328914743
0.58  0.28  14.2028084353
0.58  0.3  11.6406463094
0.58  0.32  9.54069380842
0.58  0.34  7.81956911384
0.58  0.36  6.40893234328
0.58  0.38  5.25277201119
0.58  0.4  4.30518100733
0.58  0.42  3.5285337849
0.58  0.44  2.8919923808
0.58  0.46  2.37028194725
0.58  0.48  1.94268717538
0.58  0.5  1.59222976227
0.58  0.52  1.30499426155
0.58  0.54  1.06957554935
0.58  0.56  0.876625966472
0.58  0.58  0.718484155289
0.58  0.6  0.58887085387
0.58  0.62  0.482639568298
0.58  0.64  0.395572223275
0.58  0.66  0.324211677004
0.58  0.68  0.265724450103
0.58  0.7  0.217788217979
0.58  0.72  0.178499599386
0.58  0.74  0.14629857977
0.58  0.76  0.119906568509
0.58  0.78  0.0982756305244
0.58  0.8  0.0805468764141
0.58  0.82  0.0660163589432
0.58  0.84  0.0541071217425
0.58  0.86  0.044346290376
0.58  0.88  0.0363462961395
0.58  0.9  0.0297894870543
0.58  0.92  0.0244155150102
0.58  0.94  0.0200109982466
0.58  0.96  0.0164010487045
0.58  0.98  0.0134423278285
0.6  -1  0.00944180748744
0.6  -0.98  0.0115199946345
0.6  -0.96  0.0140556007476
0.6  -0.94  0.0171493059367
0.6  -0.92  0.0209239504872
0.6  -0.9  0.0255294124209
0.6  -0.88  0.0311485586317
0.6  -0.86  0.0380045058944
0.6  -0.84  0.046369480057
0.6  -0.82  0.0565756251833
0.6  -0.8  0.0690281918397
0.6  -0.78  0.0842216281874
0.6  -0.76  0.102759212801
0.6  -0.74  0.125377008766
0.6  -0.72  0.152973090184
0.6  -0.7  0.186643201579
0.6  -0.68  0.227724266102
0.6  -0.66  0.27784747011
0.6  -0.64  0.339003031903
0.6  -0.62  0.413619226382
0.6  -0.6  0.504658803412
0.6  -0.58  0.615736628321
0.6  -0.56  0.751263215648
0.6  -0.54  0.91661985535
0.6  -0.52  1.11837228513
0.6  -0.5  1.36453139309
0.6  -0.48  1.66487130224
0.6  -0.46  2.03131746696
0.6  -0.44  2.47842019143
0.6  -0.42  3.02393237156
0.6  -0.4  3.68951440091
0.6  -0.38  4.50159422961
0.6  -0.36  5.49241672644
0.6  -0.34  6.70132401062
0.6  -0.32  8.17631759059
0.6  -0.3  9.97596433724
0.6  -0.28  12.1717219708
0.6  -0.26  14.8507763988
0.6  -0.24  18.1195035655
0.6  -0.22  22.1076932708
0.6  -0.2  13.5978061078
0.6  -0.18  12.817727038
0.6  -0.16  11.9726815551
0.6  -0.14  11.0798795982
0.6  -0.12  10.1611028964
0.6  -0.1  9.24444720627
0.6  -0.08  8.36674255633
0.6  -0.06  7.57627671028
0.6  -0.04  6.93397203999
0.6  -0.02  6.5083377108
0.6  6.17561557e-16  6.35841833315
0.6  0.02  6.5083377108
0.6  0.04  6.93397203999
0.6  0.06  7.57627671028
0.6  0.08  8.36674255633
0.6  0.1  9.24444720627
0.6  0.12  10.1611028964
0.6  0.14  11.0798795982
0.6  0.16  11.9726815551
0.6  0.18  12.817727038
0.6  0.2  26.973702673
0.6  0.22  22.1076932708
0.6  0.24  18.1195035655
0.6  0.26  14.8507763988
0.6  0.28  12.1717219708
0.6  0.3  9.97596433724
0.6  0.32  8.17631759059
0.6  0.34  6.70132401062
0.6  0.36  5.49241672644
0.6  0.38  4.50159422961
0.6  0.4  3.68951440091
0.6  0.42  3.02393237156
0.6  0.44  2.47842019143
0.6  0.46  2.03131746696
0.6  0.48  1.66487130224
0.6  0.5  1.36453139309
0.6  0.52  1.11837228513
0.6  0.54  0.91661985535
0.6  0.56  0.751263215648
0.6  0.58  0.615736628321
0.6  0.6  0.504658803412
0.6  0.62  0.413619226382
0.6  0.64  0.339003031903
0.6  0.66  0.27784747011
0.6  0.68  0.227724266102
0.6  0.7  0.186643201579
0.6  0.72  0.152973090184
0.6  0.74  0.125377008766
0.6  0.76  0.102759212801
0.6  0.78  0.0842216281874
0.6  0.8  0.0690281918397
0.6  0.82  0.0565756251833
0.6  0.84  0.046369480057
0.6  0.86  0.0380045058944
0.6  0.88  0.0311485586317
0.6  0.9  0.0255294124209
0.6  0.92  0.0209239504872
0.6  0.94  0.0171493059367
0.6  0.96  0.0140556007476
0.6  0.98  0.0115199946345
0.62  -1  0.00809157260432
0.62  -0.98  0.00987256657273
0.62  -0.96  0.0120455658621
0.62  -0.94  0.014696852725
0.62  -0.92  0.0179317005522
0.62  -0.9  0.0218785539129
0.62  -0.88  0.0266941286426
0.62  -0.86  0.0325696344842
0.62  -0.84  0.0397383673629
0.62  -0.82  0.0484849727571
0.62  -0.8  0.0591567479807
0.62  -0.78  0.0721774321537
0.62  -0.76  0.0880640314104
0.62  -0.74  0.107447347416
0.62  -0.72  0.131097024312
0.62  -0.7  0.159952108607
0.62  -0.68  0.195158335455
0.62  -0.66  0.238113621816
0.62  -0.64  0.290523572883
0.62  -0.62  0.354469205739
0.62  -0.6  0.432489579316
0.62  -0.58  0.527682611601
0.62  -0.56  0.643828087203
0.62  -0.54  0.785537739463
0.62  -0.52  0.958438366369
0.62  -0.5  1.16939525115
0.62  -0.48  1.42678475883
0.62  -0.46  1.74082693258
0.62  -0.44  2.12399129612
0.62  -0.42  2.5914919752
0.62  -0.4  3.16189179767
0.62  -0.38  3.85783935889
0.62  -0.36  4.70696831876
0.62  -0.34  5.74299463838
0.62  -0.32  7.00705532371
0.62  -0.3  8.54934183315
0.62  -0.28  10.431093006
0.62  -0.26  12.7270266442
0.62  -0.24  15.5283062962
0.62  -0.22  18.9461610452
0.62  -0.2  11.653238591
0.62  -0.18  10.9847154889
0.62  -0.16  10.260516559
0.62  -0.14  9.49539061616
0.62  -0.12  8.7080044722
0.62  -0.1  7.92243602254
0.62  -0.08  7.1702483816
0.62  -0.06  6.49282387437
0.62  -0.04  5.94237260954
0.62  -0.02  5.57760653248
0.62  6.17561557e-16  5.44912652157
0.62  0.02  5.57760653248
0.62  0.04  5.94237260954
0.62  0.06  6.49282387437
0.62  0.08  7.1702483816
0.62  0.1  7.92243602254
0.62  0.12  8.7080044722
0.62  0.14  9.49539061616
0.62  0.16  10.260516559
0.62  0.18  10.9847154889
0.62  0.2  23.1163020297
0.62  0.22  18.9461610452
0.62  0.24  15.5283062962
0.62  0.26  12.7270266442
0.62  0.28  10.431093006
0.62  0.3  8.54934183315
0.62  0.32  7.00705532371
0.62  0.34  5.74299463838
0.62  0.36  4.70696831876
0.62  0.38  3.85783935889
0.62  0.4  3.16189179767
0.62  0.42  2.5914919752
0.62  0.44  2.12399129612
0.62  0.46  1.74082693258
0.62  0.48  1.42678475883
0.62  0.5  1.16939525115
0.62  0.52  0.958438366369
0.62  0.54  0.785537739463
0.62  0.56  0.643828087203
0.62  0.58  0.527682611601
0.62  0.6  0.432489579316
0.62  0.62  0.354469205739
0.62  0.64  0.290523572883
0.62  0.66  0.238113621816
0.62  0.68  0.195158335455
0.62  0.7  0.159952108607
0.62  0.72  0.131097024312
0.62  0.74  0.107447347416
0.62  0.76  0.0880640314104
0.62  0.78  0.0721774321537
0.62  0.8  0.0591567479807
0.62  0.82  0.0484849727571
0.62  0.84  0.0397383673629
0.62  0.86  0.0325696344842
0.62  0.88  0.0266941286426
0.62  0.9  0.0218785539129
0.62  0.92  0.0179317005522
0.62  0.94  0.014696852725
0.62  0.96  0.0120455658621
0.62  0.98  0.00987256657273
0.64  -1  0.00693442937681
0.64  -0.98  0.00846073056675
0.64  -0.96  0.0103229779746
0.64  -0.94  0.0125951149754
0.64  -0.92  0.0153673602359
0.64  -0.9  0.0187497899846
0.64  -0.88  0.022876708756
0.64  -0.86  0.0279119821576
0.64  -0.84  0.0340555434034
0.64  -0.82  0.0415513319674
0.64  -0.8  0.0506969795728
0.64  -0.78  0.0618556281138
0.64  -0.76  0.0754703487584
0.64  -0.74  0.0920817347652
0.64  -0.72  0.112349366564
0.64  -0.7  0.137078001403
0.64  -0.68  0.167249527463
0.64  -0.66  0.204061951228
0.64  -0.64  0.248976966156
0.64  -0.62  0.303777991455
0.64  -0.6  0.370640985458
0.64  -0.58  0.452220845372
0.64  -0.56  0.551756824023
0.64  -0.54  0.673201149331
0.64  -0.52  0.821375953552
0.64  -0.5  1.0021647434
0.64  -0.48  1.22274601364
0.64  -0.46  1.49187828022
0.64  -0.44  1.82024785046
0.64  -0.42  2.22089313924
0.64  -0.4  2.7097223791
0.64  -0.38  3.30614528095
0.64  -0.36  4.03384372623
0.64  -0.34  4.92171209216
0.64  -0.32  6.00500454704
0.64  -0.3  7.32673487086
0.64  -0.28  8.93938438304
0.64  -0.26  10.9069857933
0.64  -0.24  13.3076657181
0.64  -0.22  16.2367468172
0.64  -0.2  9.98675584731
0.64  -0.18  9.41383554312
0.64  -0.16  8.79320138705
0.64  -0.14  8.1374930255
0.64  -0.12  7.46270780456
0.64  -0.1  6.78948033677
0.64  -0.08  6.14486002261
0.64  -0.06  5.56431126736
0.64  -0.04  5.09257782221
0.64  -0.02  4.77997547355
0.64  6.17561557e-16  4.66986887183
0.64  0.02  4.77997547355
0.64  0.04  5.09257782221
0.64  0.06  5.56431126736
0.64  0.08  6.14486002261
0.64  0.1  6.78948033677
0.64  0.12  7.46270780456
0.64  0.14  8.1374930255
0.64  0.16  8.79320138705
0.64  0.18  9.41383554312
0.64  0.2  19.8105327254
0.64  0.22  16.2367468172
0.64  0.24  13.3076657181
0.64  0.26  10.9069857933
0.64  0.28  8.93938438304
0.64  0.3  7.32673487086
0.64  0.32  6.00500454704
0.64  0.34  4.92171209216
0.64  0.36  4.03384372623
0.64  0.38  3.30614528095
0.64  0.4  2.7097223791
0.64  0.42  2.22089313924
0.64  0.44  1.82024785046
0.64  0.46  1.49187828022
0.64  0.48  1.22274601364
0.64  0.5  1.0021647434
0.64  0.52  0.821375953552
0.64  0.54  0.673201149331
0.64  0.56  0.551756824023
0.64  0.58  0.452220845372
0.64  0.6  0.370640985458
0.64  0.62  0.303777991455
0.64  0.64  0.248976966156
0.64  0.66  0.204061951228
0.64  0.68  0.167249527463
0.64  0.7  0.137078001403
0.64  0.72  0.112349366564
0.64  0.74  0.0920817347652
0.64  0.76  0.0754703487584
0.64  0.78  0.0618556281138
0.64  0.8  0.0506969795728
0.64  0.82  0.0415513319674
0.64  0.84  0.0340555434034
0.64  0.86  0.0279119821576
0.64  0.88  0.022876708756
0.64  0.9  0.0187497899846
0.64  0.92  0.0153673602359
0.64  0.94  0.0125951149754
0.64  0.96  0.0103229779746
0.64  0.98  0.00846073056675
0.66  -1  0.00594276454446
0.66  -0.98  0.00725079554498
0.66  -0.96  0.00884673044704
0.66  -0.94  0.0107939382813
0.66  -0.92  0.0131697359061
0.66  -0.9  0.0160684579915
0.66  -0.88  0.0196052027214
0.66  -0.86  0.023920401942
0.66  -0.84  0.0291853972234
0.66  -0.82  0.0356092432373
0.66  -0.8  0.0434470085923
0.66  -0.78  0.0530099037218
0.66  -0.76  0.0646776379697
0.66  -0.74  0.0789134965287
0.66  -0.72  0.0962827358863
0.66  -0.7  0.117475028196
0.66  -0.68  0.143331845762
0.66  -0.66  0.174879872984
0.66  -0.64  0.213371772421
0.66  -0.62  0.26033592368
