-0.04  0.14  88.9876006614
-0.04  0.16  96.7643526865
-0.04  0.18  104.117509716
-0.04  0.2  209.082570632
-0.04  0.22  170.960754136
-0.04  0.24  139.789650407
-0.04  0.26  114.30194292
-0.04  0.28  93.4613837096
-0.04  0.3  76.4206628668
-0.04  0.32  62.4869596532
-0.04  0.34  51.0937746446
-0.04  0.36  41.7778976913
-0.04  0.38  34.1605752882
-0.04  0.4  27.9321116788
-0.04  0.42  22.839277625
-0.04  0.44  18.675014923
-0.04  0.46  15.2700180847
-0.04  0.48  12.4858509226
-0.04  0.5  10.2093181814
-0.04  0.52  8.34786338346
-0.04  0.54  6.82580578164
-0.04  0.56  5.58126342376
-0.04  0.58  4.56363723229
-0.04  0.6  3.73155380899
-0.04  0.62  3.05118332607
-0.04  0.64  2.49486411447
-0.04  0.66  2.03997802967
-0.04  0.68  1.66803087086
-0.04  0.7  1.36390046642
-0.04  0.72  1.11522185518
-0.04  0.74  0.91188456701
-0.04  0.76  0.745621563719
-0.04  0.78  0.609673127933
-0.04  0.8  0.498512034804
-0.04  0.82  0.407618832877
-0.04  0.84  0.333298097771
-0.04  0.86  0.272528188145
-0.04  0.88  0.222838395509
-0.04  0.9  0.182208493188
-0.04  0.92  0.148986600419
-0.04  0.94  0.121822022213
-0.04  0.96  0.0996103344478
-0.04  0.98  0.0814484815519
-0.02  -1  0.0763286134309
-0.02  -0.98  0.0933488085588
-0.02  -0.96  0.114164265112
-0.02  -0.94  0.139621272406
-0.02  -0.92  0.170754830236
-0.02  -0.9  0.208830728631
-0.02  -0.88  0.255397010792
-0.02  -0.86  0.312346911536
-0.02  -0.84  0.381995830113
-0.02  -0.82  0.467175466874
-0.02  -0.8  0.571348951073
-0.02  -0.78  0.698751640527
-0.02  -0.76  0.854563317605
-0.02  -0.74  1.04511878247
-0.02  -0.72  1.27816540562
-0.02  -0.7  1.56317811096
-0.02  -0.68  1.9117445957
-0.02  -0.66  2.33803644866
-0.02  -0.64  2.85938532143
-0.02  -0.62  3.49698757737
-0.02  -0.6  4.27676606739
-0.02  -0.58  5.23042406944
-0.02  -0.56  6.3967342415
-0.02  -0.54  7.8231149928
-0.02  -0.52  9.56755836339
-0.02  -0.5  11.7009877934
-0.02  -0.48  14.3101416412
-0.02  -0.46  17.5010996855
-0.02  -0.44  21.4035959869
-0.02  -0.42  26.1762934559
-0.02  -0.4  32.0132345756
-0.02  -0.38  39.1517305427
-0.02  -0.36  47.8820095754
-0.02  -0.34  58.5590166565
-0.02  -0.32  71.6168444512
-0.02  -0.3  87.5863821149
-0.02  -0.28  107.116899533
-0.02  -0.26  131.002444542
-0.02  -0.24  160.214126349
-0.02  -0.22  195.939597705
-0.02  -0.2  127.119102097
-0.02  -0.18  119.329977637
-0.02  -0.16  110.902460821
-0.02  -0.14  101.989458121
-0.02  -0.12  92.7856269464
-0.02  -0.1  83.5460632774
-0.02  -0.08  74.6152871658
-0.02  -0.06  66.4669096688
-0.02  -0.04  59.7391236501
-0.02  -0.02  55.2081910183
-0.02  6.17561557e-16  53.5950094411
-0.02  0.02  55.2081910183
-0.02  0.04  59.7391236501
-0.02  0.06  66.4669096688
-0.02  0.08  74.6152871658
-0.02  0.1  83.5460632774
-0.02  0.12  92.7856269464
-0.02  0.14  101.989458121
-0.02  0.16  110.902460821
-0.02  0.18  119.329977637
-0.02  0.2  239.631341028
-0.02  0.22  195.939597705
-0.02  0.24  160.214126349
-0.02  0.26  131.002444542
-0.02  0.28  107.116899533
-0.02  0.3  87.5863821149
-0.02  0.32  71.6168444512
-0.02  0.34  58.5590166565
-0.02  0.36  47.8820095754
-0.02  0.38  39.1517305427
-0.02  0.4  32.0132345756
-0.02  0.42  26.1762934559
-0.02  0.44  21.4035959869
-0.02  0.46  17.5010996855
-0.02  0.48  14.3101416412
-0.02  0.5  11.7009877934
-0.02  0.52  9.56755836339
-0.02  0.54  7.8231149928
-0.02  0.56  6.3967342415
-0.02  0.58  5.23042406944
-0.02  0.6  4.27676606739
-0.02  0.62  3.49698757737
-0.02  0.64  2.85938532143
-0.02  0.66  2.33803644866
-0.02  0.68  1.9117445957
-0.02  0.7  1.56317811096
-0.02  0.72  1.27816540562
-0.02  0.74  1.04511878247
-0.02  0.76  0.854563317605
-0.02  0.78  0.698751640527
-0.02  0.8  0.571348951073
-0.02  0.82  0.467175466874
-0.02  0.84  0.381995830113
-0.02  0.86  0.312346911536
-0.02  0.88  0.255397010792
-0.02  0.9  0.208830728631
-0.02  0.92  0.170754830236
-0.02  0.94  0.139621272406
-0.02  0.96  0.114164265112
-0.02  0.98  0.0933488085588
2.8449465e-16  -1  0.0794465905596
2.8449465e-16  -0.98  0.0971620502384
2.8449465e-16  -0.96  0.118827805448
2.8449465e-16  -0.94  0.145324715905
2.8449465e-16  -0.92  0.177730060512
2.8449465e-16  -0.9  0.217361336045
2.8449465e-16  -0.88  0.265829822324
2.8449465e-16  -0.86  0.325106091647
2.8449465e-16  -0.84  0.397600125907
2.8449465e-16  -0.82  0.486259298682
2.8449465e-16  -0.8  0.594688205933
2.8449465e-16  -0.78  0.727295217253
2.8449465e-16  -0.76  0.889471705949
2.8449465e-16  -0.74  1.08781124489
2.8449465e-16  -0.72  1.33037767992
2.8449465e-16  -0.7  1.62703297979
2.8449465e-16  -0.68  1.98983819202
2.8449465e-16  -0.66  2.43354380619
2.8449465e-16  -0.64  2.97618946124
2.8449465e-16  -0.62  3.63983737898
2.8449465e-16  -0.6  4.45146934293
2.8449465e-16  -0.58  5.44408369051
2.8449465e-16  -0.56  6.65803691906
2.8449465e-16  -0.54  8.1426844508
2.8449465e-16  -0.52  9.95838726509
2.8449465e-16  -0.5  12.1789659811
2.8449465e-16  -0.48  14.8947021663
2.8449465e-16  -0.46  18.2160088932
2.8449465e-16  -0.44  22.2779197792
2.8449465e-16  -0.42  27.2455790179
2.8449465e-16  -0.4  33.3209556089
2.8449465e-16  -0.38  40.7510547659
2.8449465e-16  -0.36  49.8379603523
2.8449465e-16  -0.34  60.9511166359
2.8449465e-16  -0.32  74.5423487018
2.8449465e-16  -0.3  91.1642322022
2.8449465e-16  -0.28  111.4925593
2.8449465e-16  -0.26  136.353814199
2.8449465e-16  -0.24  166.758775325
2.8449465e-16  -0.22  203.943610313
2.8449465e-16  -0.2  89.4850281495
2.8449465e-16  -0.18  85.998811979
2.8449465e-16  -0.16  82.325179394
2.8449465e-16  -0.14  78.5665891025
2.8449465e-16  -0.12  74.8424429605
2.8449465e-16  -0.1  71.2892984457
2.8449465e-16  -0.08  68.0588412596
2.8449465e-16  -0.06  65.3118417789
2.8449465e-16  -0.04  63.2063020477
2.8449465e-16  -0.02  61.8793521386
2.8449465e-16  6.17561557e-16  61.4257034717
2.8449465e-16  0.02  61.8793521386
2.8449465e-16  0.04  63.2063020477
2.8449465e-16  0.06  65.3118417789
2.8449465e-16  0.08  68.0588412596
2.8449465e-16  0.1  71.2892984457
2.8449465e-16  0.12  74.8424429605
2.8449465e-16  0.14  78.5665891025
2.8449465e-16  0.16  82.325179394
2.8449465e-16  0.18  85.998811979
2.8449465e-16  0.2  249.420134602
2.8449465e-16  0.22  203.943610313
2.8449465e-16  0.24  166.758775325
2.8449465e-16  0.26  136.353814199
2.8449465e-16  0.28  111.4925593
2.8449465e-16  0.3  91.1642322022
2.8449465e-16  0.32  74.5423487018
2.8449465e-16  0.34  60.9511166359
2.8449465e-16  0.36  49.8379603523
2.8449465e-16  0.38  40.7510547659
2.8449465e-16  0.4  33.3209556089
2.8449465e-16  0.42  27.2455790179
2.8449465e-16  0.44  22.2779197792
2.8449465e-16  0.46  18.2160088932
2.8449465e-16  0.48  14.8947021663
2.8449465e-16  0.5  12.1789659811
2.8449465e-16  0.52  9.95838726509
2.8449465e-16  0.54  8.1426844508
2.8449465e-16  0.56  6.65803691906
2.8449465e-16  0.58  5.44408369051
2.8449465e-16  0.6  4.45146934293
2.8449465e-16  0.62  3.63983737898
2.8449465e-16  0.64  2.97618946124
2.8449465e-16  0.66  2.43354380619
2.8449465e-16  0.68  1.98983819202
2.8449465e-16  0.7  1.62703297979
2.8449465e-16  0.72  1.33037767992
2.8449465e-16  0.74  1.08781124489
2.8449465e-16  0.76  0.889471705949
2.8449465e-16  0.78  0.727295217253
2.8449465e-16  0.8  0.594688205933
2.8449465e-16  0.82  0.486259298682
2.8449465e-16  0.84  0.397600125907
2.8449465e-16  0.86  0.325106091647
2.8449465e-16  0.88  0.265829822324
2.8449465e-16  0.9  0.217361336045
2.8449465e-16  0.92  0.177730060512
2.8449465e-16  0.94  0.145324715905
2.8449465e-16  0.96  0.118827805448
2.8449465e-16  0.98  0.0971620502384
0.02  -1  0.0751622358514
0.02  -0.98  0.0919223453692
0.02  -0.96  0.11241972092
0.02  -0.94  0.137487719673
0.02  -0.92  0.168145525591
0.02  -0.9  0.205639586164
0.02  -0.88  0.251494288945
0.02  -0.86  0.307573938227
0.02  -0.84  0.376158551644
0.02  -0.82  0.460036558335
0.02  -0.8  0.56261816747
0.02  -0.78  0.688074016364
0.02  -0.76  0.841504735128
0.02  -0.74  1.02914832184
0.02  -0.72  1.25863375942
0.02  -0.7  1.53929118548
0.02  -0.68  1.88253122559
0.02  -0.66  2.30230891253
0.02  -0.64  2.81569105292
0.02  -0.62  3.44355010848
0.02  -0.6  4.21141280301
0.02  -0.58  5.15049795666
0.02  -0.56  6.2989857424
0.02  -0.54  7.70356996874
0.02  -0.52  9.42135649932
0.02  -0.5  11.5221849931
0.02  -0.48  14.0914683597
0.02  -0.46  17.2336653726
0.02  -0.44  21.076527626
0.02  -0.42  25.7762935027
0.02  -0.4  31.5240403223
0.02  -0.38  38.553452929
0.02  -0.36  47.1503245635
0.02  -0.34  57.6641762941
0.02  -0.32  70.5224674158
0.02  -0.3  86.2479745666
0.02  -0.28  105.480046139
0.02  -0.26  129.000596122
0.02  -0.24  157.765894206
0.02  -0.22  192.945444616
0.02  -0.2  89.2358907772
0.02  -0.18  85.3960758294
0.02  -0.16  81.3309083563
0.02  -0.14  77.1484788776
0.02  -0.12  72.9772392059
0.02  -0.1  68.9678363235
0.02  -0.08  65.2928224033
0.02  -0.06  62.1416316967
0.02  -0.04  59.7074772831
0.02  -0.02  58.1640156218
0.02  6.17561557e-16  57.6345473386
0.02  0.02  58.1640156218
0.02  0.04  59.7074772831
0.02  0.06  62.1416316967
0.02  0.08  65.2928224033
0.02  0.1  68.9678363235
0.02  0.12  72.9772392059
0.02  0.14  77.1484788776
0.02  0.16  81.3309083563
0.02  0.18  85.3960758294
0.02  0.2  235.969534387
0.02  0.22  192.945444616
0.02  0.24  157.765894206
0.02  0.26  129.000596122
0.02  0.28  105.480046139
0.02  0.3  86.2479745666
0.02  0.32  70.5224674158
0.02  0.34  57.6641762941
0.02  0.36  47.1503245635
0.02  0.38  38.553452929
0.02  0.4  31.5240403223
0.02  0.42  25.7762935027
0.02  0.44  21.076527626
0.02  0.46  17.2336653726
0.02  0.48  14.0914683597
0.02  0.5  11.5221849931
0.02  0.52  9.42135649932
0.02  0.54  7.70356996874
0.02  0.56  6.2989857424
0.02  0.58  5.15049795666
0.02  0.6  4.21141280301
0.02  0.62  3.44355010848
0.02  0.64  2.81569105292
0.02  0.66  2.30230891253
0.02  0.68  1.88253122559
0.02  0.7  1.53929118548
0.02  0.72  1.25863375942
0.02  0.74  1.02914832184
0.02  0.76  0.841504735128
0.02  0.78  0.688074016364
0.02  0.8  0.56261816747
0.02  0.82  0.460036558335
0.02  0.84  0.376158551644
0.02  0.86  0.307573938227
0.02  0.88  0.251494288945
0.02  0.9  0.205639586164
0.02  0.92  0.168145525591
0.02  0.94  0.137487719673
0.02  0.96  0.11241972092
0.02  0.98  0.0919223453692
0.04  -1  0.0686779762834
0.04  -0.98  0.083992188147
0.04  -0.96  0.102721251433
0.04  -0.94  0.125626629437
0.04  -0.92  0.15363958094
0.04  -0.9  0.187899022182
0.04  -0.88  0.229797831529
0.04  -0.86  0.281039479409
0.04  -0.84  0.343707285926
0.04  -0.82  0.420349121935
0.04  -0.8  0.514080997252
0.04  -0.78  0.628713747559
0.04  -0.76  0.768907970696
0.04  -0.74  0.940363511527
0.04  -0.72  1.15005119925
0.04  -0.7  1.40649625882
0.04  -0.68  1.72012491911
0.04  -0.66  2.10368830971
0.04  -0.64  2.57278088077
0.04  -0.62  3.14647442299
0.04  -0.6  3.84809346514
0.04  -0.58  4.70616357414
0.04  -0.56  5.75557111262
0.04  -0.54  7.03898160583
0.04  -0.52  8.60857438431
0.04  -0.5  10.5281640272
0.04  -0.48  12.8757948569
0.04  -0.46  15.7469139699
0.04  -0.44  19.2582518075
0.04  -0.42  23.552568039
0.04  -0.4  28.8044557095
0.04  -0.38  35.2274396299
0.04  -0.36  43.0826576065
0.04  -0.34  52.6894774626
0.04  -0.32  64.438481503
0.04  -0.3  78.8073463314
0.04  -0.28  96.3802636396
0.04  -0.26  117.871691557
0.04  -0.24  144.155402216
0.04  -0.22  176.300006502
0.04  -0.2  88.8839066501
0.04  -0.18  84.5401024474
0.04  -0.16  79.9099450304
0.04  -0.14  75.1063146868
0.04  -0.12  70.2670333318
0.04  -0.1  65.5598656861
0.04  -0.08  61.1864804243
0.04  -0.06  57.3816165516
0.04  -0.04  54.4007494922
0.04  -0.02  52.4886278976
0.04  6.17561557e-16  51.8283396171
0.04  0.02  52.4886278976
0.04  0.04  54.4007494922
0.04  0.06  57.3816165516
0.04  0.08  61.1864804243
0.04  0.1  65.5598656861
0.04  0.12  70.2670333318
0.04  0.14  75.1063146868
0.04  0.16  79.9099450304
0.04  0.18  84.5401024474
0.04  0.2  215.612400332
0.04  0.22  176.300006502
0.04  0.24  144.155402216
0.04  0.26  117.871691557
0.04  0.28  96.3802636396
0.04  0.3  78.8073463314
0.04  0.32  64.438481503
0.04  0.34  52.6894774626
0.04  0.36  43.0826576065
0.04  0.38  35.2274396299
0.04  0.4  28.8044557095
0.04  0.42  23.552568039
0.04  0.44  19.2582518075
0.04  0.46  15.7469139699
0.04  0.48  12.8757948569
0.04  0.5  10.5281640272
0.04  0.52  8.60857438431
0.04  0.54  7.03898160583
0.04  0.56  5.75557111262
0.04  0.58  4.70616357414
0.04  0.6  3.84809346514
0.04  0.62  3.14647442299
0.04  0.64  2.57278088077
0.04  0.66  2.10368830971
0.04  0.68  1.72012491911
0.04  0.7  1.40649625882
0.04  0.72  1.15005119925
0.04  0.74  0.940363511527
0.04  0.76  0.768907970696
0.04  0.78  0.628713747559
0.04  0.8  0.514080997252
0.04  0.82  0.420349121935
0.04  0.84  0.343707285926
0.04  0.86  0.281039479409
0.04  0.88  0.229797831529
0.04  0.9  0.187899022182
0.04  0.92  0.15363958094
0.04  0.94  0.125626629437
0.04  0.96  0.102721251433
0.04  0.98  0.083992188147
0.06  -1  0.0603569944541
0.06  -0.98  0.073815745724
0.06  -0.96  0.0902756070952
0.06  -0.94  0.110405783434
0.06  -0.92  0.135024702773
0.06  -0.9  0.165133290954
0.06  -0.88  0.201955666048
0.06  -0.86  0.246988907042
0.06  -0.84  0.302063920242
0.06  -0.82  0.369419878022
0.06  -0.8  0.451795256342
0.06  -0.78  0.552539172355
0.06  -0.76  0.675747548697
0.06  -0.74  0.826429640498
0.06  -0.72  1.01071169553
0.06  -0.7  1.23608602768
0.06  -0.68  1.51171563027
0.06  -0.66  1.84880671379
0.06  -0.64  2.26106431429
0.06  -0.62  2.76524949591
0.06  -0.6  3.38186080171
0.06  -0.58  4.13596765828
0.06  -0.56  5.05822961776
0.06  -0.54  6.18614287631
0.06  -0.52  7.56556474855
0.06  -0.5  9.25257807795
0.06  -0.48  11.3157713844
0.06  -0.46  13.8390274522
0.06  -0.44  16.9249337334
0.06  -0.42  20.6989532225
0.06  -0.4  25.3145253776
0.06  -0.38  30.9593044733
0.06  -0.36  37.8627890183
0.06  -0.34  46.3056524244
0.06  -0.32  56.6311542823
0.06  -0.3  69.2590961887
0.06  -0.28  84.7028895256
0.06  -0.26  103.59042911
0.06  -0.24  126.689621374
0.06  -0.22  154.939604958
0.06  -0.2  88.4769775751
0.06  -0.18  83.5438690411
0.06  -0.16  78.2422213057
0.06  -0.14  72.6844173709
0.06  -0.12  67.011530202
0.06  -0.1  61.4029390985
0.06  -0.08  56.0883485589
0.06  -0.06  51.3586327908
0.06  -0.04  47.5642473818
0.06  -0.02  45.0790649917
0.06  6.17561557e-16  44.2100802202
0.06  0.02  45.0790649917
0.06  0.04  47.5642473818
0.06  0.06  51.3586327908
0.06  0.08  56.0883485589
0.06  0.1  61.4029390985
0.06  0.12  67.011530202
0.06  0.14  72.6844173709
0.06  0.16  78.2422213057
0.06  0.18  83.5438690411
0.06  0.2  189.488933066
0.06  0.22  154.939604958
0.06  0.24  126.689621374
0.06  0.26  103.59042911
0.06  0.28  84.7028895256
0.06  0.3  69.2590961887
0.06  0.32  56.6311542823
0.06  0.34  46.3056524244
0.06  0.36  37.8627890183
0.06  0.38  30.9593044733
0.06  0.4  25.3145253776
0.06  0.42  20.6989532225
0.06  0.44  16.9249337334
0.06  0.46  13.8390274522
0.06  0.48  11.3157713844
0.06  0.5  9.25257807795
0.06  0.52  7.56556474855
0.06  0.54  6.18614287631
0.06  0.56  5.05822961776
0.06  0.58  4.13596765828
0.06  0.6  3.38186080171
0.06  0.62  2.76524949591
0.06  0.64  2.26106431429
0.06  0.66  1.84880671379
0.06  0.68  1.51171563027
0.06  0.7  1.23608602768
0.06  0.72  1.01071169553
0.06  0.74  0.826429640498
0.06  0.76  0.675747548697
0.06  0.78  0.552539172355
0.06  0.8  0.451795256342
0.06  0.82  0.369419878022
0.06  0.84  0.302063920242
0.06  0.86  0.246988907042
0.06  0.88  0.201955666048
0.06  0.9  0.165133290954
0.06  0.92  0.135024702773
0.06  0.94  0.110405783434
0.06  0.96  0.0902756070952
0.06  0.98  0.073815745724
0.08  -1  0.0507652753732
0.08  -0.98  0.0620852097168
0.08  -0.96  0.0759293284089
0.08  -0.94  0.0928604886561
0.08  -0.92  0.113567056817
0.08  -0.9  0.138890895155
0.08  -0.88  0.169861589247
0.08  -0.86  0.207738307607
0.08  -0.84  0.254060995418
0.08  -0.82  0.310712983735
0.08  -0.8  0.379997559653
0.08  -0.78  0.464731610525
0.08  -0.76  0.568360149518
0.08  -0.74  0.695096378737
0.08  -0.72  0.850092984427
0.08  -0.7  1.03965162858
0.08  -0.68  1.27147915417
0.08  -0.66  1.55500092054
0.08  -0.64  1.90174400812
0.08  -0.62  2.3258058723
0.08  -0.6  2.84442750051
0.08  -0.58  3.47869437514
0.08  -0.56  4.25439374126
0.08  -0.54  5.20306303279
0.08  -0.52  6.36327208285
0.08  -0.5  7.78219124872
0.08  -0.48  9.51750920646
0.08  -0.46  11.6397783863
0.08  -0.44  14.235283407
0.08  -0.42  17.4095491299
0.08  -0.4  21.2916309595
0.08  -0.38  26.0393618199
0.08  -0.36  31.8457691324
0.08  -0.34  38.9469226877
0.08  -0.32  47.6315324819
0.08  -0.3  58.2526867337
0.08  -0.28  71.2422073128
0.08  -0.26  87.1282062233
0.08  -0.24  106.556556935
0.08  -0.22  130.317153514
0.08  -0.2  88.0711617533
0.08  -0.18  82.5430222554
0.08  -0.16  76.5507541976
0.08  -0.14  70.1976174018
0.08  -0.12  63.615244692
0.08  -0.1  56.9772025194
0.08  -0.08  50.5211660343
0.08  -0.06  44.5819825619
0.08  -0.04  39.62784827
0.08  -0.02  36.2556152817
0.08  6.17561557e-16  35.0461230346
0.08  0.02  36.2556152817
0.08  0.04  39.62784827
0.08  0.06  44.5819825619
0.08  0.08  50.5211660343
0.08  0.1  56.9772025194
0.08  0.12  63.615244692
0.08  0.14  70.1976174018
0.08  0.16  76.5507541976
0.08  0.18  82.5430222554
0.08  0.2  159.37602517
0.08  0.22  130.317153514
0.08  0.24  106.556556935
0.08  0.26  87.1282062233
0.08  0.28  71.2422073128
0.08  0.3  58.2526867337
0.08  0.32  47.6315324819
0.08  0.34  38.9469226877
0.08  0.36  31.8457691324
0.08  0.38  26.0393618199
0.08  0.4  21.2916309595
0.08  0.42  17.4095491299
0.08  0.44  14.235283407
0.08  0.46  11.6397783863
0.08  0.48  9.51750920646
0.08  0.5  7.78219124872
0.08  0.52  6.36327208285
0.08  0.54  5.20306303279
0.08  0.56  4.25439374126
0.08  0.58  3.47869437514
0.08  0.6  2.84442750051
0.08  0.62  2.3258058723
0.08  0.64  1.90174400812
0.08  0.66  1.55500092054
0.08  0.68  1.27147915417
0.08  0.7  1.03965162858
0.08  0.72  0.850092984427
0.08  0.74  0.695096378737
0.08  0.76  0.568360149518
0.08  0.78  0.464731610525
0.08  0.8  0.379997559653
0.08  0.82  0.310712983735
0.08  0.84  0.254060995418
0.08  0.86  0.207738307607
0.08  0.88  0.169861589247
0.08  0.9  0.138890895155
0.08  0.92  0.113567056817
0.08  0.94  0.0928604886561
0.08  0.96  0.0759293284089
0.08  0.98  0.0620852097168
0.1  -1  0.0408272049121
0.1  -0.98  0.0499310908979
0.1  -0.96  0.0610650139685
0.1  -0.94  0.0746816435196
0.1  -0.92  0.0913345877831
0.1  -0.9  0.111700901753
0.1  -0.88  0.136608614055
0.1  -0.86  0.167070391924
0.1  -0.84  0.204324712982
0.1  -0.82  0.249886217745
0.1  -0.8  0.305607290022
0.1  -0.78  0.373753368863
0.1  -0.76  0.457095054004
0.1  -0.74  0.559020749512
0.1  -0.72  0.683674425369
0.1  -0.7  0.836124097919
0.1  -0.68  1.02256787907
0.1  -0.66  1.25058597151
0.1  -0.64  1.52944885533
0.1  -0.62  1.8704941958
0.1  -0.6  2.28758779632
0.1  -0.58  2.79768733718
0.1  -0.56  3.4215318202
0.1  -0.54  4.18448474963
0.1  -0.52  5.11756533039
0.1  -0.5  6.25870960889
0.1  -0.48  7.65431283033
0.1  -0.46  9.36111571966
0.1  -0.44  11.4485113764
0.1  -0.42  14.0013665744
0.1  -0.4  17.1234721707
0.1  -0.38  20.9417629075
0.1  -0.36  25.6114781688
0.1  -0.34  31.3224735131
0.1  -0.32  38.3069395884
0.1  -0.3  46.8488422543
0.1  -0.28  57.2954677181
0.1  -0.26  70.0715420718
0.1  -0.24  85.6964992846
0.1  -0.22  104.805599713
0.1  -0.2  87.7231036472
0.1  -0.18  81.6785779615
0.1  -0.16  75.0760560208
0.1  -0.14  68.0019007915
0.1  -0.12  60.5641823502
0.1  -0.1  52.9052723615
0.1  -0.08  45.227416243
0.1  -0.06  37.8458938939
0.1  -0.04  31.2953193796
0.1  -0.02  26.4874557666
0.1  6.17561557e-16  24.6568635062
0.1  0.02  26.4874557666
0.1  0.04  31.2953193796
0.1  0.06  37.8458938939
0.1  0.08  45.227416243
0.1  0.1  52.9052723615
0.1  0.12  60.5641823502
0.1  0.14  68.0019007915
0.1  0.16  75.0760560208
0.1  0.18  81.6785779615
0.1  0.2  128.175757737
0.1  0.22  104.805599713
0.1  0.24  85.6964992846
0.1  0.26  70.0715420718
0.1  0.28  57.2954677181
0.1  0.3  46.8488422543
0.1  0.32  38.3069395884
0.1  0.34  31.3224735131
0.1  0.36  25.6114781688
0.1  0.38  20.9417629075
0.1  0.4  17.1234721707
0.1  0.42  14.0013665744
0.1  0.44  11.4485113764
0.1  0.46  9.36111571966
0.1  0.48  7.65431283033
0.1  0.5  6.25870960889
0.1  0.52  5.11756533039
0.1  0.54  4.18448474963
0.1  0.56  3.4215318202
0.1  0.58  2.79768733718
0.1  0.6  2.28758779632
0.1  0.62  1.8704941958
0.1  0.64  1.52944885533
0.1  0.66  1.25058597151
0.1  0.68  1.02256787907
0.1  0.7  0.836124097919
0.1  0.72  0.683674425369
0.1  0.74  0.559020749512
0.1  0.76  0.457095054004
0.1  0.78  0.373753368863
0.1  0.8  0.305607290022
0.1  0.82  0.249886217745
0.1  0.84  0.204324712982
0.1  0.86  0.167070391924
0.1  0.88  0.136608614055
0.1  0.9  0.111700901753
0.1  0.92  0.0913345877831
0.1  0.94  0.0746816435196
0.1  0.96  0.0610650139685
0.1  0.98  0.0499310908979
0.12  -1  0.0322241460182
0.12  -0.98  0.0394096722371
0.12  -0.96  0.0481974685988
0.12  -0.94  0.0589448185551
0.12  -0.92  0.0720886746857
0.12  -0.9  0.0881634237806
0.12  -0.88  0.107822613283
0.12  -0.86  0.13186552242
0.12  -0.84  0.161269658318
0.12  -0.82  0.197230498289
0.12  -0.8  0.241210094081
0.12  -0.78  0.294996514187
0.12  -0.76  0.36077654094
0.12  -0.74  0.44122457803
0.12  -0.72  0.539611383132
0.12  -0.7  0.659937046357
0.12  -0.68  0.807093621018
0.12  -0.66  0.987064018733
0.12  -0.64  1.20716525531
0.12  -0.62  1.47634593702
0.12  -0.6  1.80555008203
0.12  -0.58  2.20816206891
0.12  -0.56  2.70055080228
0.12  -0.54  3.30273521965
0.12  -0.52  4.03919819687
0.12  -0.5  4.93988194286
0.12  -0.48  6.04140535324
0.12  -0.46  7.38855281652
0.12  -0.44  9.03609500282
0.12  -0.42  11.0510156627
0.12  -0.4  13.5152349703
0.12  -0.38  16.5289401335
0.12  -0.36  20.2146586824
0.12  -0.34  24.7222400434
0.12  -0.32  30.234947934
0.12  -0.3  36.9769112737
0.12  -0.28  45.2222365431
0.12  -0.26  55.3061520695
0.12  -0.24  67.6386373288
0.12  -0.22  82.7210913886
0.12  -0.2  87.4819860013
0.12  -0.18  81.0763618514
0.12  -0.16  74.0407426398
0.12  -0.14  66.4435836343
0.12  -0.12  58.3646371987
0.12  -0.1  49.9003650596
0.12  -0.08  41.1772013457
0.12  -0.06  32.3876003619
0.12  -0.04  23.9034395972
0.12  -0.02  16.6862810297
0.12  6.17561557e-16  13.405536793
0.12  0.02  16.6862810297
0.12  0.04  23.9034395972
0.12  0.06  32.3876003619
0.12  0.08  41.1772013457
0.12  0.1  49.9003650596
0.12  0.12  58.3646371987
0.12  0.14  66.4435836343
0.12  0.16  74.0407426398
0.12  0.18  81.0763618514
0.12  0.2  101.166718177
0.12  0.22  82.7210913886
0.12  0.24  67.6386373288
0.12  0.26  55.3061520695
0.12  0.28  45.2222365431
0.12  0.3  36.9769112737
0.12  0.32  30.234947934
0.12  0.34  24.7222400434
0.12  0.36  20.2146586824
0.12  0.38  16.5289401335
0.12  0.4  13.5152349703
0.12  0.42  11.0510156627
0.12  0.44  9.03609500282
0.12  0.46  7.38855281652
0.12  0.48  6.04140535324
0.12  0.5  4.93988194286
0.12  0.52  4.03919819687
0.12  0.54  3.30273521965
0.12  0.56  2.70055080228
0.12  0.58  2.20816206891
0.12  0.6  1.80555008203
0.12  0.62  1.47634593702
0.12  0.64  1.20716525531
0.12  0.66  0.987064018733
0.12  0.68  0.807093621018
0.12  0.7  0.659937046357
0.12  0.72  0.539611383132
0.12  0.74  0.44122457803
0.12  0.76  0.36077654094
0.12  0.78  0.294996514187
0.12  0.8  0.241210094081
0.12  0.82  0.197230498289
0.12  0.84  0.161269658318
0.12  0.86  0.13186552242
0.12  0.88  0.107822613283
0.12  0.9  0.0881634237806
0.12  0.92  0.0720886746857
0.12  0.94  0.0589448185551
0.12  0.96  0.0481974685988
0.12  0.98  0.0394096722371
0.14  -1  0.0279077182912
0.14  -0.98  0.034130742522
0.14  -0.96  0.0417414126426
0.14  -0.94  0.051049153949
0.14  -0.92  0.0624323891773
0.14  -0.9  0.0763539239508
0.14  -0.88  0.0933797629647
0.14  -0.86  0.11420212191
0.14  -0.84  0.139667570731
0.14  -0.82  0.17081145243
0.14  -0.8  0.208899976769
0.14  -0.78  0.25548170028
0.14  -0.76  0.312450485574
0.14  -0.74  0.382122499688
0.14  -0.72  0.467330381964
0.14  -0.7  0.571538410024
0.14  -0.68  0.698983346129
0.14  -0.66  0.854846690261
0.14  -0.64  1.0454653432
0.14  -0.62  1.27858924446
0.14  -0.6  1.56369645984
0.14  -0.58  1.912378529
0.14  -0.56  2.33881174007
0.14  -0.54  2.86033349179
0.14  -0.52  3.49814717624
0.14  -0.5  4.27818424032
0.14  -0.48  5.23215847476
0.14  -0.46  6.39885539453
0.14  -0.44  7.82570913279
0.14  -0.42  9.5707309597
0.14  -0.4  11.7048678335
0.14  -0.38  14.3148868751
0.14  -0.36  17.5069030391
0.14  -0.34  21.4106934058
0.14  -0.32  26.1849734983
0.14  -0.3  32.0238501439
0.14  -0.28  39.1647132318
0.14  -0.26  47.8978872195
0.14  -0.24  58.5784347894
0.14  -0.22  71.6405925516
0.14  -0.2  87.3822107546
0.14  -0.18  80.8263385703
0.14  -0.16  73.6089114973
0.14  -0.14  65.7892325596
0.14  -0.12  57.4316550575
0.14  -0.1  48.6051694245
0.14  -0.08  39.3831212953
0.14  -0.06  29.8434545711
0.14  -0.04  20.0714198008
0.14  -0.02  10.1818698462
0.14  6.17561557e-16  1.68551813269
0.14  0.02  10.1818698462
0.14  0.04  20.0714198008
0.14  0.06  29.8434545711
0.14  0.08  39.3831212953
0.14  0.1  48.6051694245
0.14  0.12  57.4316550575
0.14  0.14  65.7892325596
0.14  0.16  73.6089114973
0.14  0.18  80.8263385703
0.14  0.2  87.6154257039
0.14  0.22  71.6405925516
0.14  0.24  58.5784347894
0.14  0.26  47.8978872195
0.14  0.28  39.1647132318
0.14  0.3  32.0238501439
0.14  0.32  26.1849734983
0.14  0.34  21.4106934058
0.14  0.36  17.5069030391
0.14  0.38  14.3148868751
0.14  0.4  11.7048678335
0.14  0.42  9.5707309597
0.14  0.44  7.82570913279
0.14  0.46  6.39885539453
0.14  0.48  5.23215847476
0.14  0.5  4.27818424032
0.14  0.52  3.49814717624
0.14  0.54  2.86033349179
0.14  0.56  2.33881174007
0.14  0.58  1.912378529
0.14  0.6  1.56369645984
0.14  0.62  1.27858924446
0.14  0.64  1.0454653432
0.14  0.66  0.854846690261
0.14  0.68  0.698983346129
0.14  0.7  0.571538410024
0.14  0.72  0.467330381964
0.14  0.74  0.382122499688
0.14  0.76  0.312450485574
0.14  0.78  0.25548170028
0.14  0.8  0.208899976769
0.14  0.82  0.17081145243
0.14  0.84  0.139667570731
0.14  0.86  0.11420212191
0.14  0.88  0.0933797629647
0.14  0.9  0.0763539239508
0.14  0.92  0.0624323891773
0.14  0.94  0.051049153949
0.14  0.96  0.0417414126426
0.14  0.98  0.034130742522
0.16  -1  0.0304002904475
0.16  -0.98  0.0371791228159
0.16  -0.96  0.0454695383831
0.16  -0.94  0.0556085987023
0.16  -0.92  0.0680085252588
0.16  -0.9  0.0831734590659
0.16  -0.88  0.101719957412
0.16  -0.86  0.124402061092
0.16  -0.84  0.152141951271
0.16  -0.82  0.186067442399
0.16  -0.8  0.227557835506
0.16  -0.78  0.278299996134
0.16  -0.76  0.340356936845
0.16  -0.74  0.416251692663
0.16  -0.72  0.509069899532
0.16  -0.7  0.622585246324
0.16  -0.68  0.761412900855
0.16  -0.66  0.931197147717
0.16  -0.64  1.13884086669
0.16  -0.62  1.39278618155
0.16  -0.6  1.70335768961
0.16  -0.58  2.08318222653
0.16  -0.56  2.5477022327
0.16  -0.54  3.11580359312
0.16  -0.52  3.81058347646
0.16  -0.5  4.66028939151
0.16  -0.48  5.69946763976
0.16  -0.46  6.97036785651
0.16  -0.44  8.52466074483
0.16  -0.42  10.4255388396
0.16  -0.4  12.7502857122
0.16  -0.38  15.5934180712
0.16  -0.36  19.0705285066
0.16  -0.34  23.3229851121
0.16  -0.32  28.5236790555
0.16  -0.3  34.8840537756
0.16  -0.28  42.6627015909
0.16  -0.26  52.1758772288
0.16  -0.24  63.8103557223
0.16  -0.22  78.0391574358
0.16  -0.2  87.4380936169
0.16  -0.18  80.9664334408
0.16  -0.16  73.8510250819
0.16  -0.14  66.1564317799
0.16  -0.12  57.9559259216
0.16  -0.1  49.3345996169
0.16  -0.08  40.3975283311
0.16  -0.06  31.2935344258
0.16  -0.04  22.2984294166
0.16  -0.02  14.1960426129
0.16  6.17561557e-16  10.0934305643
0.16  0.02  14.1960426129
0.16  0.04  22.2984294166
0.16  0.06  31.2935344258
0.16  0.08  40.3975283311
0.16  0.1  49.3345996169
0.16  0.12  57.9559259216
0.16  0.14  66.1564317799
0.16  0.16  73.8510250819
0.16  0.18  80.9664334408
0.16  0.2  95.4407795467
0.16  0.22  78.0391574358
0.16  0.24  63.8103557223
0.16  0.26  52.1758772288
0.16  0.28  42.6627015909
0.16  0.3  34.8840537756
0.16  0.32  28.5236790555
0.16  0.34  23.3229851121
0.16  0.36  19.0705285066
0.16  0.38  15.5934180712
0.16  0.4  12.7502857122
0.16  0.42  10.4255388396
0.16  0.44  8.52466074483
0.16  0.46  6.97036785651
0.16  0.48  5.69946763976
0.16  0.5  4.66028939151
0.16  0.52  3.81058347646
0.16  0.54  3.11580359312
0.16  0.56  2.5477022327
0.16  0.58  2.08318222653
0.16  0.6  1.70335768961
0.16  0.62  1.39278618155
0.16  0.64  1.13884086669
0.16  0.66  0.931197147717
0.16  0.68  0.761412900855
0.16  0.7  0.622585246324
0.16  0.72  0.509069899532
0.16  0.74  0.416251692663
0.16  0.76  0.340356936845
0.16  0.78  0.278299996134
0.16  0.8  0.227557835506
0.16  0.82  0.186067442399
0.16  0.84  0.152141951271
0.16  0.86  0.124402061092
0.16  0.88  0.101719957412
0.16  0.9  0.0831734590659
0.16  0.92  0.0680085252588
0.16  0.94  0.0556085987023
0.16  0.96  0.0454695383831
0.16  0.98  0.0371791228159
0.18  -1  0.0381347426263
0.18  -0.98  0.0466382478189
0.18  -0.96  0.057037913719
0.18  -0.94  0.0697565571942
0.18  -0.92  0.0853112772596
0.18  -0.9  0.104334478656
0.18  -0.88  0.127599583385
0.18  -0.86  0.156052475555
0.18  -0.84  0.190849957976
0.18  -0.82  0.233406784033
0.18  -0.8  0.285453176989
0.18  -0.78  0.349105175287
0.18  -0.76  0.426950663846
0.18  -0.74  0.522154589111
0.18  -0.72  0.638587635568
0.18  -0.7  0.780983595289
0.18  -0.68  0.955131828644
0.18  -0.66  1.16811264103
0.18  -0.64  1.42858514521
0.18  -0.62  1.74713931298
0.18  -0.6  2.13672652918
0.18  -0.58  2.61318615325
0.18  -0.56  3.19588949653
0.18  -0.54  3.90852739722
0.18  -0.52  4.7800734135
0.18  -0.5  5.84596179489
0.18  -0.48  7.14952812456
0.18  -0.46  8.74377120435
0.18  -0.44  10.6935078151
0.18  -0.42  13.0780079577
0.18  -0.4  15.994217716
0.18  -0.38  19.5607007714
0.18  -0.36  23.92245882
0.18  -0.34  29.2568268735
0.18  -0.32  35.7806831291
0.18  -0.3  43.759266537
0.18  -0.28  53.5169605607
0.18  -0.26  65.4504815623
0.18  -0.24  80.0450080096
0.18  -0.22  97.8939062681
0.18  -0.2  87.6416107359
0.18  -0.18  81.4753538018
0.18  -0.16  74.7274275763
0.18  -0.14  67.4787690527
0.18  -0.12  59.8291543712
0.18  -0.1  51.9082218929
0.18  -0.08  43.8991219294
0.18  -0.06  36.091929247
0.18  -0.04  29.0063432999
0.18  -0.02  23.6312865111
0.18  6.17561557e-16  21.5194870424
0.18  0.02  23.6312865111
0.18  0.04  29.0063432999
0.18  0.06  36.091929247
0.18  0.08  43.8991219294
0.18  0.1  51.9082218929
0.18  0.12  59.8291543712
0.18  0.14  67.4787690527
0.18  0.16  74.7274275763
0.18  0.18  81.4753538018
0.18  0.2  119.722854963
0.18  0.22  97.8939062681
0.18  0.24  80.0450080096
0.18  0.26  65.4504815623
0.18  0.28  53.5169605607
0.18  0.3  43.759266537
0.18  0.32  35.7806831291
0.18  0.34  29.2568268735
0.18  0.36  23.92245882
0.18  0.38  19.5607007714
0.18  0.4  15.994217716
0.18  0.42  13.0780079577
0.18  0.44  10.6935078151
0.18  0.46  8.74377120435
0.18  0.48  7.14952812456
0.18  0.5  5.84596179489
0.18  0.52  4.7800734135
0.18  0.54  3.90852739722
0.18  0.56  3.19588949653
0.18  0.58  2.61318615325
0.18  0.6  2.13672652918
0.18  0.62  1.74713931298
0.18  0.64  1.42858514521
0.18  0.66  1.16811264103
0.18  0.68  0.955131828644
0.18  0.7  0.780983595289
0.18  0.72  0.638587635568
0.18  0.74  0.522154589111
0.18  0.76  0.426950663846
0.18  0.78  0.349105175287
0.18  0.8  0.285453176989
0.18  0.82  0.233406784033
0.18  0.84  0.190849957976
0.18  0.86  0.156052475555
0.18  0.88  0.127599583385
0.18  0.9  0.104334478656
0.18  0.92  0.0853112772596
0.18  0.94  0.0697565571942
0.18  0.96  0.057037913719
0.18  0.98  0.0466382478189
0.2  -1  0.0479124154337
0.2  -0.98  0.0585962025887
0.2  -0.96  0.0716623223174
0.2  -0.94  0.0876420008985
0.2  -0.92  0.107184920515
0.2  -0.9  0.131085633235
0.2  -0.88  0.160315864937
0.2  -0.86  0.19606402255
0.2  -0.84  0.239783510844
0.2  -0.82  0.293251823179
0.2  -0.8  0.358642808653
0.2  -0.78  0.438615053793
0.2  -0.76  0.536419972107
0.2  -0.74  0.656033996067
0.2  -0.72  0.802320246029
0.2  -0.7  0.981226249016
0.2  -0.68  1.20002574598
0.2  -0.66  1.46761441866
0.2  -0.64  1.79487155927
0.2  -0.62  2.19510238746
0.2  -0.6  2.68457899762
0.2  -0.58  3.28320192973
0.2  -0.56  4.01530926113
0.2  -0.54  4.91066611423
0.2  -0.52  6.00567481038
0.2  -0.5  7.34485487082
0.2  -0.48  8.98265303678
0.2  -0.46  10.9856568984
0.2  -0.44  13.4353021312
0.2  -0.42  16.4311834082
0.2  -0.4  20.0951035977
0.2  -0.38  24.5760258754
0.2  -0.36  30.0561300862
0.2  -0.34  36.7582195893
0.2  -0.32  44.9547797237
0.2  -0.3  54.9790561836
0.2  -0.28  67.2386037127
0.2  -0.26  82.2318559661
0.2  -0.24  100.568390214
0.2  -0.22  122.993710788
0.2  -0.2  87.9636649879
0.2  -0.18  82.2766458258
0.2  -0.16  76.0977270879
0.2  -0.14  69.5259555683
0.2  -0.12  62.6875064477
0.2  -0.1  55.7496533523
0.2  -0.08  48.9451624073
0.2  -0.06  42.6126006824
0.2  -0.04  37.2504681566
0.2  -0.02  33.5398720338
0.2  6.17561557e-16  32.1931670633
0.2  0.02  33.5398720338
0.2  0.04  37.2504681566
0.2  0.06  42.6126006824
0.2  0.08  48.9451624073
0.2  0.1  55.7496533523
0.2  0.12  62.6875064477
0.2  0.14  69.5259555683
0.2  0.16  76.0977270879
0.2  0.18  82.2766458258
0.2  0.2  150.419558881
0.2  0.22  122.993710788
0.2  0.24  100.568390214
0.2  0.26  82.2318559661
0.2  0.28  67.2386037127
0.2  0.3  54.9790561836
0.2  0.32  44.9547797237
0.2  0.34  36.7582195893
0.2  0.36  30.0561300862
0.2  0.38  24.5760258754
0.2  0.4  20.0951035977
0.2  0.42  16.4311834082
0.2  0.44  13.4353021312
0.2  0.46  10.9856568984
0.2  0.48  8.98265303678
0.2  0.5  7.34485487082
0.2  0.52  6.00567481038
0.2  0.54  4.91066611423
0.2  0.56  4.01530926113
0.2  0.58  3.28320192973
0.2  0.6  2.68457899762
0.2  0.62  2.19510238746
0.2  0.64  1.79487155927
0.2  0.66  1.46761441866
0.2  0.68  1.20002574598
0.2  0.7  0.981226249016
0.2  0.72  0.802320246029
0.2  0.74  0.656033996067
0.2  0.76  0.536419972107
0.2  0.78  0.438615053793
0.2  0.8  0.358642808653
0.2  0.82  0.293251823179
0.2  0.84  0.239783510844
0.2  0.86  0.19606402255
0.2  0.88  0.160315864937
0.2  0.9  0.131085633235
0.2  0.92  0.107184920515
0.2  0.94  0.0876420008985
0.2  0.96  0.0716623223174
0.2  0.98  0.0585962025887
0.22  -1  0.0577197299063
0.22  -0.98  0.0705904086934
0.22  -0.96  0.0863310657828
0.22  -0.94  0.105581665514
0.22  -0.92  0.129124875173
0.22  -0.9  0.157917885717
0.22  -0.88  0.193131328072
0.22  -0.86  0.236196867211
0.22  -0.84  0.288865409031
0.22  -0.82  0.35327828654
0.22  -0.8  0.432054319552
0.22  -0.78  0.528396287447
0.22  -0.76  0.646221143853
0.22  -0.74  0.790319267345
0.22  -0.72  0.966549222783
0.22  -0.7  1.18207595166
0.22  -0.68  1.44566207551
0.22  -0.66  1.76802415584
0.22  -0.64  2.16226839494
0.22  -0.62  2.64442349178
0.22  -0.6  3.23409231724
0.22  -0.58  3.95524890357
0.22  -0.56  4.83721315122
0.22  -0.54  5.91584288138
0.22  -0.52  7.23499169938
0.22  -0.5  8.84829194076
0.22  -0.48  10.821335189
0.22  -0.46  13.2343390179
0.22  -0.44  16.1854083791
0.22  -0.42  19.7945242329
0.22  -0.4  24.2084215876
0.22  -0.38  29.6065552709
0.22  -0.36  36.2083959847
0.22  -0.34  44.2823532757
0.22  -0.32  54.156688202
0.22  -0.3  66.2328593683
0.22  -0.28  81.0018449382
0.22  -0.26  99.064104222
0.22  -0.24  121.153990416
0.22  -0.22  148.169607034
0.22  -0.2  88.3586072349
0.22  -0.18  83.2527059878
0.22  -0.16  77.7518476192
0.22  -0.14  71.9667603394
0.22  -0.12  66.037335736
0.22  -0.1  60.1436012586
0.22  -0.08  54.5206542278
0.22  -0.06  49.4748393225
0.22  -0.04  45.3892675321
0.22  -0.02  42.6901968919
0.22  6.17561557e-16  41.7412913989
0.22  0.02  42.6901968919
0.22  0.04  45.3892675321
0.22  0.06  49.4748393225
0.22  0.08  54.5206542278
0.22  0.1  60.1436012586
0.22  0.12  66.037335736
0.22  0.14  71.9667603394
0.22  0.16  77.7518476192
0.22  0.18  83.2527059878
0.22  0.2  181.209321898
0.22  0.22  148.169607034
0.22  0.24  121.153990416
0.22  0.26  99.064104222
0.22  0.28  81.0018449382
0.22  0.3  66.2328593683
0.22  0.32  54.156688202
0.22  0.34  44.2823532757
0.22  0.36  36.2083959847
0.22  0.38  29.6065552709
0.22  0.4  24.2084215876
0.22  0.42  19.7945242329
0.22  0.44  16.1854083791
0.22  0.46  13.2343390179
0.22  0.48  10.821335189
0.22  0.5  8.84829194076
0.22  0.52  7.23499169938
0.22  0.54  5.91584288138
0.22  0.56  4.83721315122
0.22  0.58  3.95524890357
0.22  0.6  3.23409231724
0.22  0.62  2.64442349178
0.22  0.64  2.16226839494
0.22  0.66  1.76802415584
0.22  0.68  1.44566207551
0.22  0.7  1.18207595166
0.22  0.72  0.966549222783
0.22  0.74  0.790319267345
0.22  0.76  0.646221143853
0.22  0.78  0.528396287447
0.22  0.8  0.432054319552
0.22  0.82  0.35327828654
0.22  0.84  0.288865409031
0.22  0.86  0.236196867211
0.22  0.88  0.193131328072
0.22  0.9  0.157917885717
0.22  0.92  0.129124875173
0.22  0.94  0.105581665514
0.22  0.96  0.0863310657828
0.22  0.98  0.0705904086934
0.24  -1  0.0664721565716
0.24  -0.98  0.0812945020141
0.24  -0.96  0.0994220196633
0.24  -0.94  0.12159171591
0.24  -0.92  0.148704939086
0.24  -0.9  0.181864025384
0.24  -0.88  0.222417116285
0.24  -0.86  0.272012969645
0.24  -0.84  0.332667992874
0.24  -0.82  0.406848223551
0.24  -0.8  0.497569590559
0.24  -0.78  0.608520532026
0.24  -0.76  0.744211955319
0.24  -0.74  0.910160635987
0.24  -0.72  1.11311351206
0.24  -0.7  1.36132199277
0.24  -0.68  1.66487743427
0.24  -0.66  2.03612142157
0.24  -0.64  2.49014753762
0.24  -0.62  3.04541501966
0.24  -0.6  3.72449925229
0.24  -0.58  4.55500960979
0.24  -0.56  5.57071196417
0.24  -0.54  6.81290149663
0.24  -0.52  8.33208162644
0.24  -0.5  10.190017317
0.24  -0.48  12.46224624
0.24  -0.46  15.2411498936
0.24  -0.44  18.639709536
0.24  -0.42  22.7960996388
0.24  -0.4  27.8793056158
0.24  -0.38  34.0959942242
0.24  -0.36  41.6989159687
0.24  -0.34  50.9971811212
0.24  -0.32  62.3688271481
0.24  -0.3  76.2761884932
0.24  -0.28  93.2846936057
0.24  -0.26  114.085853436
0.24  -0.24  139.525376042
0.24  -0.22  170.637550347
0.24  -0.2  88.7711080826
0.24  -0.18  84.2646750382
0.24  -0.16  79.4504048752
0.24  -0.14  74.4417663574
0.24  -0.12  69.3784494307
0.24  -0.1  64.4325767409
0.24  -0.08  59.8145525373
0.24  -0.06  55.7745709551
0.24  -0.04  52.591759435
0.24  -0.02  50.5403828347
0.24  6.17561557e-16  49.8300331346
0.24  0.02  50.5403828347
0.24  0.04  52.591759435
0.24  0.06  55.7745709551
0.24  0.08  59.8145525373
0.24  0.1  64.4325767409
0.24  0.12  69.3784494307
0.24  0.14  74.4417663574
0.24  0.16  79.4504048752
0.24  0.18  84.2646750382
0.24  0.2  208.687296995
0.24  0.22  170.637550347
0.24  0.24  139.525376042
0.24  0.26  114.085853436
0.24  0.28  93.2846936057
0.24  0.3  76.2761884932
0.24  0.32  62.3688271481
0.24  0.34  50.9971811212
0.24  0.36  41.6989159687
0.24  0.38  34.0959942242
0.24  0.4  27.8793056158
0.24  0.42  22.7960996388
0.24  0.44  18.639709536
0.24  0.46  15.2411498936
0.24  0.48  12.46224624
0.24  0.5  10.190017317
0.24  0.52  8.33208162644
0.24  0.54  6.81290149663
0.24  0.56  5.57071196417
0.24  0.58  4.55500960979
0.24  0.6  3.72449925229
0.24  0.62  3.04541501966
0.24  0.64  2.49014753762
0.24  0.66  2.03612142157
0.24  0.68  1.66487743427
0.24  0.7  1.36132199277
0.24  0.72  1.11311351206
0.24  0.74  0.910160635987
0.24  0.76  0.744211955319
0.24  0.78  0.608520532026
0.24  0.8  0.497569590559
0.24  0.82  0.406848223551
0.24  0.84  0.332667992874
0.24  0.86  0.272012969645
0.24  0.88  0.222417116285
0.24  0.9  0.181864025384
0.24  0.92  0.148704939086
0.24  0.94  0.12159171591
0.24  0.96  0.0994220196633
0.24  0.98  0.0812945020141
0.26  -1  0.073524519081
0.26  -0.98  0.0899194410531
0.26  -0.96  0.10997019743
0.26  -0.94  0.134491987286
0.26  -0.92  0.164481787491
0.26  -0.9  0.20115888658
0.26  -0.88  0.246014457085
0.26  -0.86  0.300872181805
0.26  -0.84  0.367962398864
0.26  -0.82  0.450012780063
0.26  -0.8  0.550359229218
0.26  -0.78  0.673081509247
0.26  -0.76  0.823169112172
0.26  -0.74  1.00672411576
0.26  -0.72  1.23120927434
0.26  -0.7  1.5057514303
0.26  -0.68  1.84151258206
0.26  -0.66  2.25214369493
0.26  -0.64  2.75433970533
0.26  -0.62  3.36851828301
0.26  -0.6  4.11964994768
0.26  -0.58  5.03827328979
0.26  -0.56  6.16173657106
0.26  -0.54  7.53571618436
0.26  -0.52  9.21607370851
0.26  -0.5  11.2711270598
0.26  -0.48  13.7844280782
0.26  -0.46  16.8581594756
0.26  -0.44  20.617289255
0.26  -0.42  25.2146515069
0.26  -0.4  30.83716015
0.26  -0.38  37.7134082482
0.26  -0.36  46.1229618674
0.26  -0.34  56.4077263295
0.26  -0.32  68.9858469804
0.26  -0.3  84.3687096304
0.26  -0.28  103.181731852
0.26  -0.26  126.18979044
0.26  -0.24  154.328318835
0.26  -0.22  188.741338832
0.26  -0.2  89.144129503
0.26  -0.18  85.1734297309
0.26  -0.16  80.9623316372
0.26  -0.14  76.6205649858
0.26  -0.12  72.2794668982
0.26  -0.1  68.0945439422
0.26  -0.08  64.2460680443
0.26  -0.06  60.9347733667
0.26  -0.04  58.3685642923
0.26  -0.02  56.7370828157
0.26  6.17561557e-16  56.1765891146
0.26  0.02  56.7370828157
0.26  0.04  58.3685642923
0.26  0.06  60.9347733667
0.26  0.08  64.2460680443
0.26  0.1  68.0945439422
0.26  0.12  72.2794668982
0.26  0.14  76.6205649858
0.26  0.16  80.9623316372
0.26  0.18  85.1734297309
0.26  0.2  230.827972812
0.26  0.22  188.741338832
0.26  0.24  154.328318835
0.26  0.26  126.18979044
0.26  0.28  103.181731852
0.26  0.3  84.3687096304
0.26  0.32  68.9858469804
0.26  0.34  56.4077263295
0.26  0.36  46.1229618674
0.26  0.38  37.7134082482
0.26  0.4  30.83716015
0.26  0.42  25.2146515069
0.26  0.44  20.617289255
0.26  0.46  16.8581594756
0.26  0.48  13.7844280782
0.26  0.5  11.2711270598
0.26  0.52  9.21607370851
0.26  0.54  7.53571618436
0.26  0.56  6.16173657106
0.26  0.58  5.03827328979
0.26  0.6  4.11964994768
0.26  0.62  3.36851828301
0.26  0.64  2.75433970533
0.26  0.66  2.25214369493
0.26  0.68  1.84151258206
0.26  0.7  1.5057514303
0.26  0.72  1.23120927434
0.26  0.74  1.00672411576
0.26  0.76  0.823169112172
0.26  0.78  0.673081509247
0.26  0.8  0.550359229218
0.26  0.82  0.450012780063
0.26  0.84  0.367962398864
0.26  0.86  0.300872181805
0.26  0.88  0.246014457085
0.26  0.9  0.20115888658
0.26  0.92  0.164481787491
0.26  0.94  0.134491987286
0.26  0.96  0.10997019743
0.26  0.98  0.0899194410531
0.28  -1  0.0784641371856
0.28  -0.98  0.095960523736
0.28  -0.96  0.117358355626
0.28  -0.94  0.143527599673
0.28  -0.92  0.175532212921
0.28  -0.9  0.214673399704
0.28  -0.88  0.26254251441
0.28  -0.86  0.321085760826
0.28  -0.84  0.392683318497
0.28  -0.82  0.480246113153
0.28  -0.8  0.587334165561
0.28  -0.78  0.718301330479
0.28  -0.76  0.878472310349
0.28  -0.74  1.07435914052
0.28  -0.72  1.31392594761
0.28  -0.7  1.60691274518
0.28  -0.68  1.96523143128
0.28  -0.66  2.4034500878
0.28  -0.64  2.93938527169
0.28  -0.62  3.59482637865
0.28  -0.6  4.39642152974
0.28  -0.58  5.37676099796
0.28  -0.56  6.57570222364
0.28  -0.54  8.04199028939
0.28  -0.52  9.83523973793
0.28  -0.5  12.028358307
0.28  -0.48  14.710511123
0.28  -0.46  17.9907458671
0.28  -0.44  22.0024263024
0.28  -0.42  26.9086544143
0.28  -0.4  32.9089016109
0.28  -0.38  40.2471185873
0.28  -0.36  49.2216535736
0.28  -0.34  60.1973822117
0.28  -0.32  73.6205422218
0.28  -0.3  90.0368759886
0.28  -0.28  110.113818686
0.28  -0.26  134.667634039
0.28  -0.24  164.696600972
0.28  -0.22  201.421600411
0.28  -0.2  89.4267401379
0.28  -0.18  85.8580251039
0.28  -0.16  82.0933919191
0.28  -0.14  78.236759847
0.28  -0.12  74.4097880932
0.28  -0.1  70.7524217885
0.28  -0.08  67.4211915564
0.28  -0.06  64.5833063619
0.28  -0.04  62.4044396196
0.28  -0.02  61.0294730572
0.28  6.17561557e-16  60.5590674649
0.28  0.02  61.0294730572
0.28  0.04  62.4044396196
0.28  0.06  64.5833063619
0.28  0.08  67.4211915564
0.28  0.1  70.7524217885
0.28  0.12  74.4097880932
0.28  0.14  78.236759847
0.28  0.16  82.0933919191
0.28  0.18  85.8580251039
0.28  0.2  246.335752364
0.28  0.22  201.421600411
0.28  0.24  164.696600972
0.28  0.26  134.667634039
0.28  0.28  110.113818686
0.28  0.3  90.0368759886
0.28  0.32  73.6205422218
0.28  0.34  60.1973822117
0.28  0.36  49.2216535736
0.28  0.38  40.2471185873
0.28  0.4  32.9089016109
0.28  0.42  26.9086544143
0.28  0.44  22.0024263024
0.28  0.46  17.9907458671
0.28  0.48  14.710511123
0.28  0.5  12.028358307
0.28  0.52  9.83523973793
0.28  0.54  8.04199028939
0.28  0.56  6.57570222364
0.28  0.58  5.37676099796
0.28  0.6  4.39642152974
0.28  0.62  3.59482637865
0.28  0.64  2.93938527169
0.28  0.66  2.4034500878
0.28  0.68  1.96523143128
0.28  0.7  1.60691274518
0.28  0.72  1.31392594761
0.28  0.74  1.07435914052
0.28  0.76  0.878472310349
0.28  0.78  0.718301330479
0.28  0.8  0.587334165561
0.28  0.82  0.480246113153
0.28  0.84  0.392683318497
0.28  0.86  0.321085760826
0.28  0.88  0.26254251441
0.28  0.9  0.214673399704
0.28  0.92  0.175532212921
0.28  0.94  0.143527599673
0.28  0.96  0.117358355626
0.28  0.98  0.095960523736
0.3  -1  0.0875234188237
0.3  -0.98  0.107039896324
0.3  -0.96  0.130908270712
0.3  -0.94  0.160098953095
0.3  -0.92  0.195798742452
0.3  -0.9  0.239459077058
0.3  -0.88  0.292855045273
0.3  -0.86  0.358157554917
0.3  -0.84  0.438021595376
0.3  -0.82  0.535694180904
0.3  -0.8  0.655146363749
0.3  -0.78  0.80123468433
0.3  -0.76  0.979898622499
0.3  -0.74  1.19840207764
0.3  -0.72  1.46562869536
0.3  -0.7  1.79244304792
0.3  -0.68  2.19213235263
0.3  -0.66  2.68094668726
0.3  -0.64  3.27875966583
0.3  -0.62  4.00987643556
0.3  -0.6  4.90402184584
0.3  -0.58  5.99754896465
0.3  -0.56  7.33491707706
0.3  -0.54  8.97049925637
0.3  -0.52  10.9707929978
0.3  -0.5  13.4171237922
0.3  -0.48  16.4089515581
0.3  -0.46  20.0679143614
0.3  -0.44  24.5427738261
0.3  -0.42  30.0154633028
0.3  -0.4  36.7084846916
0.3  -0.38  44.8939546513
0.3  -0.36  54.9046679851
0.3  -0.34  67.1476280041
0.3  -0.32  82.1205939685
0.3  -0.3  100.432318373
0.3  -0.28  122.827296862
0.3  -0.26  150.216037017
0.3  -0.24  183.71207666
0.3  -0.22  224.677256709
0.3  -0.2  137.125251482
0.3  -0.18  129.061776822
0.3  -0.16  120.363796288
0.3  -0.14  111.20152904
0.3  -0.12  101.790616728
0.3  -0.1  92.4101564798
0.3  -0.08  83.4282376321
0.3  -0.06  75.3317714079
0.3  -0.04  68.7421545275
0.3  -0.02  64.3672251737
0.3  6.17561557e-16  62.8242455028
0.3  0.02  64.3672251737
0.3  0.04  68.7421545275
0.3  0.06  75.3317714079
0.3  0.08  83.4282376321
0.3  0.1  92.4101564798
0.3  0.12  101.790616728
0.3  0.14  111.20152904
0.3  0.16  120.363796288
0.3  0.18  129.061776822
0.3  0.2  274.777089237
0.3  0.22  224.677256709
0.3  0.24  183.71207666
0.3  0.26  150.216037017
0.3  0.28  122.827296862
0.3  0.3  100.432318373
0.3  0.32  82.1205939685
0.3  0.34  67.1476280041
0.3  0.36  54.9046679851
0.3  0.38  44.8939546513
0.3  0.4  36.7084846916
0.3  0.42  30.0154633028
0.3  0.44  24.5427738261
0.3  0.46  20.0679143614
0.3  0.48  16.4089515581
0.3  0.5  13.4171237922
0.3  0.52  10.9707929978
0.3  0.54  8.97049925637
0.3  0.56  7.33491707706
0.3  0.58  5.99754896465
0.3  0.6  4.90402184584
0.3  0.62  4.00987643556
0.3  0.64  3.27875966583
0.3  0.66  2.68094668726
0.3  0.68  2.19213235263
0.3  0.7  1.79244304792
0.3  0.72  1.46562869536
0.3  0.74  1.19840207764
0.3  0.76  0.979898622499
0.3  0.78  0.80123468433
0.3  0.8  0.655146363749
0.3  0.82  0.535694180904
0.3  0.84  0.438021595376
0.3  0.86  0.358157554917
0.3  0.88  0.292855045273
0.3  0.9  0.239459077058
0.3  0.92  0.195798742452
0.3  0.94  0.160098953095
0.3  0.96  0.130908270712
0.3  0.98  0.107039896324
0.32  -1  0.0748603833948
0.32  -0.98  0.0915531841081
0.32  -0.96  0.111968241949
0.32  -0.94  0.136935567313
0.32  -0.92  0.167470251108
0.32  -0.9  0.204813735076
0.32  -0.88  0.25048428481
0.32  -0.86  0.306338717536
0.32  -0.84  0.374647894309
0.32  -0.82  0.458189045901
0.32  -0.8  0.560358686042
0.32  -0.78  0.685310702715
0.32  -0.76  0.838125241839
0.32  -0.74  1.02501524962
0.32  -0.72  1.25357907088
0.32  -0.7  1.53310937329
0.32  -0.68  1.87497095721
0.32  -0.66  2.29306281184
0.32  -0.64  2.80438320328
0.32  -0.62  3.42972076921
0.32  -0.6  4.19449971779
0.32  -0.58  5.12981349399
0.32  -0.56  6.27368893877
0.32  -0.54  7.67263233771
0.32  -0.52  9.38352021662
0.32  -0.5  11.4759117575
0.32  -0.48  14.0348768508
0.32  -0.46  17.1644547621
0.32  -0.44  20.9918840338
0.32  -0.42  25.6727755933
