-0.08  -0.54  7.30107666769
-0.08  -0.52  8.76971665713
-0.08  -0.5  10.5337792968
-0.08  -0.48  12.6526900026
-0.08  -0.46  15.1978278442
-0.08  -0.44  18.2549300691
-0.08  -0.42  21.9269803055
-0.08  -0.4  26.3376777396
-0.08  -0.38  31.6356041301
-0.08  -0.36  37.9992290351
-0.08  -0.34  45.6429218586
-0.08  -0.32  54.8241732448
-0.08  -0.3  65.8522690832
-0.08  -0.28  79.0987093238
-0.08  -0.26  95.0097225775
-0.08  -0.24  114.121298077
-0.08  -0.22  137.077241376
-0.08  -0.2  94.5472595597
-0.08  -0.18  89.6414860478
-0.08  -0.16  84.1654950475
-0.08  -0.14  78.2478599318
-0.08  -0.12  72.0521188773
-0.08  -0.1  65.7888483331
-0.08  -0.08  59.7323429812
-0.08  -0.06  54.2390229915
-0.08  -0.04  49.7541773553
-0.08  -0.02  46.7739783419
-0.08  6.17561557e-16  45.7229881887
-0.08  0.02  46.7739783419
-0.08  0.04  49.7541773553
-0.08  0.06  54.2390229915
-0.08  0.08  59.7323429812
-0.08  0.1  65.7888483331
-0.08  0.12  72.0521188773
-0.08  0.14  78.2478599318
-0.08  0.16  84.1654950475
-0.08  0.18  89.6414860478
-0.08  0.2  164.650862019
-0.08  0.22  137.077241376
-0.08  0.24  114.121298077
-0.08  0.26  95.0097225775
-0.08  0.28  79.0987093238
-0.08  0.3  65.8522690832
-0.08  0.32  54.8241732448
-0.08  0.34  45.6429218586
-0.08  0.36  37.9992290351
-0.08  0.38  31.6356041301
-0.08  0.4  26.3376777396
-0.08  0.42  21.9269803055
-0.08  0.44  18.2549300691
-0.08  0.46  15.1978278442
-0.08  0.48  12.6526900026
-0.08  0.5  10.5337792968
-0.08  0.52  8.76971665713
-0.08  0.54  7.30107666769
-0.08  0.56  6.07838572119
-0.08  0.58  5.06045541735
-0.08  0.6  4.21299506245
-0.08  0.62  3.50745652957
-0.08  0.64  2.92007256702
-0.08  0.66  2.43105615843
-0.08  0.68  2.02393396391
-0.08  0.7  1.68499138781
-0.08  0.72  1.40281057961
-0.08  0.74  1.16788580435
-0.08  0.76  0.972303225979
-0.08  0.78  0.809474316522
-0.08  0.8  0.673913910394
-0.08  0.82  0.561055427397
-0.08  0.84  0.467097039779
-0.08  0.86  0.388873601282
-0.08  0.88  0.323750023861
-0.08  0.9  0.269532510319
-0.08  0.92  0.224394652554
-0.08  0.94  0.186815905938
-0.08  0.96  0.155530367208
-0.08  0.98  0.129484130393
-0.06  -1  0.121664090224
-0.06  -0.98  0.146137295522
-0.06  -0.96  0.175533381321
-0.06  -0.94  0.210842604196
-0.06  -0.92  0.253254414686
-0.06  -0.9  0.304197525933
-0.06  -0.88  0.365388042293
-0.06  -0.86  0.438887269187
-0.06  -0.84  0.52717115165
-0.06  -0.82  0.633213680694
-0.06  -0.8  0.760587077201
-0.06  -0.78  0.913582128187
-0.06  -0.76  1.09735272918
-0.06  -0.74  1.31808950184
-0.06  -0.72  1.58322833549
-0.06  -0.7  1.90170087751
-0.06  -0.68  2.28423541095
-0.06  -0.66  2.74371825471
-0.06  -0.64  3.29562786093
-0.06  -0.62  3.95855623261
-0.06  -0.6  4.75483522656
-0.06  -0.58  5.71128883946
-0.06  -0.56  6.86013681937
-0.06  -0.54  8.24008004206
-0.06  -0.52  9.8976042151
-0.06  -0.5  11.8885458271
-0.06  -0.48  14.2799730936
-0.06  -0.46  17.1524452628
-0.06  -0.44  20.6027263892
-0.06  -0.42  24.7470449937
-0.06  -0.4  29.7250094163
-0.06  -0.38  35.704310758
-0.06  -0.36  42.8863718376
-0.06  -0.34  51.5131324579
-0.06  -0.32  61.8751995546
-0.06  -0.3  74.3216367797
-0.06  -0.28  89.2717232974
-0.06  -0.26  107.229077908
-0.06  -0.24  128.798624293
-0.06  -0.22  154.706968888
-0.06  -0.2  106.707136767
-0.06  -0.18  101.170423725
-0.06  -0.16  94.9901565942
-0.06  -0.14  88.3114447778
-0.06  -0.12  81.3188593643
-0.06  -0.1  74.2500593835
-0.06  -0.08  67.4146170033
-0.06  -0.06  61.2147921732
-0.06  -0.04  56.1531432273
-0.06  -0.02  52.7896559597
-0.06  6.17561557e-16  51.6034962493
-0.06  0.02  52.7896559597
-0.06  0.04  56.1531432273
-0.06  0.06  61.2147921732
-0.06  0.08  67.4146170033
-0.06  0.1  74.2500593835
-0.06  0.12  81.3188593643
-0.06  0.14  88.3114447778
-0.06  0.16  94.9901565942
-0.06  0.18  101.170423725
-0.06  0.2  185.826877841
-0.06  0.22  154.706968888
-0.06  0.24  128.798624293
-0.06  0.26  107.229077908
-0.06  0.28  89.2717232974
-0.06  0.3  74.3216367797
-0.06  0.32  61.8751995546
-0.06  0.34  51.5131324579
-0.06  0.36  42.8863718376
-0.06  0.38  35.704310758
-0.06  0.4  29.7250094163
-0.06  0.42  24.7470449937
-0.06  0.44  20.6027263892
-0.06  0.46  17.1524452628
-0.06  0.48  14.2799730936
-0.06  0.5  11.8885458271
-0.06  0.52  9.8976042151
-0.06  0.54  8.24008004206
-0.06  0.56  6.86013681937
-0.06  0.58  5.71128883946
-0.06  0.6  4.75483522656
-0.06  0.62  3.95855623261
-0.06  0.64  3.29562786093
-0.06  0.66  2.74371825471
-0.06  0.68  2.28423541095
-0.06  0.7  1.90170087751
-0.06  0.72  1.58322833549
-0.06  0.74  1.31808950184
-0.06  0.76  1.09735272918
-0.06  0.78  0.913582128187
-0.06  0.8  0.760587077201
-0.06  0.82  0.633213680694
-0.06  0.84  0.52717115165
-0.06  0.86  0.438887269187
-0.06  0.88  0.365388042293
-0.06  0.9  0.304197525933
-0.06  0.92  0.253254414686
-0.06  0.94  0.210842604196
-0.06  0.96  0.175533381321
-0.06  0.98  0.146137295522
-0.04  -1  0.137311507237
-0.04  -0.98  0.16493225137
-0.04  -0.96  0.198109015694
-0.04  -0.94  0.237959415293
-0.04  -0.92  0.285825877881
-0.04  -0.9  0.343320865726
-0.04  -0.88  0.412381194163
-0.04  -0.86  0.495333276466
-0.04  -0.84  0.594971492996
-0.04  -0.82  0.714652324599
-0.04  -0.8  0.858407421309
-0.04  -0.78  1.03107941525
-0.04  -0.76  1.23848505287
-0.04  -0.74  1.48761114176
-0.04  -0.72  1.78684991311
-0.04  -0.7  2.14628172802
-0.04  -0.68  2.57801465151
-0.04  -0.66  3.09659233298
-0.04  -0.64  3.71948393352
-0.04  -0.62  4.46767260397
-0.04  -0.6  5.36636233762
-0.04  -0.58  6.44582700914
-0.04  -0.56  7.7424302009
-0.04  -0.54  9.29985017141
-0.04  -0.52  11.1705512309
-0.04  -0.5  13.4175510897
-0.04  -0.48  16.1165437161
-0.04  -0.46  19.3584492144
-0.04  -0.44  23.2524766221
-0.04  -0.42  27.9298027995
-0.04  -0.4  33.5479913428
-0.04  -0.38  40.2963003791
-0.04  -0.36  48.4020580443
-0.04  -0.34  58.1383204135
-0.04  -0.32  69.8330698545
-0.04  -0.3  83.8802636645
-0.04  -0.28  100.753105185
-0.04  -0.26  121.019984451
-0.04  -0.24  145.363625365
-0.04  -0.22  174.604084401
-0.04  -0.2  120.430915609
-0.04  -0.18  114.182116875
-0.04  -0.16  107.206995512
-0.04  -0.14  99.6693236792
-0.04  -0.12  91.7774104545
-0.04  -0.1  83.7994805827
-0.04  -0.08  76.0849208131
-0.04  -0.06  69.087726403
-0.04  -0.04  63.3750905334
-0.04  -0.02  59.5790196842
-0.04  6.17561557e-16  58.2403060394
-0.04  0.02  59.5790196842
-0.04  0.04  63.3750905334
-0.04  0.06  69.087726403
-0.04  0.08  76.0849208131
-0.04  0.1  83.7994805827
-0.04  0.12  91.7774104545
-0.04  0.14  99.6693236792
-0.04  0.16  107.206995512
-0.04  0.18  114.182116875
-0.04  0.2  209.726375583
-0.04  0.22  174.604084401
-0.04  0.24  145.363625365
-0.04  0.26  121.019984451
-0.04  0.28  100.753105185
-0.04  0.3  83.8802636645
-0.04  0.32  69.8330698545
-0.04  0.34  58.1383204135
-0.04  0.36  48.4020580443
-0.04  0.38  40.2963003791
-0.04  0.4  33.5479913428
-0.04  0.42  27.9298027995
-0.04  0.44  23.2524766221
-0.04  0.46  19.3584492144
-0.04  0.48  16.1165437161
-0.04  0.5  13.4175510897
-0.04  0.52  11.1705512309
-0.04  0.54  9.29985017141
-0.04  0.56  7.7424302009
-0.04  0.58  6.44582700914
-0.04  0.6  5.36636233762
-0.04  0.62  4.46767260397
-0.04  0.64  3.71948393352
-0.04  0.66  3.09659233298
-0.04  0.68  2.57801465151
-0.04  0.7  2.14628172802
-0.04  0.72  1.78684991311
-0.04  0.74  1.48761114176
-0.04  0.76  1.23848505287
-0.04  0.78  1.03107941525
-0.04  0.8  0.858407421309
-0.04  0.82  0.714652324599
-0.04  0.84  0.594971492996
-0.04  0.86  0.495333276466
-0.04  0.88  0.412381194163
-0.04  0.9  0.343320865726
-0.04  0.92  0.285825877881
-0.04  0.94  0.237959415293
-0.04  0.96  0.198109015694
-0.04  0.98  0.16493225137
-0.02  -1  0.154971364064
-0.02  -0.98  0.186144457135
-0.02  -0.96  0.223588139211
-0.02  -0.94  0.268563763678
-0.02  -0.92  0.322586410063
-0.02  -0.9  0.387475922039
-0.02  -0.88  0.465418211917
-0.02  -0.86  0.559038896775
-0.02  -0.84  0.671491746789
-0.02  -0.82  0.806564925279
-0.02  -0.8  0.968808599364
-0.02  -0.78  1.16368821999
-0.02  -0.76  1.39776863482
-0.02  -0.74  1.6789352362
-0.02  -0.72  2.01665959382
-0.02  -0.7  2.4223185205
-0.02  -0.68  2.9095773192
-0.02  -0.66  3.4948501218
-0.02  -0.64  4.19785282669
-0.02  -0.62  5.04226726194
-0.02  -0.6  6.05653894752
-0.02  -0.58  7.27483533047
-0.02  -0.56  8.73819677278
-0.02  -0.54  10.495919065
-0.02  -0.52  12.6072140378
-0.02  -0.5  15.1432042122
-0.02  -0.48  18.1893186808
-0.02  -0.46  21.8481709311
-0.02  -0.44  26.2430155528
-0.02  -0.42  31.521900276
-0.02  -0.4  37.8626532081
-0.02  -0.38  45.4788732725
-0.02  -0.36  54.6271256471
-0.02  -0.34  65.6155845942
-0.02  -0.32  78.8144148286
-0.02  -0.3  94.668241138
-0.02  -0.28  113.711126317
-0.02  -0.26  136.584561969
-0.02  -0.24  164.059078233
-0.02  -0.22  197.060200381
-0.02  -0.2  135.919732024
-0.02  -0.18  128.867265096
-0.02  -0.16  120.995062001
-0.02  -0.14  112.487957905
-0.02  -0.12  103.581052853
-0.02  -0.1  94.5770684124
-0.02  -0.08  85.8703265325
-0.02  -0.06  77.9732115406
-0.02  -0.04  71.5258642576
-0.02  -0.02  67.2415745471
-0.02  6.17561557e-16  65.7306867578
-0.02  0.02  67.2415745471
-0.02  0.04  71.5258642576
-0.02  0.06  77.9732115406
-0.02  0.08  85.8703265325
-0.02  0.1  94.5770684124
-0.02  0.12  103.581052853
-0.02  0.14  112.487957905
-0.02  0.16  120.995062001
-0.02  0.18  128.867265096
-0.02  0.2  236.699626698
-0.02  0.22  197.060200381
-0.02  0.24  164.059078233
-0.02  0.26  136.584561969
-0.02  0.28  113.711126317
-0.02  0.3  94.668241138
-0.02  0.32  78.8144148286
-0.02  0.34  65.6155845942
-0.02  0.36  54.6271256471
-0.02  0.38  45.4788732725
-0.02  0.4  37.8626532081
-0.02  0.42  31.521900276
-0.02  0.44  26.2430155528
-0.02  0.46  21.8481709311
-0.02  0.48  18.1893186808
-0.02  0.5  15.1432042122
-0.02  0.52  12.6072140378
-0.02  0.54  10.495919065
-0.02  0.56  8.73819677278
-0.02  0.58  7.27483533047
-0.02  0.6  6.05653894752
-0.02  0.62  5.04226726194
-0.02  0.64  4.19785282669
-0.02  0.66  3.4948501218
-0.02  0.68  2.9095773192
-0.02  0.7  2.4223185205
-0.02  0.72  2.01665959382
-0.02  0.74  1.6789352362
-0.02  0.76  1.39776863482
-0.02  0.78  1.16368821999
-0.02  0.8  0.968808599364
-0.02  0.82  0.806564925279
-0.02  0.84  0.671491746789
-0.02  0.86  0.559038896775
-0.02  0.88  0.465418211917
-0.02  0.9  0.387475922039
-0.02  0.92  0.322586410063
-0.02  0.94  0.268563763678
-0.02  0.96  0.223588139211
-0.02  0.98  0.186144457135
2.8449465e-16  -1  0.154277352832
2.8449465e-16  -0.98  0.185310842842
2.8449465e-16  -0.96  0.222586840159
2.8449465e-16  -0.94  0.267361049424
2.8449465e-16  -0.92  0.321141765156
2.8449465e-16  -0.9  0.385740681186
2.8449465e-16  -0.88  0.463333920611
2.8449465e-16  -0.86  0.556535342161
2.8449465e-16  -0.84  0.66848459242
2.8449465e-16  -0.82  0.802952870105
2.8449465e-16  -0.8  0.964469965232
2.8449465e-16  -0.78  1.15847685271
2.8449465e-16  -0.76  1.39150898073
2.8449465e-16  -0.74  1.67141642833
2.8449465e-16  -0.72  2.00762834849
2.8449465e-16  -0.7  2.41147060501
2.8449465e-16  -0.68  2.89654730329
2.8449465e-16  -0.66  3.47919906747
2.8449465e-16  -0.64  4.17905350186
2.8449465e-16  -0.62  5.01968637975
2.8449465e-16  -0.6  6.02941583298
2.8449465e-16  -0.58  7.24225629588
2.8449465e-16  -0.56  8.69906433858
2.8449465e-16  -0.54  10.4489149893
2.8449465e-16  -0.52  12.5507549094
2.8449465e-16  -0.5  15.0753881103
2.8449465e-16  -0.48  18.1078611061
2.8449465e-16  -0.46  21.7503278482
2.8449465e-16  -0.44  26.1254909529
2.8449465e-16  -0.42  31.3807351454
2.8449465e-16  -0.4  37.6930921621
2.8449465e-16  -0.38  45.275204362
2.8449465e-16  -0.36  54.3824879425
2.8449465e-16  -0.34  65.3217370632
2.8449465e-16  -0.32  78.4614587231
2.8449465e-16  -0.3  94.244286538
2.8449465e-16  -0.28  113.201891599
2.8449465e-16  -0.26  135.972892706
2.8449465e-16  -0.24  163.324369316
2.8449465e-16  -0.22  196.177701906
2.8449465e-16  -0.2  87.7094334537
2.8449465e-16  -0.18  86.046798148
2.8449465e-16  -0.16  84.2600446236
2.8449465e-16  -0.14  82.4164631664
2.8449465e-16  -0.12  80.5899862262
2.8449465e-16  -0.1  78.8588754347
2.8449465e-16  -0.08  77.302434958
2.8449465e-16  -0.06  75.9966917556
2.8449465e-16  -0.04  75.0092185941
2.8449465e-16  -0.02  74.3936063214
2.8449465e-16  6.17561557e-16  74.1844175531
2.8449465e-16  0.02  74.3936063214
2.8449465e-16  0.04  75.0092185941
2.8449465e-16  0.06  75.9966917556
2.8449465e-16  0.08  77.302434958
2.8449465e-16  0.1  78.8588754347
2.8449465e-16  0.12  80.5899862262
2.8449465e-16  0.14  82.4164631664
2.8449465e-16  0.16  84.2600446236
2.8449465e-16  0.18  86.046798148
2.8449465e-16  0.2  235.63961022
2.8449465e-16  0.22  196.177701906
2.8449465e-16  0.24  163.324369316
2.8449465e-16  0.26  135.972892706
2.8449465e-16  0.28  113.201891599
2.8449465e-16  0.3  94.244286538
2.8449465e-16  0.32  78.4614587231
2.8449465e-16  0.34  65.3217370632
2.8449465e-16  0.36  54.3824879425
2.8449465e-16  0.38  45.275204362
2.8449465e-16  0.4  37.6930921621
2.8449465e-16  0.42  31.3807351454
2.8449465e-16  0.44  26.1254909529
2.8449465e-16  0.46  21.7503278482
2.8449465e-16  0.48  18.1078611061
2.8449465e-16  0.5  15.0753881103
2.8449465e-16  0.52  12.5507549094
2.8449465e-16  0.54  10.4489149893
2.8449465e-16  0.56  8.69906433858
2.8449465e-16  0.58  7.24225629588
2.8449465e-16  0.6  6.02941583298
2.8449465e-16  0.62  5.01968637975
2.8449465e-16  0.64  4.17905350186
2.8449465e-16  0.66  3.47919906747
2.8449465e-16  0.68  2.89654730329
2.8449465e-16  0.7  2.41147060501
2.8449465e-16  0.72  2.00762834849
2.8449465e-16  0.74  1.67141642833
2.8449465e-16  0.76  1.39150898073
2.8449465e-16  0.78  1.15847685271
2.8449465e-16  0.8  0.964469965232
2.8449465e-16  0.82  0.802952870105
2.8449465e-16  0.84  0.66848459242
2.8449465e-16  0.86  0.556535342161
2.8449465e-16  0.88  0.463333920611
2.8449465e-16  0.9  0.385740681186
2.8449465e-16  0.92  0.321141765156
2.8449465e-16  0.94  0.267361049424
2.8449465e-16  0.96  0.222586840159
2.8449465e-16  0.98  0.185310842842
0.02  -1  0.145542620983
0.02  -0.98  0.174819085684
0.02  -0.96  0.209984625211
0.02  -0.94  0.252223849889
0.02  -0.92  0.302959659016
0.02  -0.9  0.363901173626
0.02  -0.88  0.437101311101
0.02  -0.86  0.525025941143
0.02  -0.84  0.630636952745
0.02  -0.82  0.757492030396
0.02  -0.8  0.90986450067
0.02  -0.78  1.09288728641
0.02  -0.76  1.31272581788
0.02  -0.74  1.57678572563
0.02  -0.72  1.89396231161
0.02  -0.7  2.27494020239
0.02  -0.68  2.73255327877
0.02  -0.66  3.28221700662
0.02  -0.64  3.94244773276
0.02  -0.62  4.73548643926
0.02  -0.6  5.68804796828
0.02  -0.58  6.8322209565
0.02  -0.56  8.20654879471
0.02  -0.54  9.85732802684
0.02  -0.52  11.8401679268
0.02  -0.5  14.2218637903
0.02  -0.48  17.082647047
0.02  -0.46  20.5188879907
0.02  -0.44  24.646342175
0.02  -0.42  29.6040498336
0.02  -0.4  35.5590196845
0.02  -0.38  42.7118548991
0.02  -0.36  51.303510758
0.02  -0.34  61.6234116338
0.02  -0.32  74.0192007386
0.02  -0.3  88.9084510696
0.02  -0.28  106.792732058
0.02  -0.26  128.274505777
0.02  -0.24  154.077421892
0.02  -0.22  185.070695016
0.02  -0.2  87.5549592675
0.02  -0.18  85.3710744402
0.02  -0.16  83.0086403567
0.02  -0.14  80.5527518349
0.02  -0.12  78.0995956304
0.02  -0.1  75.7543388299
0.02  -0.08  73.6273693222
0.02  -0.06  71.8284190021
0.02  -0.04  70.4584614438
0.02  -0.02  69.60002256
0.02  6.17561557e-16  69.3075266379
0.02  0.02  69.60002256
0.02  0.04  70.4584614438
0.02  0.06  71.8284190021
0.02  0.08  73.6273693222
0.02  0.1  75.7543388299
0.02  0.12  78.0995956304
0.02  0.14  80.5527518349
0.02  0.16  83.0086403567
0.02  0.18  85.3710744402
0.02  0.2  222.298385662
0.02  0.22  185.070695016
0.02  0.24  154.077421892
0.02  0.26  128.274505777
0.02  0.28  106.792732058
0.02  0.3  88.9084510696
0.02  0.32  74.0192007386
0.02  0.34  61.6234116338
0.02  0.36  51.303510758
0.02  0.38  42.7118548991
0.02  0.4  35.5590196845
0.02  0.42  29.6040498336
0.02  0.44  24.646342175
0.02  0.46  20.5188879907
0.02  0.48  17.082647047
0.02  0.5  14.2218637903
0.02  0.52  11.8401679268
0.02  0.54  9.85732802684
0.02  0.56  8.20654879471
0.02  0.58  6.8322209565
0.02  0.6  5.68804796828
0.02  0.62  4.73548643926
0.02  0.64  3.94244773276
0.02  0.66  3.28221700662
0.02  0.68  2.73255327877
0.02  0.7  2.27494020239
0.02  0.72  1.89396231161
0.02  0.74  1.57678572563
0.02  0.76  1.31272581788
0.02  0.78  1.09288728641
0.02  0.8  0.90986450067
0.02  0.82  0.757492030396
0.02  0.84  0.630636952745
0.02  0.86  0.525025941143
0.02  0.88  0.437101311101
0.02  0.9  0.363901173626
0.02  0.92  0.302959659016
0.02  0.94  0.252223849889
0.02  0.96  0.209984625211
0.02  0.98  0.174819085684
0.04  -1  0.132751836862
0.04  -0.98  0.159455385552
0.04  -0.96  0.191530456998
0.04  -0.94  0.230057553911
0.04  -0.92  0.276334526325
0.04  -0.9  0.331920291863
0.04  -0.88  0.398687350493
0.04  -0.86  0.478884862841
0.04  -0.84  0.575214416949
0.04  -0.82  0.690921035805
0.04  -0.8  0.829902491406
0.04  -0.78  0.996840607753
0.04  -0.76  1.19735897597
0.04  -0.74  1.43821239443
0.04  -0.72  1.72751441547
0.04  -0.7  2.07501066409
0.04  -0.68  2.49240713566
0.04  -0.66  2.99376453211
0.04  -0.64  3.59597192027
0.04  -0.62  4.3193156685
0.04  -0.6  5.18816282715
0.04  -0.58  6.23178197353
0.04  -0.56  7.48532917326
0.04  -0.54  8.99103227135
0.04  -0.52  10.7996134082
0.04  -0.5  12.9719976802
0.04  -0.48  15.5813655041
0.04  -0.46  18.715617822
0.04  -0.44  22.4803371931
0.04  -0.42  27.0023445189
0.04  -0.4  32.4339712192
0.04  -0.38  38.9581907715
0.04  -0.36  46.7947824809
0.04  -0.34  56.2077351146
0.04  -0.32  67.5141398083
0.04  -0.3  81.0948718137
0.04  -0.28  97.4074209218
0.04  -0.26  117.001302776
0.04  -0.24  140.536570229
0.04  -0.22  168.806048336
0.04  -0.2  87.3445559465
0.04  -0.18  84.4439441971
0.04  -0.16  81.2768123727
0.04  -0.14  77.9481333694
0.04  -0.12  74.581379244
0.04  -0.1  71.3182182942
0.04  -0.08  68.3158718545
0.04  -0.06  65.7404011414
0.04  -0.04  63.7542433828
0.04  -0.02  62.4977092891
0.04  6.17561557e-16  62.067338244
0.04  0.02  62.4977092891
0.04  0.04  63.7542433828
0.04  0.06  65.7404011414
0.04  0.08  68.3158718545
0.04  0.1  71.3182182942
0.04  0.12  74.581379244
0.04  0.14  77.9481333694
0.04  0.16  81.2768123727
0.04  0.18  84.4439441971
0.04  0.2  202.762041997
0.04  0.22  168.806048336
0.04  0.24  140.536570229
0.04  0.26  117.001302776
0.04  0.28  97.4074209218
0.04  0.3  81.0948718137
0.04  0.32  67.5141398083
0.04  0.34  56.2077351146
0.04  0.36  46.7947824809
0.04  0.38  38.9581907715
0.04  0.4  32.4339712192
0.04  0.42  27.0023445189
0.04  0.44  22.4803371931
0.04  0.46  18.715617822
0.04  0.48  15.5813655041
0.04  0.5  12.9719976802
0.04  0.52  10.7996134082
0.04  0.54  8.99103227135
0.04  0.56  7.48532917326
0.04  0.58  6.23178197353
0.04  0.6  5.18816282715
0.04  0.62  4.3193156685
0.04  0.64  3.59597192027
0.04  0.66  2.99376453211
0.04  0.68  2.49240713566
0.04  0.7  2.07501066409
0.04  0.72  1.72751441547
0.04  0.74  1.43821239443
0.04  0.76  1.19735897597
0.04  0.78  0.996840607753
0.04  0.8  0.829902491406
0.04  0.82  0.690921035805
0.04  0.84  0.575214416949
0.04  0.86  0.478884862841
0.04  0.88  0.398687350493
0.04  0.9  0.331920291863
0.04  0.92  0.276334526325
0.04  0.94  0.230057553911
0.04  0.96  0.191530456998
0.04  0.98  0.159455385552
0.06  -1  0.116636450043
0.06  -0.98  0.140098325949
0.06  -0.96  0.168279649514
0.06  -0.94  0.202129756003
0.06  -0.92  0.242788943165
0.06  -0.9  0.291626884082
0.06  -0.88  0.350288766904
0.06  -0.86  0.420750715784
0.06  -0.84  0.505386359937
0.06  -0.82  0.607046793336
0.06  -0.8  0.729156618603
0.06  -0.78  0.875829310506
0.06  -0.76  1.05200578527
0.06  -0.74  1.26362084367
0.06  -0.72  1.51780309472
0.06  -0.7  1.82311509492
0.06  -0.68  2.18984179231
0.06  -0.66  2.63033699227
0.06  -0.64  3.15943951624
0.06  -0.62  3.79497307231
0.06  -0.6  4.55834667685
0.06  -0.58  5.47527585319
0.06  -0.56  6.57664890228
0.06  -0.54  7.89956742704
0.06  -0.52  9.4885961622
0.06  -0.5  11.3972642124
0.06  -0.48  13.6898682699
0.06  -0.46  16.4436385569
0.06  -0.44  19.7513404557
0.06  -0.42  23.7243994658
0.06  -0.4  28.49665476
0.06  -0.38  34.2288677815
0.06  -0.36  41.1141377636
0.06  -0.34  49.3844066019
0.06  -0.32  59.3182722071
0.06  -0.3  71.250373544
0.06  -0.28  85.5826635077
0.06  -0.26  102.797949383
0.06  -0.24  123.476157018
0.06  -0.22  148.313866604
0.06  -0.2  87.1063882087
0.06  -0.18  83.3847743064
0.06  -0.16  79.276025006
0.06  -0.14  74.8985905749
0.06  -0.12  70.3981085322
0.06  -0.1  65.9519308011
0.06  -0.08  61.7723940798
0.06  -0.06  58.105014101
0.06  -0.04  55.2149421954
0.06  -0.02  53.3543339725
0.06  6.17561557e-16  52.7107334796
0.06  0.02  53.3543339725
0.06  0.04  55.2149421954
0.06  0.06  58.105014101
0.06  0.08  61.7723940798
0.06  0.1  65.9519308011
0.06  0.12  70.3981085322
0.06  0.14  74.8985905749
0.06  0.16  79.276025006
0.06  0.18  83.3847743064
0.06  0.2  178.147778149
0.06  0.22  148.313866604
0.06  0.24  123.476157018
0.06  0.26  102.797949383
0.06  0.28  85.5826635077
0.06  0.3  71.250373544
0.06  0.32  59.3182722071
0.06  0.34  49.3844066019
0.06  0.36  41.1141377636
0.06  0.38  34.2288677815
0.06  0.4  28.49665476
0.06  0.42  23.7243994658
0.06  0.44  19.7513404557
0.06  0.46  16.4436385569
0.06  0.48  13.6898682699
0.06  0.5  11.3972642124
0.06  0.52  9.4885961622
0.06  0.54  7.89956742704
0.06  0.56  6.57664890228
0.06  0.58  5.47527585319
0.06  0.6  4.55834667684
0.06  0.62  3.79497307231
0.06  0.64  3.15943951624
0.06  0.66  2.63033699227
0.06  0.68  2.18984179231
0.06  0.7  1.82311509492
0.06  0.72  1.51780309472
0.06  0.74  1.26362084367
0.06  0.76  1.05200578527
0.06  0.78  0.875829310506
0.06  0.8  0.729156618603
0.06  0.82  0.607046793336
0.06  0.84  0.505386359937
0.06  0.86  0.420750715784
0.06  0.88  0.350288766904
0.06  0.9  0.291626884082
0.06  0.92  0.242788943165
0.06  0.94  0.202129756003
0.06  0.96  0.168279649514
0.06  0.98  0.140098325949
0.08  -1  0.0983320130745
0.08  -0.98  0.118111880239
0.08  -0.96  0.141870544672
0.08  -0.94  0.17040835693
0.08  -0.92  0.204686661201
0.08  -0.9  0.245860179796
0.08  -0.88  0.295315911916
0.08  -0.86  0.354719857045
0.08  -0.84  0.426073136954
0.08  -0.82  0.511779406842
0.08  -0.8  0.614725826509
0.08  -0.78  0.738380319188
0.08  -0.76  0.886908394365
0.08  -0.74  1.06531346997
0.08  -0.72  1.27960542094
0.08  -0.7  1.53700303193
0.08  -0.68  1.84617717422
0.08  -0.66  2.21754289863
0.08  -0.64  2.66361028396
0.08  -0.62  3.19940586005
0.08  -0.6  3.84297880174
0.08  -0.58  4.6160089456
0.08  -0.56  5.54453711174
0.08  -0.54  6.65984233258
0.08  -0.52  7.99949553965
0.08  -0.5  9.60862520361
0.08  -0.48  11.5414375626
0.08  -0.46  13.8630426507
0.08  -0.44  16.6516476385
0.08  -0.42  20.0011913737
0.08  -0.4  24.0245088684
0.08  -0.38  28.8571323371
0.08  -0.36  34.6618568263
0.08  -0.34  41.63422424
0.08  -0.32  50.0091104974
0.08  -0.3  60.0686377226
0.08  -0.28  72.1516780036
0.08  -0.26  86.6652688675
0.08  -0.24  104.098325024
0.08  -0.22  125.038108281
0.08  -0.2  86.8725724039
0.08  -0.18  82.3345718402
0.08  -0.16  77.2669334683
0.08  -0.14  71.7874735227
0.08  -0.12  66.046182534
0.08  -0.1  60.2365569231
0.08  -0.08  54.6114830936
0.08  -0.06  49.5012654583
0.08  -0.04  45.3214942544
0.08  -0.02  42.539105769
0.08  6.17561557e-16  41.5567605277
0.08  0.02  42.539105769
0.08  0.04  45.3214942544
0.08  0.06  49.5012654583
0.08  0.08  54.6114830936
0.08  0.1  60.2365569231
0.08  0.12  66.046182534
0.08  0.14  71.7874735227
0.08  0.16  77.2669334683
0.08  0.18  82.3345718402
0.08  0.2  150.190010444
0.08  0.22  125.038108281
0.08  0.24  104.098325024
0.08  0.26  86.6652688675
0.08  0.28  72.1516780036
0.08  0.3  60.0686377226
0.08  0.32  50.0091104974
0.08  0.34  41.63422424
0.08  0.36  34.6618568263
0.08  0.38  28.8571323371
0.08  0.4  24.0245088684
0.08  0.42  20.0011913737
0.08  0.44  16.6516476385
0.08  0.46  13.8630426507
0.08  0.48  11.5414375626
0.08  0.5  9.60862520361
0.08  0.52  7.99949553965
0.08  0.54  6.65984233258
0.08  0.56  5.54453711174
0.08  0.58  4.6160089456
0.08  0.6  3.84297880174
0.08  0.62  3.19940586005
0.08  0.64  2.66361028396
0.08  0.66  2.21754289863
0.08  0.68  1.84617717422
0.08  0.7  1.53700303193
0.08  0.72  1.27960542094
0.08  0.74  1.06531346997
0.08  0.76  0.886908394365
0.08  0.78  0.738380319188
0.08  0.8  0.614725826509
0.08  0.82  0.511779406842
0.08  0.84  0.426073136954
0.08  0.86  0.354719857045
0.08  0.88  0.295315911916
0.08  0.9  0.245860179796
0.08  0.92  0.204686661201
0.08  0.94  0.17040835693
0.08  0.96  0.141870544672
0.08  0.98  0.118111880239
0.1  -1  0.0796902873543
0.1  -0.98  0.0957202988314
0.1  -0.96  0.11497480951
0.1  -0.94  0.138102439956
0.1  -0.92  0.165882283284
0.1  -0.9  0.199250150224
0.1  -0.88  0.239330093476
0.1  -0.86  0.287472273315
0.1  -0.84  0.345298440011
0.1  -0.82  0.414756565213
0.1  -0.8  0.498186462648
0.1  -0.78  0.598398608683
0.1  -0.76  0.718768817946
0.1  -0.74  0.863351963315
0.1  -0.72  1.03701857113
0.1  -0.7  1.24561889307
0.1  -0.68  1.49617998169
0.1  -0.66  1.79714240853
0.1  -0.64  2.15864459896
0.1  -0.62  2.59286436206
0.1  -0.6  3.11442912061
0.1  -0.58  3.7409086604
0.1  -0.56  4.49340699805
0.1  -0.54  5.39727330524
0.1  -0.52  6.48295583821
0.1  -0.5  7.78702763845
0.1  -0.48  9.3534185571
0.1  -0.46  11.2348951058
0.1  -0.44  13.4948379856
0.1  -0.42  16.2093771719
0.1  -0.4  19.4699564812
0.1  -0.38  23.3864140096
0.1  -0.36  28.0906822138
0.1  -0.34  33.7412322775
0.1  -0.32  40.5284124799
0.1  -0.3  48.6808603976
0.1  -0.28  58.4732049454
0.1  -0.26  70.2353177134
0.1  -0.24  84.363425246
0.1  -0.22  101.333456599
0.1  -0.2  86.674883752
0.1  -0.18  81.4383126066
0.1  -0.16  75.5309510747
0.1  -0.14  69.054711273
0.1  -0.12  62.1393271781
0.1  -0.1  54.9561321383
0.1  -0.08  47.7443088065
0.1  -0.06  40.8601083508
0.1  -0.04  34.8590943398
0.1  -0.02  30.5759036336
0.1  6.17561557e-16  28.9857555139
0.1  0.02  30.5759036336
0.1  0.04  34.8590943398
0.1  0.06  40.8601083508
0.1  0.08  47.7443088065
0.1  0.1  54.9561321383
0.1  0.12  62.1393271781
0.1  0.14  69.054711273
0.1  0.16  75.5309510747
0.1  0.18  81.4383126066
0.1  0.2  121.717075811
0.1  0.22  101.333456599
0.1  0.24  84.363425246
0.1  0.26  70.2353177134
0.1  0.28  58.4732049454
0.1  0.3  48.6808603976
0.1  0.32  40.5284124799
0.1  0.34  33.7412322775
0.1  0.36  28.0906822138
0.1  0.38  23.3864140096
0.1  0.4  19.4699564812
0.1  0.42  16.2093771719
0.1  0.44  13.4948379856
0.1  0.46  11.2348951058
0.1  0.48  9.3534185571
0.1  0.5  7.78702763845
0.1  0.52  6.48295583821
0.1  0.54  5.39727330524
0.1  0.56  4.49340699805
0.1  0.58  3.7409086604
0.1  0.6  3.11442912061
0.1  0.62  2.59286436206
0.1  0.64  2.15864459896
0.1  0.66  1.79714240853
0.1  0.68  1.49617998169
0.1  0.7  1.24561889307
0.1  0.72  1.03701857113
0.1  0.74  0.863351963315
0.1  0.76  0.718768817946
0.1  0.78  0.598398608683
0.1  0.8  0.498186462648
0.1  0.82  0.414756565213
0.1  0.84  0.345298440011
0.1  0.86  0.287472273315
0.1  0.88  0.239330093476
0.1  0.9  0.199250150224
0.1  0.92  0.165882283284
0.1  0.94  0.138102439956
0.1  0.96  0.11497480951
0.1  0.98  0.0957202988314
0.12  -1  0.0640071866206
0.12  -0.98  0.0768824813423
0.12  -0.96  0.0923476917114
0.12  -0.94  0.110923789341
0.12  -0.92  0.133236541312
0.12  -0.9  0.160037590188
0.12  -0.88  0.192229774364
0.12  -0.86  0.230897541686
0.12  -0.84  0.277343480911
0.12  -0.82  0.33313220159
0.12  -0.8  0.400143040579
0.12  -0.78  0.480633370655
0.12  -0.76  0.577314643914
0.12  -0.74  0.6934437316
0.12  -0.72  0.832932637278
0.12  -0.7  1.00048027926
0.12  -0.68  1.20173078157
0.12  -0.66  1.44346360574
0.12  -0.64  1.73382192837
0.12  -0.62  2.08258695776
0.12  -0.6  2.5015074303
0.12  -0.58  3.00469538643
0.12  -0.56  3.60910155849
0.12  -0.54  4.33508638456
0.12  -0.52  5.20710588412
0.12  -0.5  6.25453550015
0.12  -0.48  7.51265966031
0.12  -0.46  9.02386039225
0.12  -0.44  10.8390450334
0.12  -0.42  13.0193611303
0.12  -0.4  15.6382562965
0.12  -0.38  18.7839524188
0.12  -0.36  22.5624175599
0.12  -0.34  27.100935671
0.12  -0.32  32.5523943653
0.12  -0.3  39.1004351944
0.12  -0.28  46.9656399231
0.12  -0.26  56.4129611963
0.12  -0.24  67.7606479152
0.12  -0.22  81.3909659858
0.12  -0.2  86.5403800072
0.12  -0.18  80.8240154833
0.12  -0.16  74.3289697997
0.12  -0.14  67.135560659
0.12  -0.12  59.3397969678
0.12  -0.1  51.0599190885
0.12  -0.08  42.4522965288
0.12  -0.06  33.7535932427
0.12  -0.04  25.4064835988
0.12  -0.02  18.4635366926
0.12  6.17561557e-16  15.4263735337
0.12  0.02  18.4635366926
0.12  0.04  25.4064835988
0.12  0.06  33.7535932427
0.12  0.08  42.4522965288
0.12  0.1  51.0599190886
0.12  0.12  59.3397969678
0.12  0.14  67.135560659
0.12  0.16  74.3289697997
0.12  0.18  80.8240154833
0.12  0.2  97.7630755891
0.12  0.22  81.3909659858
0.12  0.24  67.7606479152
0.12  0.26  56.4129611963
0.12  0.28  46.9656399231
0.12  0.3  39.1004351944
0.12  0.32  32.5523943653
0.12  0.34  27.100935671
0.12  0.36  22.5624175599
0.12  0.38  18.7839524188
0.12  0.4  15.6382562965
0.12  0.42  13.0193611303
0.12  0.44  10.8390450334
0.12  0.46  9.02386039225
0.12  0.48  7.51265966031
0.12  0.5  6.25453550015
0.12  0.52  5.20710588412
0.12  0.54  4.33508638456
0.12  0.56  3.60910155849
0.12  0.58  3.00469538643
0.12  0.6  2.5015074303
0.12  0.62  2.08258695776
0.12  0.64  1.73382192837
0.12  0.66  1.44346360574
0.12  0.68  1.20173078157
0.12  0.7  1.00048027926
0.12  0.72  0.832932637278
0.12  0.74  0.6934437316
0.12  0.76  0.577314643914
0.12  0.78  0.480633370655
0.12  0.8  0.400143040579
0.12  0.82  0.33313220159
0.12  0.84  0.277343480911
0.12  0.86  0.230897541686
0.12  0.88  0.192229774364
0.12  0.9  0.160037590188
0.12  0.92  0.133236541312
0.12  0.94  0.110923789341
0.12  0.96  0.0923476917114
0.12  0.98  0.0768824813423
0.14  -1  0.0566840455194
0.14  -0.98  0.068086261905
0.14  -0.96  0.081782078497
0.14  -0.94  0.0982328619042
0.14  -0.92  0.117992784425
0.14  -0.9  0.141727492271
0.14  -0.88  0.170236528982
0.14  -0.86  0.204480269393
0.14  -0.84  0.245612271473
0.14  -0.82  0.295018135867
0.14  -0.8  0.354362182186
0.14  -0.78  0.425643514404
0.14  -0.76  0.511263364044
0.14  -0.74  0.614105979695
0.14  -0.72  0.737635787774
0.14  -0.7  0.886014097559
0.14  -0.68  1.06423928188
0.14  -0.66  1.27831515574
0.14  -0.64  1.53545322486
0.14  -0.62  1.84431561743
0.14  -0.6  2.21530688244
0.14  -0.58  2.6609244844
0.14  -0.56  3.19617980147
0.14  -0.54  3.83910380891
0.14  -0.52  4.61135448288
0.14  -0.5  5.53894638573
0.14  -0.48  6.65312701027
0.14  -0.46  7.99142940412
0.14  -0.44  9.59893653353
0.14  -0.42  11.5297999789
0.14  -0.4  13.8490641216
0.14  -0.38  16.6348572739
0.14  -0.36  19.9810235619
0.14  -0.34  24.0002842228
0.14  -0.32  28.8280348097
0.14  -0.3  34.626906218
0.14  -0.28  41.5922431809
0.14  -0.26  49.9586847848
0.14  -0.24  60.0080686817
0.14  -0.22  72.0789252643
0.14  -0.2  86.4875724201
0.14  -0.18  80.5818183414
0.14  -0.16  73.852229183
0.14  -0.14  66.3677481662
0.14  -0.12  58.2051126795
0.14  -0.1  49.4481400952
0.14  -0.08  40.1870460036
0.14  -0.06  30.5180443929
0.14  -0.04  20.5444392088
0.14  -0.02  10.3899043822
0.14  6.17561557e-16  1.34097206559
0.14  0.02  10.3899043822
0.14  0.04  20.5444392088
0.14  0.06  30.5180443929
0.14  0.08  40.1870460036
0.14  0.1  49.4481400952
0.14  0.12  58.2051126795
0.14  0.14  66.3677481662
0.14  0.16  73.852229183
0.14  0.18  80.5818183414
0.14  0.2  86.5778816315
0.14  0.22  72.0789252643
0.14  0.24  60.0080686817
0.14  0.26  49.9586847848
0.14  0.28  41.5922431809
0.14  0.3  34.626906218
0.14  0.32  28.8280348097
0.14  0.34  24.0002842228
0.14  0.36  19.9810235619
0.14  0.38  16.6348572739
0.14  0.4  13.8490641216
0.14  0.42  11.5297999789
0.14  0.44  9.59893653352
0.14  0.46  7.99142940412
0.14  0.48  6.65312701027
0.14  0.5  5.53894638573
0.14  0.52  4.61135448288
0.14  0.54  3.83910380891
0.14  0.56  3.19617980147
0.14  0.58  2.6609244844
0.14  0.6  2.21530688244
0.14  0.62  1.84431561743
0.14  0.64  1.53545322486
0.14  0.66  1.27831515574
0.14  0.68  1.06423928188
0.14  0.7  0.886014097559
0.14  0.72  0.737635787774
0.14  0.74  0.614105979695
0.14  0.76  0.511263364044
0.14  0.78  0.425643514404
0.14  0.8  0.354362182186
0.14  0.82  0.295018135867
0.14  0.84  0.245612271473
0.14  0.86  0.204480269393
0.14  0.88  0.170236528982
0.14  0.9  0.141727492271
0.14  0.92  0.117992784425
0.14  0.94  0.0982328619042
0.14  0.96  0.081782078497
0.14  0.98  0.068086261905
0.16  -1  0.0617944055035
0.16  -0.98  0.0742245906908
0.16  -0.96  0.08915515601
0.16  -0.94  0.107089062657
0.16  -0.92  0.128630444429
0.16  -0.9  0.15450495899
0.16  -0.88  0.185584232866
0.16  -0.86  0.222915223649
0.16  -0.84  0.267755488532
0.16  -0.82  0.321615547225
0.16  -0.8  0.386309766363
0.16  -0.78  0.464017479487
0.16  -0.76  0.557356401565
0.16  -0.74  0.669470811119
0.16  -0.72  0.804137470533
0.16  -0.7  0.965892852648
0.16  -0.68  1.16018595947
0.16  -0.66  1.39356188097
0.16  -0.64  1.67388227744
0.16  -0.62  2.01059021274
0.16  -0.6  2.41502825978
0.16  -0.58  2.90082059417
0.16  -0.56  3.48433194745
0.16  -0.54  4.18521888062
0.16  -0.52  5.02709194844
0.16  -0.5  6.03831106064
0.16  -0.48  7.2529408332
0.16  -0.46  8.71189811217
0.16  -0.44  10.4643303265
0.16  -0.42  12.5692711016
0.16  -0.4  15.0976289066
0.16  -0.38  18.1345757251
0.16  -0.36  21.7824162168
0.16  -0.34  26.1640340218
0.16  -0.32  31.4270313026
0.16  -0.3  37.7487009715
0.16  -0.28  45.3419990999
0.16  -0.26  54.4627187019
0.16  -0.24  65.4181065522
0.16  -0.22  78.5772133098
0.16  -0.2  86.523751357
0.16  -0.18  80.7478121314
0.16  -0.16  74.179147473
0.16  -0.14  66.8946833634
0.16  -0.12  58.9847748607
0.16  -0.1  50.5578212919
0.16  -0.08  41.7521002553
0.16  -0.06  32.769016623
0.16  -0.04  23.9817247716
0.16  -0.02  16.3564136044
0.16  6.17561557e-16  12.7901548245
0.16  0.02  16.3564136044
0.16  0.04  23.9817247716
0.16  0.06  32.769016623
0.16  0.08  41.7521002553
0.16  0.1  50.5578212919
0.16  0.12  58.9847748607
0.16  0.14  66.8946833634
0.16  0.16  74.179147473
0.16  0.18  80.7478121314
0.16  0.2  94.3833256104
0.16  0.22  78.5772133098
0.16  0.24  65.4181065522
0.16  0.26  54.4627187019
0.16  0.28  45.3419990999
0.16  0.3  37.7487009715
0.16  0.32  31.4270313026
0.16  0.34  26.1640340218
0.16  0.36  21.7824162168
0.16  0.38  18.1345757251
0.16  0.4  15.0976289066
0.16  0.42  12.5692711016
0.16  0.44  10.4643303265
0.16  0.46  8.71189811217
0.16  0.48  7.2529408332
0.16  0.5  6.03831106064
0.16  0.52  5.02709194844
0.16  0.54  4.18521888062
0.16  0.56  3.48433194745
0.16  0.58  2.90082059417
0.16  0.6  2.41502825978
0.16  0.62  2.01059021274
0.16  0.64  1.67388227744
0.16  0.66  1.39356188097
0.16  0.68  1.16018595947
0.16  0.7  0.965892852648
0.16  0.72  0.804137470533
0.16  0.74  0.669470811119
0.16  0.76  0.557356401565
0.16  0.78  0.464017479487
0.16  0.8  0.386309766363
0.16  0.82  0.321615547225
0.16  0.84  0.267755488532
0.16  0.86  0.222915223649
0.16  0.88  0.185584232865
0.16  0.9  0.15450495899
0.16  0.92  0.128630444429
0.16  0.94  0.107089062657
0.16  0.96  0.08915515601
0.16  0.98  0.0742245906908
0.18  -1  0.0763638912013
0.18  -0.98  0.091724785145
0.18  -0.96  0.110175582694
0.18  -0.94  0.132337829986
0.18  -0.92  0.158958099581
0.18  -0.9  0.190933140019
0.18  -0.88  0.229340084296
0.18  -0.86  0.275472734905
0.18  -0.84  0.330885147744
0.18  -0.82  0.397443983106
0.18  -0.8  0.477391387265
0.18  -0.78  0.573420522947
0.18  -0.76  0.688766293043
0.18  -0.74  0.82731431375
0.18  -0.72  0.993731808088
0.18  -0.7  1.19362482915
0.18  -0.68  1.43372710944
0.18  -0.66  1.72212689795
0.18  -0.64  2.06853942645
0.18  -0.62  2.48463418338
0.18  -0.6  2.98442802023
0.18  -0.58  3.58475733268
0.18  -0.56  4.30584522298
0.18  -0.54  5.17198274907
0.18  -0.52  6.21234720978
0.18  -0.5  7.46198503113
0.18  -0.48  8.96299236417
0.18  -0.46  10.7659331646
0.18  -0.44  12.9315425245
0.18  -0.42  15.5327726363
0.18  -0.4  18.6572503097
0.18  -0.38  22.4102288285
0.18  -0.36  26.9181335839
0.18  -0.34  32.3328209269
0.18  -0.32  38.8366937042
0.18  -0.3  46.6488458056
0.18  -0.28  56.032442709
0.18  -0.26  67.3035866531
0.18  -0.24  80.8419650718
0.18  -0.22  97.1036410044
0.18  -0.2  86.6439207431
0.18  -0.18  81.2972272041
0.18  -0.16  75.25578914
0.18  -0.14  68.6174133269
0.18  -0.12  61.5057811436
0.18  -0.1  54.0835667479
0.18  -0.08  46.5786758799
0.18  -0.06  39.337164201
0.18  -0.04  32.9232390462
0.18  -0.02  28.2500975466
0.18  6.17561557e-16  26.4851538925
0.18  0.02  28.2500975466
0.18  0.04  32.9232390462
0.18  0.06  39.337164201
0.18  0.08  46.5786758799
0.18  0.1  54.0835667479
0.18  0.12  61.5057811436
0.18  0.14  68.6174133269
0.18  0.16  75.25578914
0.18  0.18  81.2972272041
0.18  0.2  116.636416346
0.18  0.22  97.1036410044
0.18  0.24  80.8419650718
0.18  0.26  67.3035866531
0.18  0.28  56.032442709
0.18  0.3  46.6488458056
0.18  0.32  38.8366937042
0.18  0.34  32.3328209269
0.18  0.36  26.9181335839
0.18  0.38  22.4102288285
0.18  0.4  18.6572503097
0.18  0.42  15.5327726363
0.18  0.44  12.9315425245
0.18  0.46  10.7659331646
0.18  0.48  8.96299236417
0.18  0.5  7.46198503113
0.18  0.52  6.21234720978
0.18  0.54  5.17198274907
0.18  0.56  4.30584522298
0.18  0.58  3.58475733268
0.18  0.6  2.98442802023
0.18  0.62  2.48463418338
0.18  0.64  2.06853942645
0.18  0.66  1.72212689795
0.18  0.68  1.43372710944
0.18  0.7  1.19362482915
0.18  0.72  0.993731808088
0.18  0.74  0.82731431375
0.18  0.76  0.688766293043
0.18  0.78  0.573420522947
0.18  0.8  0.477391387265
0.18  0.82  0.397443983106
0.18  0.84  0.330885147744
0.18  0.86  0.275472734905
0.18  0.88  0.229340084296
0.18  0.9  0.190933140019
0.18  0.92  0.158958099581
0.18  0.94  0.132337829986
0.18  0.96  0.110175582694
0.18  0.98  0.091724785145
0.2  -1  0.0947605343785
0.2  -0.98  0.113821984702
0.2  -0.96  0.13671771995
0.2  -0.94  0.16421902146
0.2  -0.92  0.19725231681
0.2  -0.9  0.236930388095
0.2  -0.88  0.284589857856
0.2  -0.86  0.341836215463
0.2  -0.84  0.410597900721
0.2  -0.82  0.493191266607
0.2  -0.8  0.592398609516
0.2  -0.78  0.711561895593
0.2  -0.76  0.85469534048
0.2  -0.74  1.02662063492
0.2  -0.72  1.23312937151
0.2  -0.7  1.48117814426
0.2  -0.68  1.77912289311
0.2  -0.66  2.13700038788
0.2  -0.64  2.56686633368
0.2  -0.62  3.08320148762
0.2  -0.6  3.7033994675
0.2  -0.58  4.448352685
0.2  -0.56  5.34315614175
0.2  -0.54  6.41795279665
0.2  -0.52  7.70894898207
0.2  -0.5  9.25963407509
0.2  -0.48  11.1222455102
0.2  -0.46  13.3595284854
0.2  -0.44  16.046849639
0.2  -0.42  19.2747359025
0.2  -0.4  23.1519240517
0.2  -0.38  27.8090236881
0.2  -0.36  33.4029170431
0.2  -0.34  40.1220438193
0.2  -0.32  48.1927490992
0.2  -0.3  57.8869081595
0.2  -0.28  69.531085047
0.2  -0.26  83.5175334377
0.2  -0.24  100.317410361
0.2  -0.22  120.496647917
0.2  -0.2  86.8315290377
0.2  -0.18  82.1491308145
0.2  -0.16  76.9094154334
0.2  -0.14  71.2282261643
0.2  -0.12  65.2535801402
0.2  -0.1  59.1780606363
0.2  -0.08  53.2573935324
0.2  -0.06  47.8342624202
0.2  -0.04  43.3556833121
0.2  -0.02  40.3461506207
0.2  6.17561557e-16  39.2770432919
0.2  0.02  40.3461506207
0.2  0.04  43.3556833121
0.2  0.06  47.8342624202
0.2  0.08  53.2573935324
0.2  0.1  59.1780606363
0.2  0.12  65.2535801402
0.2  0.14  71.2282261643
0.2  0.16  76.9094154334
0.2  0.18  82.1491308145
0.2  0.2  144.735017651
0.2  0.22  120.496647917
0.2  0.24  100.317410361
0.2  0.26  83.5175334376
0.2  0.28  69.531085047
0.2  0.3  57.8869081595
0.2  0.32  48.1927490992
0.2  0.34  40.1220438193
0.2  0.36  33.4029170431
0.2  0.38  27.8090236881
0.2  0.4  23.1519240517
0.2  0.42  19.2747359025
0.2  0.44  16.046849639
0.2  0.46  13.3595284854
0.2  0.48  11.1222455102
0.2  0.5  9.25963407509
0.2  0.52  7.70894898207
0.2  0.54  6.41795279665
0.2  0.56  5.34315614175
0.2  0.58  4.448352685
0.2  0.6  3.7033994675
0.2  0.62  3.08320148762
0.2  0.64  2.56686633368
0.2  0.66  2.13700038788
0.2  0.68  1.77912289311
0.2  0.7  1.48117814426
0.2  0.72  1.23312937151
0.2  0.74  1.02662063492
0.2  0.76  0.85469534048
0.2  0.78  0.711561895593
0.2  0.8  0.592398609516
0.2  0.82  0.493191266607
0.2  0.84  0.410597900721
0.2  0.86  0.341836215463
0.2  0.88  0.284589857856
0.2  0.9  0.236930388095
0.2  0.92  0.19725231681
0.2  0.94  0.16421902146
0.2  0.96  0.13671771995
0.2  0.98  0.113821984702
0.22  -1  0.113301223477
0.22  -0.98  0.136092205577
0.22  -0.96  0.163467682436
0.22  -0.94  0.196349843018
0.22  -0.92  0.235846378186
0.22  -0.9  0.283287795135
0.22  -0.88  0.340272237758
0.22  -0.86  0.408719322813
0.22  -0.84  0.490934805441
0.22  -0.82  0.589688252404
0.22  -0.8  0.708306339598
0.22  -0.78  0.850784916725
0.22  -0.76  1.0219236142
0.22  -0.74  1.2274875268
0.22  -0.72  1.47440142052
0.22  -0.7  1.77098300502
0.22  -0.68  2.12722312962
0.22  -0.66  2.55512234186
0.22  -0.64  3.06909514614
0.22  -0.62  3.68645558052
0.22  -0.6  4.4280004692
0.22  -0.58  5.31870999853
0.22  -0.56  6.38858921657
0.22  -0.54  7.67367880357
0.22  -0.52  9.2172691629
0.22  -0.5  11.0713587311
0.22  -0.48  13.2984056325
0.22  -0.46  15.9734316864
0.22  -0.44  19.186549643
0.22  -0.42  23.0459987828
0.22  -0.4  27.6817911391
0.22  -0.38  33.2500911716
0.22  -0.36  39.9384764289
0.22  -0.34  47.9722564137
0.22  -0.32  57.6220625121
0.22  -0.3  69.2129646668
0.22  -0.28  83.1354219048
0.22  -0.26  99.858435606
0.22  -0.24  119.945348604
0.22  -0.22  144.072822334
0.22  -0.2  87.0608675608
0.22  -0.18  83.1811336556
0.22  -0.16  78.8884742406
0.22  -0.14  74.302465131
0.22  -0.12  69.5712939828
0.22  -0.1  64.8775378467
0.22  -0.08  60.4433533944
0.22  -0.06  56.5310000653
0.22  -0.04  53.4306607727
0.22  -0.02  51.4252448851
0.22  6.17561557e-16  50.7296360538
0.22  0.02  51.4252448851
0.22  0.04  53.4306607727
0.22  0.06  56.5310000653
0.22  0.08  60.4433533944
0.22  0.1  64.8775378467
0.22  0.12  69.5712939828
0.22  0.14  74.302465131
0.22  0.16  78.8884742406
0.22  0.18  83.1811336556
0.22  0.2  173.053631317
0.22  0.22  144.072822334
0.22  0.24  119.945348604
0.22  0.26  99.858435606
0.22  0.28  83.1354219048
0.22  0.3  69.2129646668
0.22  0.32  57.6220625121
0.22  0.34  47.9722564137
0.22  0.36  39.9384764289
0.22  0.38  33.2500911716
0.22  0.4  27.6817911391
0.22  0.42  23.0459987828
0.22  0.44  19.186549643
0.22  0.46  15.9734316864
0.22  0.48  13.2984056325
0.22  0.5  11.0713587311
0.22  0.52  9.2172691629
0.22  0.54  7.67367880357
0.22  0.56  6.38858921657
0.22  0.58  5.31870999853
0.22  0.6  4.4280004692
0.22  0.62  3.68645558052
0.22  0.64  3.06909514614
0.22  0.66  2.55512234186
0.22  0.68  2.12722312962
0.22  0.7  1.77098300502
0.22  0.72  1.47440142052
0.22  0.74  1.2274875268
0.22  0.76  1.0219236142
0.22  0.78  0.850784916725
0.22  0.8  0.708306339598
0.22  0.82  0.589688252404
0.22  0.84  0.490934805441
0.22  0.86  0.408719322813
0.22  0.88  0.340272237758
0.22  0.9  0.283287795135
0.22  0.92  0.235846378186
0.22  0.94  0.196349843018
0.22  0.96  0.163467682436
0.22  0.98  0.136092205577
0.24  -1  0.129933045746
0.24  -0.98  0.156069583632
0.24  -0.96  0.187463587844
0.24  -0.94  0.225172618196
0.24  -0.92  0.270466966778
0.24  -0.9  0.324872449875
0.24  -0.88  0.390221807657
0.24  -0.86  0.468716443114
0.24  -0.84  0.563000580015
0.24  -0.82  0.676250338033
0.24  -0.8  0.812280725674
0.24  -0.78  0.975674155256
0.24  -0.76  1.17193480917
0.24  -0.74  1.40767405751
0.24  -0.72  1.69083317322
0.24  -0.7  2.03095084719
0.24  -0.68  2.4394845151
0.24  -0.66  2.93019632043
0.24  -0.64  3.51961671539
0.24  -0.62  4.22760131698
0.24  -0.6  5.07799977683
0.24  -0.58  6.09945919686
0.24  -0.56  7.32638915503
0.24  -0.54  8.80012084981
0.24  -0.52  10.5702994112
0.24  -0.5  12.6965562801
0.24  -0.48  15.2505179942
0.24  -0.46  18.3182190478
0.24  -0.44  22.0030001087
0.24  -0.42  26.4289892221
0.24  -0.4  31.7452832727
0.24  -0.38  38.1309705641
0.24  -0.36  45.8011637089
0.24  -0.34  55.0142460593
0.24  -0.32  66.0805757841
0.24  -0.3  79.3729408062
0.24  -0.28  95.33911679
0.24  -0.26  114.516951217
0.24  -0.24  137.552481685
0.24  -0.22  165.221698767
0.24  -0.2  87.3007250263
0.24  -0.18  84.2498046093
0.24  -0.16  80.9119076679
0.24  -0.14  77.3953192827
0.24  -0.12  73.8284728482
0.24  -0.1  70.3603027643
0.24  -0.08  67.1582368741
0.24  -0.06  64.4017288711
0.24  -0.04  62.2690355434
0.24  -0.02  60.9163638639
0.24  6.17561557e-16  60.4524135012
0.24  0.02  60.9163638639
0.24  0.04  62.2690355434
0.24  0.06  64.4017288711
0.24  0.08  67.1582368741
0.24  0.1  70.3603027643
0.24  0.12  73.8284728482
0.24  0.14  77.3953192827
0.24  0.16  80.9119076679
0.24  0.18  84.2498046093
0.24  0.2  198.456686561
0.24  0.22  165.221698767
0.24  0.24  137.552481685
0.24  0.26  114.516951217
0.24  0.28  95.33911679
0.24  0.3  79.3729408062
0.24  0.32  66.0805757841
0.24  0.34  55.0142460593
0.24  0.36  45.8011637089
0.24  0.38  38.1309705641
0.24  0.4  31.7452832727
0.24  0.42  26.4289892221
0.24  0.44  22.0030001087
0.24  0.46  18.3182190478
0.24  0.48  15.2505179942
0.24  0.5  12.6965562801
0.24  0.52  10.5702994112
0.24  0.54  8.80012084981
0.24  0.56  7.32638915503
0.24  0.58  6.09945919686
0.24  0.6  5.07799977683
0.24  0.62  4.22760131697
0.24  0.64  3.51961671539
0.24  0.66  2.93019632043
0.24  0.68  2.4394845151
0.24  0.7  2.03095084719
0.24  0.72  1.69083317322
0.24  0.74  1.40767405751
0.24  0.76  1.17193480917
0.24  0.78  0.975674155256
0.24  0.8  0.812280725674
0.24  0.82  0.676250338033
0.24  0.84  0.563000580015
0.24  0.86  0.468716443114
0.24  0.88  0.390221807657
0.24  0.9  0.324872449875
0.24  0.92  0.270466966778
0.24  0.94  0.225172618196
0.24  0.96  0.187463587844
0.24  0.98  0.156069583632
0.26  -1  0.143418179741
0.26  -0.98  0.172267304818
0.26  -0.96  0.206919543692
0.26  -0.94  0.248542215291
0.26  -0.92  0.298537449289
0.26  -0.9  0.358589419201
0.26  -0.88  0.430721076598
0.26  -0.86  0.517362297636
0.26  -0.84  0.621431737517
0.26  -0.82  0.746435150296
0.26  -0.8  0.896583486102
0.26  -0.78  1.07693474407
0.26  -0.76  1.29356435956
0.26  -0.74  1.55376986538
0.26  -0.72  1.86631672149
0.26  -0.7  2.24173359421
0.26  -0.68  2.69266703211
0.26  -0.66  3.23430748619
0.26  -0.64  3.88490102582
0.26  -0.62  4.66636398823
0.26  -0.6  5.6050212672
0.26  -0.58  6.73249311132
0.26  -0.56  8.08676030531
0.26  -0.54  9.71344361655
0.26  -0.52  11.6673406073
0.26  -0.5  14.0142715829
0.26  -0.48  16.833296859
0.26  -0.46  20.2193800419
0.26  -0.44  24.2865870365
0.26  -0.42  29.1719285487
0.26  -0.4  35.0399755212
0.26  -0.38  42.0884029822
0.26  -0.36  50.5546490613
0.26  -0.34  60.723913492
0.26  -0.32  72.9387650445
0.26  -0.3  87.6106815303
0.26  -0.28  105.233911124
0.26  -0.26  126.402121945
0.26  -0.24  151.828400765
0.26  -0.22  182.369274535
0.26  -0.2  87.5187097449
0.26  -0.18  85.2119037565
0.26  -0.16  82.7125612803
0.26  -0.14  80.1096091429
0.26  -0.12  77.5042501321
0.26  -0.1  75.0080207121
0.26  -0.08  72.7390436852
0.26  -0.06  70.8158525743
0.26  -0.04  69.3485334913
0.26  -0.02  68.4277989055
0.26  6.17561557e-16  68.1138414339
0.26  0.02  68.4277989055
0.26  0.04  69.3485334913
0.26  0.06  70.8158525743
0.26  0.08  72.7390436852
0.26  0.1  75.0080207121
0.26  0.12  77.5042501321
0.26  0.14  80.1096091429
0.26  0.16  82.7125612803
0.26  0.18  85.2119037565
0.26  0.2  219.053563938
0.26  0.22  182.369274535
0.26  0.24  151.828400765
0.26  0.26  126.402121945
0.26  0.28  105.233911124
0.26  0.3  87.6106815303
0.26  0.32  72.9387650445
0.26  0.34  60.723913492
0.26  0.36  50.5546490612
0.26  0.38  42.0884029822
0.26  0.4  35.0399755212
0.26  0.42  29.1719285487
0.26  0.44  24.2865870365
0.26  0.46  20.2193800419
0.26  0.48  16.833296859
0.26  0.5  14.0142715829
0.26  0.52  11.6673406073
0.26  0.54  9.71344361655
0.26  0.56  8.08676030531
0.26  0.58  6.73249311132
0.26  0.6  5.6050212672
0.26  0.62  4.66636398823
0.26  0.64  3.88490102582
0.26  0.66  3.23430748619
0.26  0.68  2.69266703211
0.26  0.7  2.24173359421
0.26  0.72  1.86631672149
0.26  0.74  1.55376986538
0.26  0.76  1.29356435956
0.26  0.78  1.07693474407
0.26  0.8  0.896583486102
