0.38  -0.44  17.893571917
0.38  -0.42  21.4014979374
0.38  -0.4  25.5971315336
0.38  -0.38  30.615293596
0.38  -0.36  36.6172358312
0.38  -0.34  43.795822363
0.38  -0.32  52.3817271541
0.38  -0.3  62.6508463959
0.38  -0.28  74.9331640512
0.38  -0.26  89.6233554332
0.38  -0.24  107.193469551
0.38  -0.22  128.208097754
0.38  -0.2  83.1630779463
0.38  -0.18  79.3517158405
0.38  -0.16  75.091447561
0.38  -0.14  70.498497748
0.38  -0.12  65.71860537
0.38  -0.1  60.9341791304
0.38  -0.08  56.3720036137
0.38  -0.06  52.3074761487
0.38  -0.04  49.0558688498
0.38  -0.02  46.9358230622
0.38  6.17561557e-16  46.197025323
0.38  0.02  46.9358230622
0.38  0.04  49.0558688498
0.38  0.06  52.3074761487
0.38  0.08  56.3720036137
0.38  0.1  60.9341791304
0.38  0.12  65.71860537
0.38  0.14  70.498497748
0.38  0.16  75.091447561
0.38  0.18  79.3517158405
0.38  0.2  153.342516093
0.38  0.22  128.208097754
0.38  0.24  107.193469551
0.38  0.26  89.6233554332
0.38  0.28  74.9331640512
0.38  0.3  62.6508463959
0.38  0.32  52.3817271541
0.38  0.34  43.795822363
0.38  0.36  36.6172358312
0.38  0.38  30.615293596
0.38  0.4  25.5971315336
0.38  0.42  21.4014979374
0.38  0.44  17.893571917
0.38  0.46  14.960631115
0.38  0.48  12.5084295297
0.38  0.5  10.4581690502
0.38  0.52  8.74396738806
0.38  0.54  7.31074104045
0.38  0.56  6.11243525834
0.38  0.58  5.11054414055
0.38  0.6  4.27287329987
0.38  0.62  3.57250534084
0.38  0.64  2.98693490648
0.38  0.66  2.49734549969
0.38  0.68  2.0880048411
0.38  0.7  1.74575933407
0.38  0.72  1.45961139194
0.38  0.74  1.22036604582
0.38  0.76  1.02033547698
0.38  0.78  0.853091979361
0.38  0.8  0.713261414185
0.38  0.82  0.596350519373
0.38  0.84  0.498602524802
0.38  0.86  0.41687643368
0.38  0.88  0.348546090949
0.38  0.9  0.291415795429
0.38  0.92  0.243649743981
0.38  0.94  0.203713040518
0.38  0.96  0.170322374238
0.38  0.98  0.142404782198
0.4  -1  0.103752000527
0.4  -0.98  0.124091949644
0.4  -0.96  0.148419422163
0.4  -0.94  0.177516147812
0.4  -0.92  0.212317109679
0.4  -0.9  0.253940588606
0.4  -0.88  0.303724097597
0.4  -0.86  0.363267360951
0.4  -0.84  0.434483719191
0.4  -0.82  0.519661611625
0.4  -0.8  0.621538112174
0.4  -0.78  0.743386881468
0.4  -0.76  0.889123361408
0.4  -0.74  1.06343059248
0.4  -0.72  1.2719096968
0.4  -0.7  1.52125986241
0.4  -0.68  1.8194936125
0.4  -0.66  2.17619427667
0.4  -0.64  2.60282393809
0.4  -0.62  3.11309175166
0.4  -0.6  3.72339446876
0.4  -0.58  4.45334332424
0.4  -0.56  5.32639421634
0.4  -0.54  6.37060142958
0.4  -0.52  7.61951912048
0.4  -0.5  9.11327953398
0.4  -0.48  10.8998825977
0.4  -0.46  13.0367383335
0.4  -0.44  15.5925116488
0.4  -0.42  18.6493287891
0.4  -0.4  22.3054163509
0.4  -0.38  26.6782576582
0.4  -0.36  31.9083679265
0.4  -0.34  38.1638095251
0.4  -0.32  45.6455924297
0.4  -0.3  54.5941333999
0.4  -0.28  65.2969814396
0.4  -0.26  78.0980577875
0.4  -0.24  93.4087073508
0.4  -0.22  111.720916706
0.4  -0.2  72.4685528214
0.4  -0.18  69.1473205761
0.4  -0.16  65.4349101595
0.4  -0.14  61.4326000677
0.4  -0.12  57.2673876703
0.4  -0.1  53.0982244523
0.4  -0.08  49.1227311736
0.4  -0.06  45.5808898834
0.4  -0.04  42.7474296374
0.4  -0.02  40.9000154491
0.4  6.17561557e-16  40.2562249076
0.4  0.02  40.9000154491
0.4  0.04  42.7474296374
0.4  0.06  45.5808898834
0.4  0.08  49.1227311736
0.4  0.1  53.0982244523
0.4  0.12  57.2673876703
0.4  0.14  61.4326000677
0.4  0.16  65.4349101595
0.4  0.18  69.1473205761
0.4  0.2  133.623123406
0.4  0.22  111.720916706
0.4  0.24  93.4087073508
0.4  0.26  78.0980577875
0.4  0.28  65.2969814396
0.4  0.3  54.5941333999
0.4  0.32  45.6455924297
0.4  0.34  38.1638095251
0.4  0.36  31.9083679265
0.4  0.38  26.6782576582
0.4  0.4  22.3054163509
0.4  0.42  18.6493287891
0.4  0.44  15.5925116488
0.4  0.46  13.0367383335
0.4  0.48  10.8998825977
0.4  0.5  9.11327953398
0.4  0.52  7.61951912048
0.4  0.54  6.37060142958
0.4  0.56  5.32639421634
0.4  0.58  4.45334332424
0.4  0.6  3.72339446876
0.4  0.62  3.11309175166
0.4  0.64  2.60282393809
0.4  0.66  2.17619427667
0.4  0.68  1.8194936125
0.4  0.7  1.52125986241
0.4  0.72  1.2719096968
0.4  0.74  1.06343059248
0.4  0.76  0.889123361408
0.4  0.78  0.743386881468
0.4  0.8  0.621538112174
0.4  0.82  0.519661611625
0.4  0.84  0.434483719191
0.4  0.86  0.363267360951
0.4  0.88  0.303724097597
0.4  0.9  0.253940588606
0.4  0.92  0.212317109679
0.4  0.94  0.177516147812
0.4  0.96  0.148419422163
0.4  0.98  0.124091949644
0.42  -1  0.090409801034
0.42  -0.98  0.108134093032
0.42  -0.96  0.129333124752
0.42  -0.94  0.154688097796
0.42  -0.92  0.185013759202
0.42  -0.9  0.221284582213
0.42  -0.88  0.264666079628
0.42  -0.86  0.316552255946
0.42  -0.84  0.378610401777
0.42  -0.82  0.452834669919
0.42  -0.8  0.541610154709
0.42  -0.78  0.64778953373
0.42  -0.76  0.774784734669
0.42  -0.74  0.926676572899
0.42  -0.72  1.10834588284
0.42  -0.7  1.32563035685
0.42  -0.68  1.58551213136
0.42  -0.66  1.89634214826
0.42  -0.64  2.2681085008
0.42  -0.62  2.71275738722
0.42  -0.6  3.24457698534
0.42  -0.58  3.88065658335
0.42  -0.56  4.64143572059
0.42  -0.54  5.5513609838
0.42  -0.52  6.63967156449
0.42  -0.5  7.94133881998
0.42  -0.48  9.49819002961
0.42  -0.46  11.3602524566
0.42  -0.44  13.5873609052
0.42  -0.42  16.2510804291
0.42  -0.4  19.4370059761
0.42  -0.38  23.247512863
0.42  -0.36  27.8050464656
0.42  -0.34  33.2560568311
0.42  -0.32  39.7757046485
0.42  -0.3  47.5734897953
0.42  -0.28  56.8999833266
0.42  -0.26  68.0548792298
0.42  -0.24  81.3966246775
0.42  -0.22  97.3539382315
0.42  -0.2  63.1493119027
0.42  -0.18  60.255180272
0.42  -0.16  57.0201748223
0.42  -0.14  53.5325499356
0.42  -0.12  49.9029714966
0.42  -0.1  46.2699503008
0.42  -0.08  42.8056936647
0.42  -0.06  39.7193226577
0.42  -0.04  37.2502369941
0.42  -0.02  35.6403947901
0.42  6.17561557e-16  35.0793938025
0.42  0.02  35.6403947901
0.42  0.04  37.2502369941
0.42  0.06  39.7193226577
0.42  0.08  42.8056936647
0.42  0.1  46.2699503008
0.42  0.12  49.9029714966
0.42  0.14  53.5325499356
0.42  0.16  57.0201748223
0.42  0.18  60.255180272
0.42  0.2  116.439586122
0.42  0.22  97.3539382315
0.42  0.24  81.3966246775
0.42  0.26  68.0548792298
0.42  0.28  56.8999833266
0.42  0.3  47.5734897953
0.42  0.32  39.7757046485
0.42  0.34  33.2560568311
0.42  0.36  27.8050464656
0.42  0.38  23.247512863
0.42  0.4  19.4370059761
0.42  0.42  16.2510804291
0.42  0.44  13.5873609052
0.42  0.46  11.3602524566
0.42  0.48  9.49819002961
0.42  0.5  7.94133881998
0.42  0.52  6.63967156449
0.42  0.54  5.5513609838
0.42  0.56  4.64143572059
0.42  0.58  3.88065658335
0.42  0.6  3.24457698534
0.42  0.62  2.71275738722
0.42  0.64  2.2681085008
0.42  0.66  1.89634214826
0.42  0.68  1.58551213136
0.42  0.7  1.32563035685
0.42  0.72  1.10834588284
0.42  0.74  0.926676572899
0.42  0.76  0.774784734669
0.42  0.78  0.64778953373
0.42  0.8  0.541610154709
0.42  0.82  0.452834669919
0.42  0.84  0.378610401777
0.42  0.86  0.316552255946
0.42  0.88  0.264666079628
0.42  0.9  0.221284582213
0.42  0.92  0.185013759202
0.42  0.94  0.154688097796
0.42  0.96  0.129333124752
0.42  0.98  0.108134093032
0.44  -1  0.078783368817
0.44  -0.98  0.0942283694424
0.44  -0.96  0.112701268568
0.44  -0.94  0.134795667293
0.44  -0.92  0.161221538602
0.44  -0.9  0.19282804137
0.44  -0.88  0.230630806906
0.44  -0.86  0.275844574867
0.44  -0.84  0.329922227236
0.44  -0.82  0.394601474678
0.44  -0.8  0.471960695472
0.44  -0.78  0.564485721326
0.44  -0.76  0.67514971615
0.44  -0.74  0.807508714562
0.44  -0.72  0.965815890159
0.44  -0.7  1.15515822537
0.44  -0.68  1.38161997461
0.44  -0.66  1.65247817339
0.44  -0.64  1.97643647582
0.44  -0.62  2.36390483448
0.44  -0.6  2.82733400989
0.44  -0.58  3.3816156585
0.44  -0.56  4.0445608555
0.44  -0.54  4.8374724291
0.44  -0.52  5.78582949754
0.44  -0.5  6.9201062053
0.44  -0.48  8.27675096769
0.44  -0.46  9.8993576903
0.44  -0.44  11.840066599
0.44  -0.42  14.1612396939
0.44  -0.4  16.9374646664
0.44  -0.38  20.2579516714
0.44  -0.36  24.2293999724
0.44  -0.34  28.979426575
0.44  -0.32  34.6606670233
0.44  -0.3  41.4556801319
0.44  -0.28  49.5828142616
0.44  -0.26  59.3032236422
0.44  -0.24  70.9292602029
0.44  -0.22  84.8345105703
0.44  -0.2  55.0284977212
0.44  -0.18  52.5065428328
0.44  -0.16  49.6875494875
0.44  -0.14  46.6484228154
0.44  -0.12  43.4855973967
0.44  -0.1  40.3197719496
0.44  -0.08  37.3010084403
0.44  -0.06  34.6115355892
0.44  -0.04  32.4599670175
0.44  -0.02  31.0571457455
0.44  6.17561557e-16  30.5682878207
0.44  0.02  31.0571457455
0.44  0.04  32.4599670175
0.44  0.06  34.6115355892
0.44  0.08  37.3010084403
0.44  0.1  40.3197719496
0.44  0.12  43.4855973967
0.44  0.14  46.6484228154
0.44  0.16  49.6875494875
0.44  0.18  52.5065428328
0.44  0.2  101.465800759
0.44  0.22  84.8345105703
0.44  0.24  70.9292602029
0.44  0.26  59.3032236421
0.44  0.28  49.5828142616
0.44  0.3  41.4556801319
0.44  0.32  34.6606670233
0.44  0.34  28.979426575
0.44  0.36  24.2293999724
0.44  0.38  20.2579516714
0.44  0.4  16.9374646664
0.44  0.42  14.1612396939
0.44  0.44  11.840066599
0.44  0.46  9.8993576903
0.44  0.48  8.27675096769
0.44  0.5  6.9201062053
0.44  0.52  5.78582949754
0.44  0.54  4.8374724291
0.44  0.56  4.0445608555
0.44  0.58  3.3816156585
0.44  0.6  2.82733400989
0.44  0.62  2.36390483448
0.44  0.64  1.97643647582
0.44  0.66  1.65247817339
0.44  0.68  1.38161997461
0.44  0.7  1.15515822537
0.44  0.72  0.965815890159
0.44  0.74  0.807508714562
0.44  0.76  0.67514971615
0.44  0.78  0.564485721326
0.44  0.8  0.471960695472
0.44  0.82  0.394601474678
0.44  0.84  0.329922227236
0.44  0.86  0.275844574867
0.44  0.88  0.230630806906
0.44  0.9  0.19282804137
0.44  0.92  0.161221538602
0.44  0.94  0.134795667293
0.44  0.96  0.112701268568
0.44  0.98  0.0942283694424
0.46  -1  0.0686520612939
0.46  -0.98  0.0821108806556
0.46  -0.96  0.098208219753
0.46  -0.94  0.117461344344
0.46  -0.92  0.140488926993
0.46  -0.9  0.168030927264
0.46  -0.88  0.200972369292
0.46  -0.86  0.240371780818
0.46  -0.84  0.287495207511
0.46  -0.82  0.343856895599
0.46  -0.8  0.411267950081
0.46  -0.78  0.491894532081
0.46  -0.76  0.588327465449
0.46  -0.74  0.703665489302
0.46  -0.72  0.841614831727
0.46  -0.7  1.0066083043
0.46  -0.68  1.20394774438
0.46  -0.66  1.43997438228
0.46  -0.64  1.72227260803
0.46  -0.62  2.05991368517
0.46  -0.6  2.46374724336
0.46  -0.58  2.9467499162
0.46  -0.56  3.52444232746
0.46  -0.54  4.21538782483
0.46  -0.52  5.04178898752
0.46  -0.5  6.03020107544
0.46  -0.48  7.2123853458
0.46  -0.46  8.62632965726
0.46  -0.44  10.3174691573
0.46  -0.42  12.3401462778
0.46  -0.4  14.7593569544
0.46  -0.38  17.6528391806
0.46  -0.36  21.1135710112
0.46  -0.34  25.2527582834
0.46  -0.32  30.2034080632
0.46  -0.3  36.1246026431
0.46  -0.28  43.2066114324
0.46  -0.26  51.6770050017
0.46  -0.24  61.8079677487
0.46  -0.22  73.9250441681
0.46  -0.2  47.9519961534
0.46  -0.18  45.7543571825
0.46  -0.16  43.297878019
0.46  -0.14  40.6495740215
0.46  -0.12  37.8934785693
0.46  -0.1  35.1347688834
0.46  -0.08  32.5042094064
0.46  -0.06  30.1605947858
0.46  -0.04  28.2857115499
0.46  -0.02  27.063288932
0.46  6.17561557e-16  26.6372966862
0.46  0.02  27.063288932
0.46  0.04  28.2857115499
0.46  0.06  30.1605947858
0.46  0.08  32.5042094064
0.46  0.1  35.1347688834
0.46  0.12  37.8934785693
0.46  0.14  40.6495740215
0.46  0.16  43.297878019
0.46  0.18  45.7543571825
0.46  0.2  88.4175997742
0.46  0.22  73.9250441681
0.46  0.24  61.8079677487
0.46  0.26  51.6770050017
0.46  0.28  43.2066114324
0.46  0.3  36.1246026431
0.46  0.32  30.2034080632
0.46  0.34  25.2527582834
0.46  0.36  21.1135710112
0.46  0.38  17.6528391806
0.46  0.4  14.7593569544
0.46  0.42  12.3401462778
0.46  0.44  10.3174691573
0.46  0.46  8.62632965726
0.46  0.48  7.2123853458
0.46  0.5  6.03020107544
0.46  0.52  5.04178898752
0.46  0.54  4.21538782483
0.46  0.56  3.52444232746
0.46  0.58  2.9467499162
0.46  0.6  2.46374724336
0.46  0.62  2.05991368517
0.46  0.64  1.72227260803
0.46  0.66  1.43997438228
0.46  0.68  1.20394774438
0.46  0.7  1.0066083043
0.46  0.72  0.841614831727
0.46  0.74  0.703665489302
0.46  0.76  0.588327465449
0.46  0.78  0.491894532081
0.46  0.8  0.411267950081
0.46  0.82  0.343856895599
0.46  0.84  0.287495207511
0.46  0.86  0.240371780818
0.46  0.88  0.200972369292
0.46  0.9  0.168030927264
0.46  0.92  0.140488926993
0.46  0.94  0.117461344344
0.46  0.96  0.098208219753
0.46  0.98  0.0821108806556
0.48  -1  0.0598236098643
0.48  -0.98  0.071551664981
0.48  -0.96  0.0855789340223
0.48  -0.94  0.102356163904
0.48  -0.92  0.122422467735
0.48  -0.9  0.146422648473
0.48  -0.88  0.175127918775
0.48  -0.86  0.209460682855
0.48  -0.84  0.250524176664
0.48  -0.82  0.299637918859
0.48  -0.8  0.358380111705
0.48  -0.78  0.428638354435
0.48  -0.76  0.512670298635
0.48  -0.74  0.613176194765
0.48  -0.72  0.733385660974
0.48  -0.7  0.877161462421
0.48  -0.68  1.0491236359
0.48  -0.66  1.25479794833
0.48  -0.64  1.50079345967
0.48  -0.62  1.79501489588
0.48  -0.6  2.14691665644
0.48  -0.58  2.56780661836
0.48  -0.56  3.07120949922
0.48  -0.54  3.67330145529
0.48  -0.52  4.39342987993
0.48  -0.5  5.25473510541
0.48  -0.48  6.28489398549
0.48  -0.46  7.51700925289
0.48  -0.44  8.99067322989
0.48  -0.42  10.7532400729
0.48  -0.4  12.8613474329
0.48  -0.38  15.3827364282
0.48  -0.36  18.3984284115
0.48  -0.34  22.0053284792
0.48  -0.32  26.3193393831
0.48  -0.3  31.4790859049
0.48  -0.28  37.6503693724
0.48  -0.26  45.0314954556
0.48  -0.24  53.8596464464
0.48  -0.22  64.4185027829
0.48  -0.2  41.7855116952
0.48  -0.18  39.8704825767
0.48  -0.16  37.7298993466
0.48  -0.14  35.4221593872
0.48  -0.12  33.0204896343
0.48  -0.1  30.6165418304
0.48  -0.08  28.3242644988
0.48  -0.06  26.2820317662
0.48  -0.04  24.6482529527
0.48  -0.02  23.5830302572
0.48  6.17561557e-16  23.2118193505
0.48  0.02  23.5830302572
0.48  0.04  24.6482529527
0.48  0.06  26.2820317662
0.48  0.08  28.3242644988
0.48  0.1  30.6165418304
0.48  0.12  33.0204896343
0.48  0.14  35.4221593872
0.48  0.16  37.7298993466
0.48  0.18  39.8704825767
0.48  0.2  77.0473587294
0.48  0.22  64.4185027829
0.48  0.24  53.8596464464
0.48  0.26  45.0314954556
0.48  0.28  37.6503693724
0.48  0.3  31.4790859049
0.48  0.32  26.3193393831
0.48  0.34  22.0053284792
0.48  0.36  18.3984284115
0.48  0.38  15.3827364282
0.48  0.4  12.8613474329
0.48  0.42  10.7532400729
0.48  0.44  8.99067322989
0.48  0.46  7.51700925289
0.48  0.48  6.28489398549
0.48  0.5  5.25473510541
0.48  0.52  4.39342987993
0.48  0.54  3.67330145529
0.48  0.56  3.07120949922
0.48  0.58  2.56780661836
0.48  0.6  2.14691665644
0.48  0.62  1.79501489588
0.48  0.64  1.50079345967
0.48  0.66  1.25479794833
0.48  0.68  1.0491236359
0.48  0.7  0.877161462421
0.48  0.72  0.733385660974
0.48  0.74  0.613176194765
0.48  0.76  0.512670298635
0.48  0.78  0.428638354435
0.48  0.8  0.358380111705
0.48  0.82  0.299637918859
0.48  0.84  0.250524176664
0.48  0.86  0.209460682855
0.48  0.88  0.175127918775
0.48  0.9  0.146422648473
0.48  0.92  0.122422467735
0.48  0.94  0.102356163904
0.48  0.96  0.0855789340223
0.48  0.98  0.071551664981
0.5  -1  0.0521304710993
0.5  -0.98  0.0623503331187
0.5  -0.96  0.0745737369725
0.5  -0.94  0.0891934648602
0.5  -0.92  0.106679301544
0.5  -0.9  0.127593130234
0.5  -0.88  0.152606987929
0.5  -0.86  0.182524660394
0.5  -0.84  0.218307510712
0.5  -0.82  0.261105371354
0.5  -0.8  0.312293492456
0.5  -0.78  0.373516733588
0.5  -0.76  0.446742419041
0.5  -0.74  0.534323555073
0.5  -0.72  0.639074440523
0.5  -0.7  0.764361100408
0.5  -0.68  0.914209448493
0.5  -0.66  1.09343465447
0.5  -0.64  1.30779587278
0.5  -0.62  1.56418130509
0.5  -0.6  1.87082954314
0.5  -0.58  2.2375943045
0.5  -0.56  2.67626106821
0.5  -0.54  3.20092578479
0.5  -0.52  3.82844783025
0.5  -0.5  4.57899175875
0.5  -0.48  5.47667526277
0.5  -0.46  6.55034416179
0.5  -0.44  7.83449932289
0.5  -0.42  9.37040529846
0.5  -0.4  11.2074163056
0.5  -0.38  13.4045621556
0.5  -0.36  16.0324450957
0.5  -0.34  19.1755085144
0.5  -0.32  22.9347504134
0.5  -0.3  27.4309688386
0.5  -0.28  32.8086435589
0.5  -0.26  39.2405787236
0.5  -0.24  46.9334556852
0.5  -0.22  56.1344744192
0.5  -0.2  36.4120188457
0.5  -0.18  34.7432567911
0.5  -0.16  32.8779462144
0.5  -0.14  30.866974768
0.5  -0.12  28.7741526209
0.5  -0.1  26.6793453734
0.5  -0.08  24.6818481067
0.5  -0.06  22.9022404453
0.5  -0.04  21.4785607407
0.5  -0.02  20.550322524
0.5  6.17561557e-16  20.2268482387
0.5  0.02  20.550322524
0.5  0.04  21.4785607407
0.5  0.06  22.9022404453
0.5  0.08  24.6818481067
0.5  0.1  26.6793453734
0.5  0.12  28.7741526209
0.5  0.14  30.866974768
0.5  0.16  32.8779462144
0.5  0.18  34.7432567911
0.5  0.2  67.1392969538
0.5  0.22  56.1344744192
0.5  0.24  46.9334556852
0.5  0.26  39.2405787236
0.5  0.28  32.8086435589
0.5  0.3  27.4309688386
0.5  0.32  22.9347504134
0.5  0.34  19.1755085144
0.5  0.36  16.0324450957
0.5  0.38  13.4045621556
0.5  0.4  11.2074163056
0.5  0.42  9.37040529846
0.5  0.44  7.83449932289
0.5  0.46  6.55034416179
0.5  0.48  5.47667526277
0.5  0.5  4.57899175875
0.5  0.52  3.82844783025
0.5  0.54  3.20092578479
0.5  0.56  2.67626106821
0.5  0.58  2.2375943045
0.5  0.6  1.87082954314
0.5  0.62  1.56418130509
0.5  0.64  1.30779587278
0.5  0.66  1.09343465447
0.5  0.68  0.914209448493
0.5  0.7  0.764361100408
0.5  0.72  0.639074440523
0.5  0.74  0.534323555073
0.5  0.76  0.446742419041
0.5  0.78  0.373516733588
0.5  0.8  0.312293492456
0.5  0.82  0.261105371354
0.5  0.84  0.218307510712
0.5  0.86  0.182524660394
0.5  0.88  0.152606987929
0.5  0.9  0.127593130234
0.5  0.92  0.106679301544
0.5  0.94  0.0891934648602
0.5  0.96  0.0745737369725
0.5  0.98  0.0623503331187
0.52  -1  0.0454266471583
0.52  -0.98  0.0543322652387
0.52  -0.96  0.064983775617
0.52  -0.94  0.077723449867
0.52  -0.92  0.0929606598242
0.52  -0.9  0.111185032185
0.52  -0.88  0.132982181982
0.52  -0.86  0.159052530517
0.52  -0.84  0.190233812433
0.52  -0.82  0.227527995153
0.52  -0.8  0.272133475729
0.52  -0.78  0.325483589667
0.52  -0.76  0.38929266919
0.52  -0.74  0.465611130934
0.52  -0.72  0.556891363253
0.52  -0.7  0.666066530333
0.52  -0.68  0.796644825372
0.52  -0.66  0.952822201522
0.52  -0.64  1.13961720305
0.52  -0.62  1.36303222932
0.52  -0.6  1.63024641361
0.52  -0.58  1.94984631465
0.52  -0.56  2.33210183382
0.52  -0.54  2.78929622425
0.52  -0.52  3.33612079617
0.52  -0.5  3.99014700192
0.52  -0.48  4.77239107025
0.52  -0.46  5.70798933384
0.52  -0.44  6.8270059506
0.52  -0.42  8.1653989739
0.52  -0.4  9.76617581491
0.52  -0.38  11.6807752264
0.52  -0.36  13.9707202158
0.52  -0.34  16.7095950026
0.52  -0.32  19.985409545
0.52  -0.3  23.9034276185
0.52  -0.28  28.5895493224
0.52  -0.26  34.1943567049
0.52  -0.24  40.8979525097
0.52  -0.22  48.9157475289
0.52  -0.2  31.7295412365
0.52  -0.18  30.2753770318
0.52  -0.16  28.649939862
0.52  -0.14  26.8975733781
0.52  -0.12  25.0738819509
0.52  -0.1  23.2484607013
0.52  -0.08  21.5078356576
0.52  -0.06  19.9570802624
0.52  -0.04  18.7164815445
0.52  -0.02  17.9076120088
0.52  6.17561557e-16  17.6257355571
0.52  0.02  17.9076120088
0.52  0.04  18.7164815445
0.52  0.06  19.9570802624
0.52  0.08  21.5078356576
0.52  0.1  23.2484607013
0.52  0.12  25.0738819509
0.52  0.14  26.8975733781
0.52  0.16  28.649939862
0.52  0.18  30.2753770318
0.52  0.2  58.5053825308
0.52  0.22  48.9157475289
0.52  0.24  40.8979525097
0.52  0.26  34.1943567049
0.52  0.28  28.5895493224
0.52  0.3  23.9034276185
0.52  0.32  19.985409545
0.52  0.34  16.7095950026
0.52  0.36  13.9707202158
0.52  0.38  11.6807752264
0.52  0.4  9.7661758149
0.52  0.42  8.1653989739
0.52  0.44  6.8270059506
0.52  0.46  5.70798933384
0.52  0.48  4.77239107025
0.52  0.5  3.99014700192
0.52  0.52  3.33612079617
0.52  0.54  2.78929622425
0.52  0.56  2.33210183382
0.52  0.58  1.94984631465
0.52  0.6  1.63024641361
0.52  0.62  1.36303222932
0.52  0.64  1.13961720305
0.52  0.66  0.952822201522
0.52  0.68  0.796644825372
0.52  0.7  0.666066530333
0.52  0.72  0.556891363253
0.52  0.74  0.465611130934
0.52  0.76  0.38929266919
0.52  0.78  0.325483589667
0.52  0.8  0.272133475729
0.52  0.82  0.227527995153
0.52  0.84  0.190233812433
0.52  0.86  0.159052530517
0.52  0.88  0.132982181982
0.52  0.9  0.111185032185
0.52  0.92  0.0929606598242
0.52  0.94  0.077723449867
0.52  0.96  0.064983775617
0.52  0.98  0.0543322652387
0.54  -1  0.0395849150895
0.54  -0.98  0.0473452971028
0.54  -0.96  0.0566270548436
0.54  -0.94  0.0677284447766
0.54  -0.92  0.0810061947338
0.54  -0.9  0.0968869668702
0.54  -0.88  0.115881067864
0.54  -0.86  0.138598846914
0.54  -0.84  0.165770308472
0.54  -0.82  0.198268569926
0.54  -0.8  0.23713791802
0.54  -0.78  0.283627365566
0.54  -0.76  0.339230786749
0.54  -0.74  0.405734920707
0.54  -0.72  0.485276785928
0.54  -0.7  0.580412350384
0.54  -0.68  0.694198664034
0.54  -0.66  0.830292092904
0.54  -0.64  0.993065811351
0.54  -0.62  1.18775032799
0.54  -0.6  1.42060156086
0.54  -0.58  1.69910186271
0.54  -0.56  2.03220045605
0.54  -0.54  2.43060100411
0.54  -0.52  2.90710555821
0.54  -0.5  3.47702593404
0.54  -0.48  4.15867573567
0.54  -0.46  4.97395883796
0.54  -0.44  5.94907323731
0.54  -0.42  7.11535288809
0.54  -0.4  8.51027457596
0.54  -0.38  10.1786621827
0.54  -0.36  12.1741270395
0.54  -0.34  14.5607906534
0.54  -0.32  17.4153451632
0.54  -0.3  20.8295177351
0.54  -0.28  24.9130180889
0.54  -0.26  29.7970638684
0.54  -0.24  35.6385971386
0.54  -0.22  42.6253275027
0.54  -0.2  27.6492163576
0.54  -0.18  26.3820533558
0.54  -0.16  24.9656425843
0.54  -0.14  23.4386252319
0.54  -0.12  21.8494551123
0.54  -0.1  20.2587776204
0.54  -0.08  18.7419917939
0.54  -0.06  17.3906589423
0.54  -0.04  16.3095975393
0.54  -0.02  15.6047462265
0.54  6.17561557e-16  15.3591182503
0.54  0.02  15.6047462265
0.54  0.04  16.3095975393
0.54  0.06  17.3906589423
0.54  0.08  18.7419917939
0.54  0.1  20.2587776204
0.54  0.12  21.8494551123
0.54  0.14  23.4386252319
0.54  0.16  24.9656425843
0.54  0.18  26.3820533558
0.54  0.2  50.9817638905
0.54  0.22  42.6253275027
0.54  0.24  35.6385971386
0.54  0.26  29.7970638684
0.54  0.28  24.9130180889
0.54  0.3  20.8295177351
0.54  0.32  17.4153451632
0.54  0.34  14.5607906534
0.54  0.36  12.1741270395
0.54  0.38  10.1786621827
0.54  0.4  8.51027457596
0.54  0.42  7.11535288809
0.54  0.44  5.94907323731
0.54  0.46  4.97395883796
0.54  0.48  4.15867573566
0.54  0.5  3.47702593404
0.54  0.52  2.90710555821
0.54  0.54  2.43060100411
0.54  0.56  2.03220045605
0.54  0.58  1.69910186271
0.54  0.6  1.42060156086
0.54  0.62  1.18775032799
0.54  0.64  0.993065811351
0.54  0.66  0.830292092904
0.54  0.68  0.694198664034
0.54  0.7  0.580412350384
0.54  0.72  0.485276785928
0.54  0.74  0.405734920707
0.54  0.76  0.339230786749
0.54  0.78  0.283627365566
0.54  0.8  0.23713791802
0.54  0.82  0.198268569926
0.54  0.84  0.165770308472
0.54  0.86  0.138598846914
0.54  0.88  0.115881067864
0.54  0.9  0.0968869668702
0.54  0.92  0.0810061947338
0.54  0.94  0.0677284447766
0.54  0.96  0.0566270548436
0.54  0.98  0.0473452971028
0.56  -1  0.0344944124356
0.56  -0.98  0.0412568323428
0.56  -0.96  0.0493449835719
0.56  -0.94  0.0590187676913
0.56  -0.92  0.0705890383917
0.56  -0.9  0.0844275903409
0.56  -0.88  0.100979106291
0.56  -0.86  0.120775446347
0.56  -0.84  0.144452738552
0.56  -0.82  0.172771819987
0.56  -0.8  0.20664268522
0.56  -0.78  0.24715372772
0.56  -0.76  0.295606713883
0.56  -0.74  0.353558613496
0.56  -0.72  0.422871630806
0.56  -0.7  0.505773043887
0.56  -0.68  0.604926775144
0.56  -0.66  0.723518992774
0.56  -0.64  0.865360493889
0.56  -0.62  1.03500915921
0.56  -0.6  1.23791641427
0.56  -0.58  1.48060240346
0.56  -0.56  1.77086550582
0.56  -0.54  2.11803292524
0.56  -0.52  2.5332604072
0.56  -0.5  3.02989071334
0.56  -0.48  3.62388237255
0.56  -0.46  4.33432248639
0.56  -0.44  5.18404006661
0.56  -0.42  6.200339614
0.56  -0.4  7.41587851078
0.56  -0.38  8.86971642044
0.56  -0.36  10.6085704161
0.56  -0.34  12.6883161692
0.56  -0.32  15.1757834369
0.56  -0.3  18.150903544
0.56  -0.28  21.7092778659
0.56  -0.26  25.9652498464
0.56  -0.24  31.0555792667
0.56  -0.22  37.1438368316
0.56  -0.2  24.0936091539
0.56  -0.18  22.9893995553
0.56  -0.16  21.7551350072
0.56  -0.14  20.4244875566
0.56  -0.12  19.0396800002
0.56  -0.1  17.6535589151
0.56  -0.08  16.3318272463
0.56  -0.06  15.1542717908
0.56  -0.04  14.2122316773
0.56  -0.02  13.5980221524
0.56  6.17561557e-16  13.3839812053
0.56  0.02  13.5980221524
0.56  0.04  14.2122316773
0.56  0.06  15.1542717908
0.56  0.08  16.3318272463
0.56  0.1  17.6535589151
0.56  0.12  19.0396800002
0.56  0.14  20.4244875566
0.56  0.16  21.7551350072
0.56  0.18  22.9893995553
0.56  0.2  44.4256602889
0.56  0.22  37.1438368316
0.56  0.24  31.0555792667
0.56  0.26  25.9652498464
0.56  0.28  21.7092778659
0.56  0.3  18.150903544
0.56  0.32  15.1757834369
0.56  0.34  12.6883161692
0.56  0.36  10.6085704161
0.56  0.38  8.86971642044
0.56  0.4  7.41587851078
0.56  0.42  6.200339614
0.56  0.44  5.18404006661
0.56  0.46  4.33432248639
0.56  0.48  3.62388237255
0.56  0.5  3.02989071334
0.56  0.52  2.5332604072
0.56  0.54  2.11803292524
0.56  0.56  1.77086550582
0.56  0.58  1.48060240346
0.56  0.6  1.23791641427
0.56  0.62  1.03500915921
0.56  0.64  0.865360493889
0.56  0.66  0.723518992774
0.56  0.68  0.604926775144
0.56  0.7  0.505773043887
0.56  0.72  0.422871630806
0.56  0.74  0.353558613496
0.56  0.76  0.295606713883
0.56  0.78  0.24715372772
0.56  0.8  0.20664268522
0.56  0.82  0.172771819987
0.56  0.84  0.144452738552
0.56  0.86  0.120775446347
0.56  0.88  0.100979106291
0.56  0.9  0.0844275903409
0.56  0.92  0.0705890383917
0.56  0.94  0.0590187676913
0.56  0.96  0.0493449835719
0.56  0.98  0.0412568323428
0.58  -1  0.0300585333223
0.58  -0.98  0.0359513260897
0.58  -0.96  0.0429993650639
0.58  -0.94  0.0514291292423
0.58  -0.92  0.0615114974532
0.58  -0.9  0.0735704526731
0.58  -0.88  0.0879934927717
0.58  -0.86  0.105244082221
0.58  -0.84  0.125876544886
0.58  -0.82  0.150553876455
0.58  -0.8  0.180069048895
0.58  -0.78  0.215370491504
0.58  -0.76  0.25759256738
0.58  -0.74  0.308092024613
0.58  -0.72  0.368491593511
0.58  -0.7  0.440732130793
0.58  -0.68  0.527134986344
0.58  -0.66  0.630476596585
0.58  -0.64  0.754077701422
0.58  -0.62  0.901910051637
0.58  -0.6  1.07872403561
0.58  -0.58  1.2902013265
0.58  -0.56  1.54313745495
0.58  -0.54  1.84566017409
0.58  -0.52  2.20749063362
0.58  -0.5  2.64025575561
0.58  -0.48  3.1578618495
0.58  -0.46  3.77694147218
0.58  -0.44  4.51738789223
0.58  -0.42  5.40299433263
0.58  -0.4  6.46221853311
0.58  -0.38  7.72909720032
0.58  -0.36  9.24433973038
0.58  -0.34  11.0566363491
0.58  -0.32  13.2242227051
0.58  -0.3  15.816751192
0.58  -0.28  18.9175291318
0.58  -0.26  22.6261957407
0.58  -0.24  27.0619238977
0.58  -0.22  32.3672496004
0.58  -0.2  20.9952424892
0.58  -0.18  20.0330309693
0.58  -0.16  18.9574891808
0.58  -0.14  17.797959045
0.58  -0.12  16.5912336324
0.58  -0.1  15.3833636069
0.58  -0.08  14.23160271
0.58  -0.06  13.2054773928
0.58  -0.04  12.3845808435
0.58  -0.02  11.8493568415
0.58  6.17561557e-16  11.6628409252
0.58  0.02  11.8493568415
0.58  0.04  12.3845808435
0.58  0.06  13.2054773928
0.58  0.08  14.23160271
0.58  0.1  15.3833636069
0.58  0.12  16.5912336324
0.58  0.14  17.797959045
0.58  0.16  18.9574891808
0.58  0.18  20.0330309693
0.58  0.2  38.7126521622
0.58  0.22  32.3672496004
0.58  0.24  27.0619238977
0.58  0.26  22.6261957407
0.58  0.28  18.9175291318
0.58  0.3  15.816751192
0.58  0.32  13.2242227051
0.58  0.34  11.0566363491
0.58  0.36  9.24433973038
0.58  0.38  7.72909720032
0.58  0.4  6.46221853311
0.58  0.42  5.40299433263
0.58  0.44  4.51738789223
0.58  0.46  3.77694147218
0.58  0.48  3.1578618495
0.58  0.5  2.64025575561
0.58  0.52  2.20749063362
0.58  0.54  1.84566017409
0.58  0.56  1.54313745495
0.58  0.58  1.2902013265
0.58  0.6  1.07872403561
0.58  0.62  0.901910051637
0.58  0.64  0.754077701422
0.58  0.66  0.630476596585
0.58  0.68  0.527134986344
0.58  0.7  0.440732130793
0.58  0.72  0.368491593511
0.58  0.74  0.308092024613
0.58  0.76  0.25759256738
0.58  0.78  0.215370491504
0.58  0.8  0.180069048895
0.58  0.82  0.150553876455
0.58  0.84  0.125876544886
0.58  0.86  0.105244082221
0.58  0.88  0.0879934927717
0.58  0.9  0.0735704526731
0.58  0.92  0.0615114974532
0.58  0.94  0.0514291292423
0.58  0.96  0.0429993650639
0.58  0.98  0.0359513260897
0.6  -1  0.0261930951041
0.6  -0.98  0.0313280922023
0.6  -0.96  0.0374697742721
0.6  -0.94  0.0448154957836
0.6  -0.92  0.0536013013514
0.6  -0.9  0.0641095107023
0.6  -0.88  0.0766777906293
0.6  -0.86  0.0917100054484
0.6  -0.84  0.10968919462
0.6  -0.82  0.131193094554
0.6  -0.8  0.156912703373
0.6  -0.78  0.187674485182
0.6  -0.76  0.22446692735
0.6  -0.74  0.268472304187
0.6  -0.72  0.321104667696
0.6  -0.7  0.384055286182
0.6  -0.68  0.459346990819
0.6  -0.66  0.54939917654
0.6  -0.64  0.657105545952
0.6  -0.62  0.785927094466
0.6  -0.6  0.940003324612
0.6  -0.58  1.12428526323
0.6  -0.56  1.34469455588
0.6  -0.54  1.60831375075
0.6  -0.52  1.92361388655
0.6  -0.5  2.30072669762
0.6  -0.48  2.75177018329
0.6  -0.46  3.29123800296
0.6  -0.44  3.93646520988
0.6  -0.42  4.70818528915
0.6  -0.4  5.63119639959
0.6  -0.38  6.73515822833
0.6  -0.36  8.05554506391
0.6  -0.34  9.63478571353
0.6  -0.32  11.5236268942
0.6  -0.3  13.7827639082
0.6  -0.28  16.4847910033
0.6  -0.26  19.7165340879
0.6  -0.24  23.5818407623
0.6  -0.22  28.2049173175
0.6  -0.2  18.2953165864
0.6  -0.18  17.4568426136
0.6  -0.16  16.5196123085
0.6  -0.14  15.5091943085
0.6  -0.12  14.4576502043
0.6  -0.1  13.405108681
0.6  -0.08  12.4014608188
0.6  -0.06  11.5072921735
0.6  -0.04  10.7919604852
0.6  -0.02  10.3255647022
0.6  6.17561557e-16  10.1630341794
0.6  0.02  10.3255647022
0.6  0.04  10.7919604852
0.6  0.06  11.5072921735
0.6  0.08  12.4014608188
0.6  0.1  13.405108681
0.6  0.12  14.4576502043
0.6  0.14  15.5091943085
0.6  0.16  16.5196123085
0.6  0.18  17.4568426136
0.6  0.2  33.7343199332
0.6  0.22  28.2049173175
0.6  0.24  23.5818407623
0.6  0.26  19.7165340879
0.6  0.28  16.4847910033
0.6  0.3  13.7827639082
0.6  0.32  11.5236268942
0.6  0.34  9.63478571353
0.6  0.36  8.05554506391
0.6  0.38  6.73515822833
0.6  0.4  5.63119639959
0.6  0.42  4.70818528915
0.6  0.44  3.93646520988
0.6  0.46  3.29123800296
0.6  0.48  2.75177018329
0.6  0.5  2.30072669762
0.6  0.52  1.92361388655
0.6  0.54  1.60831375075
0.6  0.56  1.34469455588
0.6  0.58  1.12428526323
0.6  0.6  0.940003324612
0.6  0.62  0.785927094466
0.6  0.64  0.657105545952
0.6  0.66  0.54939917654
0.6  0.68  0.459346990819
0.6  0.7  0.384055286182
0.6  0.72  0.321104667696
0.6  0.74  0.268472304187
0.6  0.76  0.22446692735
0.6  0.78  0.187674485182
0.6  0.8  0.156912703373
0.6  0.82  0.131193094554
0.6  0.84  0.10968919462
0.6  0.86  0.0917100054484
0.6  0.88  0.0766777906293
0.6  0.9  0.0641095107023
0.6  0.92  0.0536013013514
0.6  0.94  0.0448154957836
0.6  0.96  0.0374697742721
0.6  0.98  0.0313280922023
0.62  -1  0.0228247407742
0.62  -0.98  0.0272993924783
0.62  -0.96  0.0326512724528
0.62  -0.94  0.0390523559686
0.62  -0.92  0.0467083330031
0.62  -0.9  0.0558652178035
0.62  -0.88  0.0668172542151
0.62  -0.86  0.0799163708007
0.62  -0.84  0.0955834895788
0.62  -0.82  0.114322051771
0.62  -0.8  0.136734195192
0.62  -0.78  0.163540103114
0.62  -0.76  0.195601146362
0.62  -0.74  0.233947562278
0.62  -0.72  0.279811559971
0.62  -0.7  0.334666915659
0.62  -0.68  0.400276330428
0.62  -0.66  0.478748072201
0.62  -0.64  0.572603722012
0.62  -0.62  0.684859201529
0.62  -0.6  0.819121685538
0.62  -0.58  0.979705513513
0.62  -0.56  1.17177082496
0.62  -0.54  1.40148937339
0.62  -0.52  1.67624284704
0.62  -0.5  2.0048600693
0.62  -0.48  2.3979007007
0.62  -0.46  2.86799455906
0.62  -0.44  3.43024746121
0.62  -0.42  4.10272662756
0.62  -0.4  4.90704124725
0.62  -0.38  5.86903685966
0.62  -0.36  7.01962586505
0.62  -0.34  8.39578085186
0.62  -0.32  10.0417226598
0.62  -0.3  12.0103413555
0.62  -0.28  14.3648957815
0.62  -0.26  17.1810462923
0.62  -0.24  20.5492859945
0.62  -0.22  24.5778486189
0.62  -0.2  15.9425931455
0.62  -0.18  15.2119444383
0.62  -0.16  14.3952391702
0.62  -0.14  13.5147579276
0.62  -0.12  12.5984392759
0.62  -0.1  11.6812514702
0.62  -0.08  10.8066697458
0.62  -0.06  10.0274885357
0.62  -0.04  9.40414638062
0.62  -0.02  8.99772771171
0.62  6.17561557e-16  8.85609813205
0.62  0.02  8.99772771171
0.62  0.04  9.40414638062
0.62  0.06  10.0274885357
0.62  0.08  10.8066697458
0.62  0.1  11.6812514702
0.62  0.12  12.5984392759
0.62  0.14  13.5147579276
0.62  0.16  14.3952391702
0.62  0.18  15.2119444383
0.62  0.2  29.3961864609
0.62  0.22  24.5778486189
0.62  0.24  20.5492859945
0.62  0.26  17.1810462923
0.62  0.28  14.3648957815
0.62  0.3  12.0103413555
0.62  0.32  10.0417226598
0.62  0.34  8.39578085186
0.62  0.36  7.01962586505
0.62  0.38  5.86903685966
0.62  0.4  4.90704124725
0.62  0.42  4.10272662756
0.62  0.44  3.43024746121
0.62  0.46  2.86799455906
0.62  0.48  2.3979007007
0.62  0.5  2.0048600693
0.62  0.52  1.67624284704
0.62  0.54  1.40148937339
0.62  0.56  1.17177082496
0.62  0.58  0.979705513513
0.62  0.6  0.819121685538
0.62  0.62  0.684859201529
0.62  0.64  0.572603722012
0.62  0.66  0.478748072201
0.62  0.68  0.400276330428
0.62  0.7  0.334666915659
0.62  0.72  0.279811559971
0.62  0.74  0.233947562278
0.62  0.76  0.195601146362
0.62  0.78  0.163540103114
0.62  0.8  0.136734195192
0.62  0.82  0.114322051771
0.62  0.84  0.0955834895788
0.62  0.86  0.0799163708007
0.62  0.88  0.0668172542151
0.62  0.9  0.0558652178035
0.62  0.92  0.0467083330031
0.62  0.94  0.0390523559686
0.62  0.96  0.0326512724528
0.62  0.98  0.0272993924783
0.64  -1  0.019889546819
0.64  -0.98  0.0237887715878
0.64  -0.96  0.0284524156737
0.64  -0.94  0.0340303388378
0.64  -0.92  0.0407017799367
0.64  -0.9  0.0486811165152
0.64  -0.88  0.0582247535329
0.64  -0.86  0.0696393625835
0.64  -0.84  0.0832917363624
0.64  -0.82  0.0996205750441
0.64  -0.8  0.119150583305
0.64  -0.78  0.142509330987
0.64  -0.76  0.170447419181
0.64  -0.74  0.203862599762
0.64  -0.72  0.243828623405
0.64  -0.7  0.291629743077
0.64  -0.68  0.348801981734
0.64  -0.66  0.417182490297
0.64  -0.64  0.49896858196
0.64  -0.62  0.596788339812
0.64  -0.6  0.71378506666
0.64  -0.58  0.853718290721
0.64  -0.56  1.02108457287
0.64  -0.54  1.22126199741
0.64  -0.52  1.46068298939
0.64  -0.5  1.7470410117
0.64  -0.48  2.08953778384
0.64  -0.46  2.49917896652
0.64  -0.44  2.98912781335
0.64  -0.42  3.57512815378
0.64  -0.4  4.27601029934
0.64  -0.38  5.1142961297
0.64  -0.36  6.11692280216
0.64  -0.34  7.31610833996
0.64  -0.32  8.75038691402
0.64  -0.3  10.4658470852
0.64  -0.28  12.5176127968
0.64  -0.26  14.9716147058
0.64  -0.24  17.906708774
0.64  -0.22  21.4172101954
0.64  -0.2  13.8924229598
0.64  -0.18  13.255733509
0.64  -0.16  12.5440541157
0.64  -0.14  11.776800149
0.64  -0.12  10.9783173576
0.64  -0.1  10.179077183
0.64  -0.08  9.41696407389
0.64  -0.06  8.73798325608
0.64  -0.04  8.19480105298
0.64  -0.02  7.84064661927
0.64  6.17561557e-16  7.71723018342
0.64  0.02  7.84064661927
0.64  0.04  8.19480105298
0.64  0.06  8.73798325608
0.64  0.08  9.41696407389
0.64  0.1  10.179077183
0.64  0.12  10.9783173576
0.64  0.14  11.776800149
0.64  0.16  12.5440541157
0.64  0.18  13.255733509
0.64  0.2  25.6159240843
0.64  0.22  21.4172101954
0.64  0.24  17.906708774
0.64  0.26  14.9716147058
0.64  0.28  12.5176127968
0.64  0.3  10.4658470852
0.64  0.32  8.75038691402
0.64  0.34  7.31610833996
0.64  0.36  6.11692280216
0.64  0.38  5.1142961297
0.64  0.4  4.27601029934
0.64  0.42  3.57512815378
0.64  0.44  2.98912781335
0.64  0.46  2.49917896652
0.64  0.48  2.08953778384
0.64  0.5  1.7470410117
0.64  0.52  1.46068298939
0.64  0.54  1.22126199741
0.64  0.56  1.02108457287
0.64  0.58  0.853718290721
0.64  0.6  0.71378506666
0.64  0.62  0.596788339812
0.64  0.64  0.49896858196
0.64  0.66  0.417182490297
0.64  0.68  0.348801981734
0.64  0.7  0.291629743077
0.64  0.72  0.243828623405
0.64  0.74  0.203862599762
0.64  0.76  0.170447419181
0.64  0.78  0.142509330987
0.64  0.8  0.119150583305
0.64  0.82  0.0996205750441
0.64  0.84  0.0832917363624
0.64  0.86  0.0696393625835
0.64  0.88  0.0582247535329
0.64  0.9  0.0486811165152
0.64  0.92  0.0407017799367
0.64  0.94  0.0340303388378
0.64  0.96  0.0284524156737
0.64  0.98  0.0237887715878
0.66  -1  0.0173318100994
0.66  -0.98  0.0207296061298
0.66  -0.96  0.0247935194207
0.66  -0.94  0.0296541382125
0.66  -0.92  0.0354676517766
0.66  -0.9  0.0424208693414
0.66  -0.88  0.0507372229493
0.66  -0.86  0.0606839471368
0.66  -0.84  0.0725806661468
0.66  -0.82  0.0868096646127
0.66  -0.8  0.103828171746
0.66  -0.78  0.124183053768
0.66  -0.76  0.148528386697
0.66  -0.74  0.17764647418
0.66  -0.72  0.21247298574
0.66  -0.7  0.254127023222
0.66  -0.68  0.303947081586
0.66  -0.66  0.363534059595
0.66  -0.64  0.434802702484
0.66  -0.62  0.520043129654
0.66  -0.6  0.621994424494
0.66  -0.58  0.743932651045
0.66  -0.56  0.889776125794
0.66  -0.54  1.06421132736
0.66  -0.52  1.27284349
0.66  -0.5  1.5223767201
0.66  -0.48  1.82082942334
0.66  -0.46  2.17779196511
0.66  -0.44  2.60473484365
0.66  -0.42  3.11537727863
0.66  -0.4  3.72612805941
0.66  -0.38  4.45661281871
0.66  -0.36  5.33030467533
0.66  -0.34  6.3752785103
0.66  -0.32  7.62511311444
0.66  -0.3  9.11997019646
0.66  -0.28  10.9078849239
0.66  -0.26  13.0463094671
0.66  -0.24  15.603959145
0.66  -0.22  18.6630204973
0.66  -0.2  12.1058985783
0.66  -0.18  11.5510855022
0.66  -0.16  10.9309259677
0.66  -0.14  10.2623385851
0.66  -0.12  9.56653831203
0.66  -0.1  8.87007805295
0.66  -0.08  8.20597042892
0.66  -0.06  7.61430453012
0.66  -0.04  7.14097394702
0.66  -0.02  6.83236272291
0.66  6.17561557e-16  6.7248172746
0.66  0.02  6.83236272291
0.66  0.04  7.14097394702
0.66  0.06  7.61430453012
0.66  0.08  8.20597042892
0.66  0.1  8.87007805295
0.66  0.12  9.56653831203
0.66  0.14  10.2623385851
0.66  0.16  10.9309259677
0.66  0.18  11.5510855022
0.66  0.2  22.3217922353
0.66  0.22  18.6630204973
0.66  0.24  15.603959145
0.66  0.26  13.0463094671
0.66  0.28  10.9078849239
0.66  0.3  9.11997019646
0.66  0.32  7.62511311444
0.66  0.34  6.3752785103
0.66  0.36  5.33030467533
0.66  0.38  4.45661281871
0.66  0.4  3.72612805941
0.66  0.42  3.11537727863
0.66  0.44  2.60473484365
0.66  0.46  2.17779196511
0.66  0.48  1.82082942334
0.66  0.5  1.5223767201
0.66  0.52  1.27284349
0.66  0.54  1.06421132736
0.66  0.56  0.889776125794
0.66  0.58  0.743932651045
0.66  0.6  0.621994424494
0.66  0.62  0.520043129654
0.66  0.64  0.434802702484
0.66  0.66  0.363534059595
0.66  0.68  0.303947081586
0.66  0.7  0.254127023222
0.66  0.72  0.21247298574
0.66  0.74  0.17764647418
0.66  0.76  0.148528386697
0.66  0.78  0.124183053768
0.66  0.8  0.103828171746
0.66  0.82  0.0868096646127
0.66  0.84  0.0725806661468
0.66  0.86  0.0606839471368
0.66  0.88  0.0507372229493
0.66  0.9  0.0424208693414
0.66  0.92  0.0354676517766
0.66  0.94  0.0296541382125
0.66  0.96  0.0247935194207
0.66  0.98  0.0207296061298
0.68  -1  0.0151029907345
0.68  -0.98  0.0180638402748
0.68  -0.96  0.0216051463719
0.68  -0.94  0.0258407040059
0.68  -0.92  0.030906616971
0.68  -0.9  0.0369656713834
0.68  -0.88  0.0442125665874
0.68  -0.86  0.0528801715508
0.68  -0.84  0.0632470077871
0.68  -0.82  0.0756461992598
0.68  -0.8  0.0904761768607
0.68  -0.78  0.108213481436
0.68  -0.76  0.12942807677
0.68  -0.74  0.15480166458
0.68  -0.72  0.185149590064
0.68  -0.7  0.22144704189
0.68  -0.68  0.264860388537
0.68  -0.66  0.316784657936
0.68  -0.64  0.378888364764
0.68  -0.62  0.453167125861
0.68  -0.6  0.542007786618
0.68  -0.58  0.648265118958
0.68  -0.56  0.775353555491
0.68  -0.54  0.927356907586
0.68  -0.52  1.10915959301
0.68  -0.5  1.32660358995
0.68  -0.48  1.5866761609
0.68  -0.46  1.89773437871
0.68  -0.44  2.26977366956
0.68  -0.42  2.71474900221
0.68  -0.4  3.24695904433
0.68  -0.38  3.88350563054
0.68  -0.36  4.64484330616
0.68  -0.34  5.5554366058
0.68  -0.32  6.64454618743
0.68  -0.3  7.94716908311
0.68  -0.28  9.50516328039
0.68  -0.26  11.3685927708
0.68  -0.24  13.5973362873
0.68  -0.22  16.2630114243
0.68  -0.2  10.5491159327
0.68  -0.18  10.0656501723
0.68  -0.16  9.52524131425
0.68  -0.14  8.94263228574
0.68  -0.12  8.33630986374
0.68  -0.1  7.72941232796
0.68  -0.08  7.15070697435
0.68  -0.06  6.63512755498
0.68  -0.04  6.22266588076
0.68  -0.02  5.95374114459
0.68  6.17561557e-16  5.8600257219
0.68  0.02  5.95374114459
0.68  0.04  6.22266588076
0.68  0.06  6.63512755498
0.68  0.08  7.15070697435
0.68  0.1  7.72941232796
0.68  0.12  8.33630986374
0.68  0.14  8.94263228574
0.68  0.16  9.52524131425
0.68  0.18  10.0656501723
0.68  0.2  19.4512759703
0.68  0.22  16.2630114243
0.68  0.24  13.5973362873
0.68  0.26  11.3685927708
0.68  0.28  9.50516328039
0.68  0.3  7.94716908311
0.68  0.32  6.64454618743
0.68  0.34  5.5554366058
0.68  0.36  4.64484330616
0.68  0.38  3.88350563054
0.68  0.4  3.24695904433
0.68  0.42  2.71474900221
0.68  0.44  2.26977366956
0.68  0.46  1.89773437871
0.68  0.48  1.5866761609
0.68  0.5  1.32660358995
0.68  0.52  1.10915959301
0.68  0.54  0.927356907586
0.68  0.56  0.775353555491
0.68  0.58  0.648265118958
0.68  0.6  0.542007786618
0.68  0.62  0.453167125861
0.68  0.64  0.378888364764
0.68  0.66  0.316784657936
0.68  0.68  0.264860388537
0.68  0.7  0.22144704189
0.68  0.72  0.185149590064
0.68  0.74  0.15480166458
0.68  0.76  0.12942807677
0.68  0.78  0.108213481436
0.68  0.8  0.0904761768607
0.68  0.82  0.0756461992598
0.68  0.84  0.0632470077871
0.68  0.86  0.0528801715508
0.68  0.88  0.0442125665874
0.68  0.9  0.0369656713834
0.68  0.92  0.030906616971
0.68  0.94  0.0258407040059
0.68  0.96  0.0216051463719
0.68  0.98  0.0180638402748
0.7  -1  0.0131607909283
0.7  -0.98  0.0157408840009
0.7  -0.96  0.018826788639
0.7  -0.94  0.0225176661258
0.7  -0.92  0.0269321177114
0.7  -0.9  0.0322119957002
0.7  -0.88  0.0385269616785
0.7  -0.86  0.0460799383556
0.7  -0.84  0.0551136302046
0.7  -0.82  0.0659183224355
0.7  -0.8  0.0788412089093
0.7  -0.78  0.0942975487332
0.7  -0.76  0.112784010039
0.7  -0.74  0.134894629726
0.7  -0.72  0.161339902018
0.7  -0.7  0.192969609214
0.7  -0.68  0.230800128266
0.7  -0.66  0.276047090651
0.7  -0.64  0.330164445008
0.7  -0.62  0.394891177772
0.7  -0.6  0.472307193097
0.7  -0.58  0.564900147705
0.7  -0.56  0.675645388301
0.7  -0.54  0.808101560226
0.7  -0.52  0.966524959612
0.7  -0.5  1.15600630358
0.7  -0.48  1.3826343134
0.7  -0.46  1.65369136714
0.7  -0.44  1.97788750882
0.7  -0.42  2.36564033368
0.7  -0.4  2.82940974317
0.7  -0.38  3.38409832667
0.7  -0.36  4.04753023567
0.7  -0.34  4.84102393821
0.7  -0.32  5.79007725842
0.7  -0.3  6.92518671389
0.7  -0.28  8.28282747911
0.7  -0.26  9.90662546485
0.7  -0.24  11.8487591765
0.7  -0.22  14.1716363985
0.7  -0.2  9.19253091715
0.7  -0.18  8.77123741936
0.7  -0.16  8.30032353737
0.7  -0.14  7.79263630165
0.7  -0.12  7.26428514449
0.7  -0.1  6.73543283149
0.7  -0.08  6.23114726965
0.7  -0.06  5.78186983417
0.7  -0.04  5.42244950771
0.7  -0.02  5.18810769486
0.7  6.17561557e-16  5.10644379753
0.7  0.02  5.18810769486
0.7  0.04  5.42244950771
0.7  0.06  5.78186983417
0.7  0.08  6.23114726965
0.7  0.1  6.73543283149
0.7  0.12  7.26428514449
0.7  0.14  7.79263630165
0.7  0.16  8.30032353737
0.7  0.18  8.77123741936
0.7  0.2  16.9498995817
0.7  0.22  14.1716363985
0.7  0.24  11.8487591765
0.7  0.26  9.90662546485
0.7  0.28  8.28282747911
0.7  0.3  6.92518671389
0.7  0.32  5.79007725842
0.7  0.34  4.84102393821
0.7  0.36  4.04753023567
0.7  0.38  3.38409832667
0.7  0.4  2.82940974317
0.7  0.42  2.36564033368
0.7  0.44  1.97788750882
0.7  0.46  1.65369136714
0.7  0.48  1.3826343134
0.7  0.5  1.15600630358
0.7  0.52  0.966524959612
0.7  0.54  0.808101560226
0.7  0.56  0.675645388301
0.7  0.58  0.564900147705
0.7  0.6  0.472307193097
0.7  0.62  0.394891177772
0.7  0.64  0.330164445008
0.7  0.66  0.276047090651
0.7  0.68  0.230800128266
0.7  0.7  0.192969609214
0.7  0.72  0.161339902018
0.7  0.74  0.134894629726
0.7  0.76  0.112784010039
0.7  0.78  0.0942975487332
0.7  0.8  0.0788412089093
0.7  0.82  0.0659183224355
0.7  0.84  0.0551136302046
0.7  0.86  0.0460799383556
0.7  0.88  0.0385269616785
0.7  0.9  0.0322119957002
0.7  0.92  0.0269321177114
0.7  0.94  0.0225176661258
0.7  0.96  0.018826788639
0.7  0.98  0.0157408840009
0.72  -1  0.0114683522557
0.72  -0.98  0.0137166530129
0.72  -0.96  0.0164057194687
0.72  -0.94  0.0196219610595
0.72  -0.92  0.0234687272665
0.72  -0.9  0.0280696286084
0.72  -0.88  0.0335725086949
0.72  -0.86  0.0401541949768
0.72  -0.84  0.048026180852
0.72  -0.82  0.0574414217136
0.72  -0.8  0.0687024633219
0.72  -0.78  0.0821711636949
0.72  -0.76  0.0982803209157
0.72  -0.74  0.117547580501
0.72  -0.72  0.140592069225
0.72  -0.7  0.168154289904
0.72  -0.68  0.201119916428
0.72  -0.66  0.240548253673
0.72  -0.64  0.287706276796
0.72  -0.62  0.344109343735
0.72  -0.6  0.411569889139
0.72  -0.58  0.492255664457
0.72  -0.56  0.588759395632
0.72  -0.54  0.704182096772
0.72  -0.52  0.842232716952
0.72  -0.5  1.00734732217
0.72  -0.48  1.20483164221
0.72  -0.46  1.44103156291
0.72  -0.44  1.72353704249
0.72  -0.42  2.06142600432
0.72  -0.4  2.46555604349
0.72  -0.38  2.94891332061
0.72  -0.36  3.52702985415
0.72  -0.34  4.2184826204
0.72  -0.32  5.04549049895
0.72  -0.3  6.03462824569
0.72  -0.28  7.21768043587
0.72  -0.26  8.63266281756
0.72  -0.24  10.3250438952
0.72  -0.22  12.349205997
0.72  -0.2  8.01039871037
0.72  -0.18  7.64328230665
0.72  -0.16  7.23292655294
0.72  -0.14  6.7905263897
0.72  -0.12  6.33011962404
0.72  -0.1  5.86927614967
0.72  -0.08  5.42984021514
0.72  -0.06  5.03833852511
0.72  -0.04  4.72513858643
0.72  -0.02  4.52093243555
0.72  6.17561557e-16  4.44977027317
0.72  0.02  4.52093243555
0.72  0.04  4.72513858643
0.72  0.06  5.03833852511
0.72  0.08  5.42984021514
0.72  0.1  5.86927614967
0.72  0.12  6.33011962404
0.72  0.14  6.7905263897
0.72  0.16  7.23292655294
0.72  0.18  7.64328230665
0.72  0.2  14.7701927765
0.72  0.22  12.349205997
0.72  0.24  10.3250438952
0.72  0.26  8.63266281756
0.72  0.28  7.21768043587
0.72  0.3  6.03462824569
0.72  0.32  5.04549049895
0.72  0.34  4.2184826204
0.72  0.36  3.52702985415
0.72  0.38  2.94891332061
0.72  0.4  2.46555604349
0.72  0.42  2.06142600432
0.72  0.44  1.72353704249
0.72  0.46  1.44103156291
0.72  0.48  1.20483164221
0.72  0.5  1.00734732217
0.72  0.52  0.842232716952
0.72  0.54  0.704182096772
0.72  0.56  0.588759395632
0.72  0.58  0.492255664457
0.72  0.6  0.411569889139
0.72  0.62  0.344109343735
0.72  0.64  0.287706276796
0.72  0.66  0.240548253673
0.72  0.68  0.201119916428
0.72  0.7  0.168154289904
0.72  0.72  0.140592069225
0.72  0.74  0.117547580501
0.72  0.76  0.0982803209157
0.72  0.78  0.0821711636949
0.72  0.8  0.0687024633219
0.72  0.82  0.0574414217136
0.72  0.84  0.048026180852
0.72  0.86  0.0401541949768
0.72  0.88  0.0335725086949
0.72  0.9  0.0280696286084
0.72  0.92  0.0234687272665
0.72  0.94  0.0196219610595
0.72  0.96  0.0164057194687
0.72  0.98  0.0137166530129
0.74  -1  0.00999355617591
0.74  -0.98  0.0119527321252
0.74  -0.96  0.0142959926117
0.74  -0.94  0.0170986350748
0.74  -0.92  0.0204507185588
0.74  -0.9  0.0244599576364
0.74  -0.88  0.0292551836678
0.74  -0.86  0.0349904846181
0.74  -0.84  0.0418501564616
0.74  -0.82  0.0500546252782
0.74  -0.8  0.059867530341
0.74  -0.78  0.0716041958002
0.74  -0.76  0.0856417631894
0.74  -0.74  0.102431310347
0.74  -0.72  0.122512346182
0.74  -0.7  0.146530147043
0.74  -0.68  0.175256491787
0.74  -0.66  0.209614461824
0.74  -0.64  0.250708103066
0.74  -0.62  0.299857902913
0.74  -0.6  0.358643222297
0.74  -0.58  0.428953046259
0.74  -0.56  0.513046683878
0.74  -0.54  0.613626368047
0.74  -0.52  0.733924087992
0.74  -0.5  0.877805444784
0.74  -0.48  1.04989386709
0.74  -0.46  1.25571917867
0.74  -0.44  1.50189529161
0.74  -0.42  1.79633273528
0.74  -0.4  2.14849285024
0.74  -0.38  2.56969181538
0.74  -0.36  3.07346427766
0.74  -0.34  3.67599826933
0.74  -0.32  4.39665538797
