-0.36  -0.12  11.5331287943
-0.36  -0.1  10.4770761291
-0.36  -0.08  9.45545579528
-0.36  -0.06  8.52642924524
-0.36  -0.04  7.76465815875
-0.36  -0.02  7.25597415232
-0.36  6.17561557e-16  7.07597450312
-0.36  0.02  7.25597415232
-0.36  0.04  7.76465815875
-0.36  0.06  8.52642924524
-0.36  0.08  9.45545579528
-0.36  0.1  10.4770761291
-0.36  0.12  11.5331287943
-0.36  0.14  12.5797501561
-0.36  0.16  13.5836984114
-0.36  0.18  14.5193172202
-0.36  0.2  27.4933575947
-0.36  0.22  22.7397471728
-0.36  0.24  18.8080375305
-0.36  0.26  15.5561217573
-0.36  0.28  12.8664632732
-0.36  0.3  10.6418476111
-0.36  0.32  8.80186871661
-0.36  0.34  7.2800227682
-0.36  0.36  6.02130447656
-0.36  0.38  4.98021898474
-0.36  0.4  4.11913751123
-0.36  0.42  3.40693730304
-0.36  0.44  2.81787674123
-0.36  0.46  2.33066494112
-0.36  0.48  1.92769221885
-0.36  0.5  1.59439361063
-0.36  0.52  1.31872243958
-0.36  0.54  1.09071490318
-0.36  0.56  0.902129943587
-0.36  0.58  0.746151384512
-0.36  0.6  0.617141568757
-0.36  0.62  0.51043759188
-0.36  0.64  0.422182767123
-0.36  0.66  0.349187230116
-0.36  0.68  0.28881264507
-0.36  0.7  0.23887684531
-0.36  0.72  0.197574961481
-0.36  0.74  0.163414186728
-0.36  0.76  0.13515982098
-0.36  0.78  0.11179064421
-0.36  0.8  0.0924620056626
-0.36  0.82  0.0764752949731
-0.36  0.84  0.0632526917333
-0.36  0.86  0.052316280871
-0.36  0.88  0.0432707789846
-0.36  0.9  0.0357892473005
-0.36  0.92  0.0296012748648
-0.36  0.94  0.024483204865
-0.36  0.96  0.0202500508238
-0.36  0.98  0.0167488104857
-0.34  -1  0.0157228544526
-0.34  -0.98  0.0190096247153
-0.34  -0.96  0.0229834749731
-0.34  -0.94  0.0277880352584
-0.34  -0.92  0.0335969606174
-0.34  -0.9  0.0406202076624
-0.34  -0.88  0.049111623201
-0.34  -0.86  0.0593781192228
-0.34  -0.84  0.0717907658643
-0.34  -0.82  0.0867982032918
-0.34  -0.8  0.10494285726
-0.34  -0.78  0.126880544438
-0.34  -0.76  0.153404176112
-0.34  -0.74  0.185472417012
-0.34  -0.72  0.22424433509
-0.34  -0.7  0.271121294638
-0.34  -0.68  0.327797606912
-0.34  -0.66  0.396321768973
-0.34  -0.64  0.479170504147
-0.34  -0.62  0.579338280204
-0.34  -0.6  0.700445540794
-0.34  -0.58  0.846869562021
-0.34  -0.56  1.02390266382
-0.34  -0.54  1.23794349447
-0.34  -0.52  1.49672830208
-0.34  -0.5  1.80961055189
-0.34  -0.48  2.18789899608
-0.34  -0.46  2.64526641493
-0.34  -0.44  3.19824380309
-0.34  -0.42  3.86681786236
-0.34  -0.4  4.67515339708
-0.34  -0.38  5.6524667218
-0.34  -0.36  6.8340816498
-0.34  -0.34  8.26270622984
-0.34  -0.32  9.98997637709
-0.34  -0.3  12.0783221912
-0.34  -0.28  14.6032244168
-0.34  -0.26  17.6559426047
-0.34  -0.24  21.3468135777
-0.34  -0.22  25.809239423
-0.34  -0.2  17.4406570604
-0.34  -0.18  16.47918649
-0.34  -0.16  15.4172745143
-0.34  -0.14  14.2778097396
-0.34  -0.12  13.0899116901
-0.34  -0.1  11.8913092664
-0.34  -0.08  10.7317869728
-0.34  -0.06  9.67735710261
-0.34  -0.04  8.81275943547
-0.34  -0.02  8.23541144594
-0.34  6.17561557e-16  8.03111480152
-0.34  0.02  8.23541144594
-0.34  0.04  8.81275943547
-0.34  0.06  9.67735710261
-0.34  0.08  10.7317869728
-0.34  0.1  11.8913092664
-0.34  0.12  13.0899116901
-0.34  0.14  14.2778097396
-0.34  0.16  15.4172745143
-0.34  0.18  16.47918649
-0.34  0.2  31.2045091492
-0.34  0.22  25.809239423
-0.34  0.24  21.3468135777
-0.34  0.26  17.6559426047
-0.34  0.28  14.6032244168
-0.34  0.3  12.0783221912
-0.34  0.32  9.98997637709
-0.34  0.34  8.26270622984
-0.34  0.36  6.8340816498
-0.34  0.38  5.6524667218
-0.34  0.4  4.67515339708
-0.34  0.42  3.86681786236
-0.34  0.44  3.19824380309
-0.34  0.46  2.64526641493
-0.34  0.48  2.18789899608
-0.34  0.5  1.80961055189
-0.34  0.52  1.49672830208
-0.34  0.54  1.23794349447
-0.34  0.56  1.02390266382
-0.34  0.58  0.846869562021
-0.34  0.6  0.700445540794
-0.34  0.62  0.579338280204
-0.34  0.64  0.479170504147
-0.34  0.66  0.396321768973
-0.34  0.68  0.327797606912
-0.34  0.7  0.271121294638
-0.34  0.72  0.22424433509
-0.34  0.74  0.185472417012
-0.34  0.76  0.153404176112
-0.34  0.78  0.126880544438
-0.34  0.8  0.10494285726
-0.34  0.82  0.0867982032918
-0.34  0.84  0.0717907658643
-0.34  0.86  0.0593781192228
-0.34  0.88  0.049111623201
-0.34  0.9  0.0406202076624
-0.34  0.92  0.0335969606174
-0.34  0.94  0.0277880352584
-0.34  0.96  0.0229834749731
-0.34  0.98  0.0190096247153
-0.32  -1  0.0178451814744
-0.32  -0.98  0.0215756117204
-0.32  -0.96  0.0260858664719
-0.32  -0.94  0.0315389634559
-0.32  -0.92  0.0381319982967
-0.32  -0.9  0.0461032682997
-0.32  -0.88  0.0557408854205
-0.32  -0.86  0.0673931897249
-0.32  -0.84  0.081481339721
-0.32  -0.82  0.0985145346263
-0.32  -0.8  0.11910841876
-0.32  -0.78  0.144007333267
-0.32  -0.76  0.17411121943
-0.32  -0.74  0.210508145964
-0.32  -0.72  0.254513635953
-0.32  -0.7  0.307718214843
-0.32  -0.68  0.372044898072
-0.32  -0.66  0.449818696148
-0.32  -0.64  0.543850649351
-0.32  -0.62  0.657539429401
-0.32  -0.6  0.794994180357
-0.32  -0.58  0.961183038677
-0.32  -0.56  1.16211270053
-0.32  -0.54  1.4050455266
-0.32  -0.52  1.69876203135
-0.32  -0.5  2.05387824417
-0.32  -0.48  2.48322941298
-0.32  -0.46  3.00233391875
-0.32  -0.44  3.62995416879
-0.32  -0.42  4.38877474128
-0.32  -0.4  5.30622229209
-0.32  -0.38  6.41545685821
-0.32  -0.36  7.75657038735
-0.32  -0.34  9.37803581314
-0.32  -0.32  11.3384590509
-0.32  -0.3  13.708697238
-0.32  -0.28  16.5744197795
-0.32  -0.26  20.039204766
-0.32  -0.24  24.2282826788
-0.32  -0.22  29.2930626947
-0.32  -0.2  19.7948592104
-0.32  -0.18  18.7036059102
-0.32  -0.16  17.4983532652
-0.32  -0.14  16.2050794675
-0.32  -0.12  14.8568346987
-0.32  -0.1  13.496440641
-0.32  -0.08  12.180401889
-0.32  -0.06  10.9836413108
-0.32  -0.04  10.0023371641
-0.32  -0.02  9.34705668188
-0.32  6.17561557e-16  9.11518334709
-0.32  0.02  9.34705668188
-0.32  0.04  10.0023371641
-0.32  0.06  10.9836413108
-0.32  0.08  12.180401889
-0.32  0.1  13.496440641
-0.32  0.12  14.8568346987
-0.32  0.14  16.2050794675
-0.32  0.16  17.4983532652
-0.32  0.18  18.7036059102
-0.32  0.2  35.4166051888
-0.32  0.22  29.2930626947
-0.32  0.24  24.2282826788
-0.32  0.26  20.039204766
-0.32  0.28  16.5744197795
-0.32  0.3  13.708697238
-0.32  0.32  11.3384590509
-0.32  0.34  9.37803581314
-0.32  0.36  7.75657038735
-0.32  0.38  6.41545685821
-0.32  0.4  5.30622229209
-0.32  0.42  4.38877474128
-0.32  0.44  3.62995416879
-0.32  0.46  3.00233391875
-0.32  0.48  2.48322941298
-0.32  0.5  2.05387824417
-0.32  0.52  1.69876203135
-0.32  0.54  1.4050455266
-0.32  0.56  1.16211270053
-0.32  0.58  0.961183038677
-0.32  0.6  0.794994180357
-0.32  0.62  0.657539429401
-0.32  0.64  0.54385064935
-0.32  0.66  0.449818696148
-0.32  0.68  0.372044898072
-0.32  0.7  0.307718214843
-0.32  0.72  0.254513635953
-0.32  0.74  0.210508145964
-0.32  0.76  0.17411121943
-0.32  0.78  0.144007333267
-0.32  0.8  0.11910841876
-0.32  0.82  0.0985145346263
-0.32  0.84  0.081481339721
-0.32  0.86  0.0673931897249
-0.32  0.88  0.0557408854205
-0.32  0.9  0.0461032682997
-0.32  0.92  0.0381319982967
-0.32  0.94  0.0315389634559
-0.32  0.96  0.0260858664719
-0.32  0.98  0.0215756117204
-0.3  -1  0.020253987774
-0.3  -0.98  0.0244879648115
-0.3  -0.96  0.0296070298502
-0.3  -0.94  0.0357962053317
-0.3  -0.92  0.0432791915513
-0.3  -0.9  0.0523264520353
-0.3  -0.88  0.0632649891196
-0.3  -0.86  0.0764901630557
-0.3  -0.84  0.0924799818305
-0.3  -0.82  0.11181237819
-0.3  -0.8  0.135186098321
-0.3  -0.78  0.163445957192
-0.3  -0.76  0.197613373375
-0.3  -0.74  0.238923286983
-0.3  -0.72  0.288868795102
-0.3  -0.7  0.349255117982
-0.3  -0.68  0.422264846548
-0.3  -0.66  0.510536829527
-0.3  -0.64  0.61726155145
-0.3  -0.62  0.746296448881
-0.3  -0.6  0.90230533281
-0.3  -0.58  1.09092695649
-0.3  -0.56  1.31897882138
-0.3  -0.54  1.59470358754
-0.3  -0.52  1.92806699462
-0.3  -0.5  2.33111806156
-0.3  -0.48  2.81842458383
-0.3  -0.46  3.40759966891
-0.3  -0.44  4.11993834079
-0.3  -0.42  4.98118722301
-0.3  -0.4  6.02247511935
-0.3  -0.38  7.28143812698
-0.3  -0.36  8.80357994782
-0.3  -0.34  10.6439165651
-0.3  -0.32  12.8689647299
-0.3  -0.3  15.5591461288
-0.3  -0.28  18.8116941291
-0.3  -0.26  22.7441681618
-0.3  -0.24  27.4987027655
-0.3  -0.22  33.2471448683
-0.3  -0.2  22.4668399708
-0.3  -0.18  21.2282854045
-0.3  -0.16  19.860343455
-0.3  -0.14  18.3924989433
-0.3  -0.12  16.8622632826
-0.3  -0.1  15.3182383786
-0.3  -0.08  13.8245560179
-0.3  -0.06  12.4662524246
-0.3  -0.04  11.352488341
-0.3  -0.02  10.6087557601
-0.3  6.17561557e-16  10.3455833349
-0.3  0.02  10.6087557601
-0.3  0.04  11.352488341
-0.3  0.06  12.4662524246
-0.3  0.08  13.8245560179
-0.3  0.1  15.3182383786
-0.3  0.12  16.8622632826
-0.3  0.14  18.3924989433
-0.3  0.16  19.860343455
-0.3  0.18  21.2282854045
-0.3  0.2  40.1972649882
-0.3  0.22  33.2471448683
-0.3  0.24  27.4987027655
-0.3  0.26  22.7441681618
-0.3  0.28  18.8116941291
-0.3  0.3  15.5591461288
-0.3  0.32  12.8689647299
-0.3  0.34  10.6439165651
-0.3  0.36  8.80357994782
-0.3  0.38  7.28143812698
-0.3  0.4  6.02247511935
-0.3  0.42  4.98118722301
-0.3  0.44  4.11993834079
-0.3  0.46  3.40759966891
-0.3  0.48  2.81842458383
-0.3  0.5  2.33111806156
-0.3  0.52  1.92806699462
-0.3  0.54  1.59470358754
-0.3  0.56  1.31897882138
-0.3  0.58  1.09092695649
-0.3  0.6  0.90230533281
-0.3  0.62  0.746296448881
-0.3  0.64  0.61726155145
-0.3  0.66  0.510536829527
-0.3  0.68  0.422264846548
-0.3  0.7  0.349255117982
-0.3  0.72  0.288868795102
-0.3  0.74  0.238923286983
-0.3  0.76  0.197613373375
-0.3  0.78  0.163445957192
-0.3  0.8  0.135186098321
-0.3  0.82  0.11181237819
-0.3  0.84  0.0924799818305
-0.3  0.86  0.0764901630557
-0.3  0.88  0.0632649891196
-0.3  0.9  0.0523264520353
-0.3  0.92  0.0432791915513
-0.3  0.94  0.0357962053317
-0.3  0.96  0.0296070298502
-0.3  0.98  0.0244879648115
-0.28  -1  0.0229879433469
-0.28  -0.98  0.0277934377195
-0.28  -0.96  0.0336034924312
-0.28  -0.94  0.0406281049135
-0.28  -0.92  0.0491211713259
-0.28  -0.9  0.0593896633271
-0.28  -0.88  0.0718047231958
-0.28  -0.86  0.0868150783213
-0.28  -0.84  0.104963259915
-0.28  -0.82  0.126905212148
-0.28  -0.8  0.153434000462
-0.28  -0.78  0.185508475967
-0.28  -0.76  0.224287931957
-0.28  -0.74  0.271174005174
-0.28  -0.72  0.327861336276
-0.28  -0.7  0.396398820586
-0.28  -0.68  0.479263662946
-0.28  -0.66  0.579450913303
-0.28  -0.64  0.70058171918
-0.28  -0.62  0.847034207697
-0.28  -0.6  1.0241017277
-0.28  -0.58  1.23818417149
-0.28  -0.56  1.49701929122
-0.28  -0.54  1.8099623706
-0.28  -0.52  2.18832436041
-0.28  -0.5  2.64578069918
-0.28  -0.48  3.19886559543
-0.28  -0.46  3.86756963675
-0.28  -0.44  4.67606232548
-0.28  -0.42  5.65356565633
-0.28  -0.4  6.83541031013
-0.28  -0.38  8.2643126388
-0.28  -0.36  9.9919185964
-0.28  -0.34  12.08067042
-0.28  -0.32  14.6060635291
-0.28  -0.3  17.6593752167
-0.28  -0.28  21.3509637571
-0.28  -0.26  25.8142571729
-0.28  -0.24  31.2105758303
-0.28  -0.22  37.7349631691
-0.28  -0.2  25.4994942327
-0.28  -0.18  24.0937551496
-0.28  -0.16  22.5411635125
-0.28  -0.14  20.8751841087
-0.28  -0.12  19.1383917758
-0.28  -0.1  17.3859488784
-0.28  -0.08  15.6906439404
-0.28  -0.06  14.1489916791
-0.28  -0.04  12.8848877437
-0.28  -0.02  12.040763484
-0.28  6.17561557e-16  11.7420671053
-0.28  0.02  12.040763484
-0.28  0.04  12.8848877437
-0.28  0.06  14.1489916791
-0.28  0.08  15.6906439404
-0.28  0.1  17.3859488784
-0.28  0.12  19.1383917758
-0.28  0.14  20.8751841087
-0.28  0.16  22.5411635125
-0.28  0.18  24.0937551496
-0.28  0.2  45.6232353134
-0.28  0.22  37.7349631691
-0.28  0.24  31.2105758303
-0.28  0.26  25.8142571729
-0.28  0.28  21.3509637571
-0.28  0.3  17.6593752167
-0.28  0.32  14.6060635291
-0.28  0.34  12.08067042
-0.28  0.36  9.9919185964
-0.28  0.38  8.2643126388
-0.28  0.4  6.83541031013
-0.28  0.42  5.65356565633
-0.28  0.44  4.67606232548
-0.28  0.46  3.86756963675
-0.28  0.48  3.19886559543
-0.28  0.5  2.64578069918
-0.28  0.52  2.18832436041
-0.28  0.54  1.8099623706
-0.28  0.56  1.49701929122
-0.28  0.58  1.23818417149
-0.28  0.6  1.0241017277
-0.28  0.62  0.847034207697
-0.28  0.64  0.70058171918
-0.28  0.66  0.579450913303
-0.28  0.68  0.479263662946
-0.28  0.7  0.396398820586
-0.28  0.72  0.327861336276
-0.28  0.74  0.271174005174
-0.28  0.76  0.224287931957
-0.28  0.78  0.185508475967
-0.28  0.8  0.153434000462
-0.28  0.82  0.126905212148
-0.28  0.84  0.104963259915
-0.28  0.86  0.0868150783213
-0.28  0.88  0.0718047231958
-0.28  0.9  0.0593896633271
-0.28  0.92  0.0491211713259
-0.28  0.94  0.0406281049135
-0.28  0.96  0.0336034924312
-0.28  0.98  0.0277934377195
-0.26  -1  0.0260909380027
-0.26  -0.98  0.0315450951605
-0.26  -0.96  0.0381394117981
-0.26  -0.94  0.0461122315499
-0.26  -0.92  0.0557517223854
-0.26  -0.9  0.0674062920936
-0.26  -0.88  0.0814971810629
-0.26  -0.86  0.0985336875076
-0.26  -0.84  0.119131575439
-0.26  -0.82  0.144035330713
-0.26  -0.8  0.174145069577
-0.26  -0.78  0.210549072286
-0.26  -0.76  0.254563117681
-0.26  -0.74  0.307778040436
-0.26  -0.72  0.372117229853
-0.26  -0.7  0.449906148462
-0.26  -0.68  0.543956383057
-0.26  -0.66  0.657667266117
-0.26  -0.64  0.795148740587
-0.26  -0.62  0.961369908814
-0.26  -0.6  1.16233863477
-0.26  -0.58  1.40531869106
-0.26  -0.56  1.69909229924
-0.26  -0.54  2.05427755262
-0.26  -0.52  2.48371219451
-0.26  -0.5  3.00291762293
-0.26  -0.48  3.63065989289
-0.26  -0.46  4.38962799285
-0.26  -0.44  5.30725391089
-0.26  -0.42  6.41670413085
-0.26  -0.4  7.758078395
-0.26  -0.38  9.37985906092
-0.26  -0.36  11.3406634379
-0.26  -0.34  13.7113624391
-0.26  -0.32  16.5776421253
-0.26  -0.3  20.0431007242
-0.26  -0.28  24.2329930642
-0.26  -0.26  29.2987577584
-0.26  -0.24  35.4234907721
-0.26  -0.22  42.8285632048
-0.26  -0.2  28.9415069929
-0.26  -0.18  27.3460162301
-0.26  -0.16  25.5838502313
-0.26  -0.14  23.6929909804
-0.26  -0.12  21.7217602184
-0.26  -0.1  19.7327663227
-0.26  -0.08  17.8086230723
-0.26  -0.06  16.0588730854
-0.26  -0.04  14.6241358881
-0.26  -0.02  13.6660687225
-0.26  6.17561557e-16  13.3270532403
-0.26  0.02  13.6660687225
-0.26  0.04  14.6241358881
-0.26  0.06  16.0588730854
-0.26  0.08  17.8086230723
-0.26  0.1  19.7327663227
-0.26  0.12  21.7217602184
-0.26  0.14  23.6929909804
-0.26  0.16  25.5838502313
-0.26  0.18  27.3460162301
-0.26  0.2  51.7816224829
-0.26  0.22  42.8285632048
-0.26  0.24  35.4234907721
-0.26  0.26  29.2987577584
-0.26  0.28  24.2329930642
-0.26  0.3  20.0431007242
-0.26  0.32  16.5776421253
-0.26  0.34  13.7113624391
-0.26  0.36  11.3406634379
-0.26  0.38  9.37985906092
-0.26  0.4  7.758078395
-0.26  0.42  6.41670413085
-0.26  0.44  5.30725391089
-0.26  0.46  4.38962799285
-0.26  0.48  3.63065989289
-0.26  0.5  3.00291762293
-0.26  0.52  2.48371219451
-0.26  0.54  2.05427755262
-0.26  0.56  1.69909229924
-0.26  0.58  1.40531869106
-0.26  0.6  1.16233863477
-0.26  0.62  0.961369908814
-0.26  0.64  0.795148740587
-0.26  0.66  0.657667266117
-0.26  0.68  0.543956383057
-0.26  0.7  0.449906148462
-0.26  0.72  0.372117229853
-0.26  0.74  0.307778040435
-0.26  0.76  0.254563117681
-0.26  0.78  0.210549072286
-0.26  0.8  0.174145069577
-0.26  0.82  0.144035330713
-0.26  0.84  0.119131575439
-0.26  0.86  0.0985336875076
-0.26  0.88  0.0814971810629
-0.26  0.9  0.0674062920936
-0.26  0.92  0.0557517223854
-0.26  0.94  0.0461122315499
-0.26  0.96  0.0381394117981
-0.26  0.98  0.0315450951605
-0.24  -1  0.0296127859544
-0.24  -0.98  0.0358031647156
-0.24  -0.96  0.0432876057535
-0.24  -0.94  0.052336625177
-0.24  -0.92  0.0632772888968
-0.24  -0.9  0.076505034029
-0.24  -0.88  0.0924979614933
-0.24  -0.86  0.111834116395
-0.24  -0.84  0.13521238077
-0.24  -0.82  0.163477733833
-0.24  -0.8  0.197651792736
-0.24  -0.78  0.238969737686
-0.24  -0.76  0.288924956051
-0.24  -0.74  0.349323019047
-0.24  -0.72  0.422346941931
-0.24  -0.7  0.510636086467
-0.24  -0.68  0.61738155747
-0.24  -0.66  0.746441541454
-0.24  -0.64  0.902480756132
-0.24  -0.62  1.09113905103
-0.24  -0.6  1.31923525304
-0.24  -0.58  1.59501362472
-0.24  -0.56  1.92844184325
-0.24  -0.54  2.33157127009
-0.24  -0.52  2.81897253294
-0.24  -0.5  3.40826216355
-0.24  -0.48  4.12073932604
-0.24  -0.46  4.98215564952
-0.24  -0.44  6.02364598973
-0.24  -0.42  7.28285376093
-0.24  -0.4  8.80529151172
-0.24  -0.38  10.6459859214
-0.24  -0.36  12.8714666729
-0.24  -0.34  15.5621710883
-0.24  -0.32  18.8153514386
-0.24  -0.3  22.7485900103
-0.24  -0.28  27.5040489755
-0.24  -0.26  33.2536086721
-0.24  -0.24  40.2050800121
-0.24  -0.22  48.6097155565
-0.24  -0.2  32.8481349229
-0.24  -0.18  31.0372791213
-0.24  -0.16  29.0372496654
-0.24  -0.14  26.8911554827
-0.24  -0.12  24.6538409555
-0.24  -0.1  22.3963655635
-0.24  -0.08  20.2124945882
-0.24  -0.06  18.2265571018
-0.24  -0.04  16.5981539559
-0.24  -0.02  15.5107634641
-0.24  6.17561557e-16  15.1259864619
-0.24  0.02  15.5107634641
-0.24  0.04  16.5981539559
-0.24  0.06  18.2265571018
-0.24  0.08  20.2124945882
-0.24  0.1  22.3963655635
-0.24  0.12  24.6538409555
-0.24  0.14  26.8911554827
-0.24  0.16  29.0372496654
-0.24  0.18  31.0372791213
-0.24  0.2  58.7712907368
-0.24  0.22  48.6097155565
-0.24  0.24  40.2050800121
-0.24  0.26  33.2536086721
-0.24  0.28  27.5040489755
-0.24  0.3  22.7485900103
-0.24  0.32  18.8153514386
-0.24  0.34  15.5621710883
-0.24  0.36  12.8714666729
-0.24  0.38  10.6459859214
-0.24  0.4  8.80529151172
-0.24  0.42  7.28285376093
-0.24  0.44  6.02364598973
-0.24  0.46  4.98215564952
-0.24  0.48  4.12073932604
-0.24  0.5  3.40826216355
-0.24  0.52  2.81897253294
-0.24  0.54  2.33157127009
-0.24  0.56  1.92844184325
-0.24  0.58  1.59501362472
-0.24  0.6  1.31923525304
-0.24  0.62  1.09113905103
-0.24  0.64  0.902480756132
-0.24  0.66  0.746441541454
-0.24  0.68  0.61738155747
-0.24  0.7  0.510636086467
-0.24  0.72  0.422346941931
-0.24  0.74  0.349323019047
-0.24  0.76  0.288924956051
-0.24  0.78  0.238969737686
-0.24  0.8  0.197651792736
-0.24  0.82  0.163477733833
-0.24  0.84  0.13521238077
-0.24  0.86  0.111834116395
-0.24  0.88  0.0924979614933
-0.24  0.9  0.076505034029
-0.24  0.92  0.0632772888968
-0.24  0.94  0.052336625177
-0.24  0.96  0.0432876057535
-0.24  0.98  0.0358031647156
-0.22  -1  0.0336100255149
-0.22  -0.98  0.0406360036999
-0.22  -0.96  0.0491307213072
-0.22  -0.94  0.0594012096758
-0.22  -0.92  0.0718186832408
-0.22  -0.9  0.0868319566316
-0.22  -0.88  0.104983666537
-0.22  -0.86  0.126929884654
-0.22  -0.84  0.153463830611
-0.22  -0.82  0.185544541933
-0.22  -0.8  0.224331537301
-0.22  -0.78  0.271226725958
-0.22  -0.76  0.32792507803
-0.22  -0.74  0.396475887179
-0.22  -0.72  0.479356839857
-0.22  -0.7  0.579563568299
-0.22  -0.68  0.70071792404
-0.22  -0.66  0.847198885383
-0.22  -0.64  1.02430083029
-0.22  -0.62  1.23842489531
-0.22  -0.6  1.49731033693
-0.22  -0.58  1.8103142577
-0.22  -0.56  2.18874980745
-0.22  -0.54  2.64629508342
-0.22  -0.52  3.19948750867
-0.22  -0.5  3.86832155728
-0.22  -0.48  4.67697143058
-0.22  -0.46  5.65466480451
-0.22  -0.44  6.83673922878
-0.22  -0.42  8.26591936007
-0.22  -0.4  9.99386119331
-0.22  -0.38  12.0830191054
-0.22  -0.36  14.6089031933
-0.22  -0.34  17.662808496
-0.22  -0.32  21.3551147433
-0.22  -0.3  25.8192758984
-0.22  -0.28  31.2166436908
-0.22  -0.26  37.7422994801
-0.22  -0.24  45.6321052371
-0.22  -0.22  55.1712284904
-0.22  -0.2  37.2820934368
-0.22  -0.18  35.2268018547
-0.22  -0.16  32.9568012831
-0.22  -0.14  30.5210196464
-0.22  -0.12  27.9817044175
-0.22  -0.1  25.4195069383
-0.22  -0.08  22.9408492627
-0.22  -0.06  20.686842845
-0.22  -0.04  18.8386320293
-0.22  -0.02  17.6044616872
-0.22  6.17561557e-16  17.1677461116
-0.22  0.02  17.6044616872
-0.22  0.04  18.8386320293
-0.22  0.06  20.686842845
-0.22  0.08  22.9408492627
-0.22  0.1  25.4195069383
-0.22  0.12  27.9817044175
-0.22  0.14  30.5210196464
-0.22  0.16  32.9568012831
-0.22  0.18  35.2268018547
-0.22  0.2  66.7044493636
-0.22  0.22  55.1712284904
-0.22  0.24  45.6321052371
-0.22  0.26  37.7422994801
-0.22  0.28  31.2166436908
-0.22  0.3  25.8192758984
-0.22  0.32  21.3551147433
-0.22  0.34  17.662808496
-0.22  0.36  14.6089031933
-0.22  0.38  12.0830191054
-0.22  0.4  9.99386119331
-0.22  0.42  8.26591936007
-0.22  0.44  6.83673922878
-0.22  0.46  5.65466480451
-0.22  0.48  4.67697143058
-0.22  0.5  3.86832155728
-0.22  0.52  3.19948750867
-0.22  0.54  2.64629508342
-0.22  0.56  2.18874980745
-0.22  0.58  1.8103142577
-0.22  0.6  1.49731033693
-0.22  0.62  1.23842489531
-0.22  0.64  1.02430083029
-0.22  0.66  0.847198885383
-0.22  0.68  0.70071792404
-0.22  0.7  0.579563568299
-0.22  0.72  0.479356839857
-0.22  0.74  0.396475887179
-0.22  0.76  0.32792507803
-0.22  0.78  0.271226725958
-0.22  0.8  0.224331537301
-0.22  0.82  0.185544541933
-0.22  0.84  0.153463830611
-0.22  0.86  0.126929884654
-0.22  0.88  0.104983666537
-0.22  0.9  0.0868319566316
-0.22  0.92  0.0718186832408
-0.22  0.94  0.0594012096758
-0.22  0.96  0.0491307213072
-0.22  0.98  0.0406360036999
-0.2  -1  0.0381468267407
-0.2  -0.98  0.0461211965427
-0.2  -0.96  0.0557625614572
-0.2  -0.94  0.0674193970097
-0.2  -0.92  0.0815130254846
-0.2  -0.9  0.0985528441125
-0.2  -0.88  0.119154736619
-0.2  -0.86  0.144063333602
-0.2  -0.84  0.174178926305
-0.2  -0.82  0.210590006564
-0.2  -0.8  0.25461260903
-0.2  -0.78  0.307837877659
-0.2  -0.76  0.372189575697
-0.2  -0.74  0.449993617779
-0.2  -0.72  0.54406213732
-0.2  -0.7  0.657795127687
-0.2  -0.68  0.795303330866
-0.2  -0.66  0.961556815282
-0.2  -0.64  1.16256461294
-0.2  -0.62  1.40559190863
-0.2  -0.6  1.69942263134
-0.2  -0.58  2.05467693871
-0.2  -0.56  2.4841950699
-0.2  -0.54  3.00350144058
-0.2  -0.52  3.63136575419
-0.2  -0.5  4.39048141031
-0.2  -0.48  5.30828573024
-0.2  -0.46  6.41795164597
-0.2  -0.44  7.75958669583
-0.2  -0.42  9.38168266317
-0.2  -0.4  11.3428682535
-0.2  -0.38  13.7140281584
-0.2  -0.36  16.5808650975
-0.2  -0.34  20.0469974399
-0.2  -0.32  24.2377043653
-0.2  -0.3  29.3044539294
-0.2  -0.28  35.430377694
-0.2  -0.26  42.8368897973
-0.2  -0.24  51.7916897006
-0.2  -0.22  62.6184378636
-0.2  -0.2  42.3145634994
-0.2  -0.18  39.9818413225
-0.2  -0.16  37.4054279702
-0.2  -0.14  34.6408558329
-0.2  -0.12  31.7587747695
-0.2  -0.1  28.850722728
-0.2  -0.08  26.037486991
-0.2  -0.06  23.4792267405
-0.2  -0.04  21.3815378312
-0.2  -0.02  19.9807747705
-0.2  6.17561557e-16  19.4851097676
-0.2  0.02  19.9807747705
-0.2  0.04  21.3815378312
-0.2  0.06  23.4792267405
-0.2  0.08  26.037486991
-0.2  0.1  28.850722728
-0.2  0.12  31.7587747695
-0.2  0.14  34.6408558329
-0.2  0.16  37.4054279702
-0.2  0.18  39.9818413225
-0.2  0.2  75.7084540618
-0.2  0.22  62.6184378636
-0.2  0.24  51.7916897006
-0.2  0.26  42.8368897973
-0.2  0.28  35.430377694
-0.2  0.3  29.3044539294
-0.2  0.32  24.2377043653
-0.2  0.34  20.0469974399
-0.2  0.36  16.5808650975
-0.2  0.38  13.7140281584
-0.2  0.4  11.3428682535
-0.2  0.42  9.38168266317
-0.2  0.44  7.75958669583
-0.2  0.46  6.41795164597
-0.2  0.48  5.30828573024
-0.2  0.5  4.39048141031
-0.2  0.52  3.63136575419
-0.2  0.54  3.00350144058
-0.2  0.56  2.4841950699
-0.2  0.58  2.05467693871
-0.2  0.6  1.69942263134
-0.2  0.62  1.40559190863
-0.2  0.64  1.16256461294
-0.2  0.66  0.961556815282
-0.2  0.68  0.795303330866
-0.2  0.7  0.657795127687
-0.2  0.72  0.54406213732
-0.2  0.74  0.449993617779
-0.2  0.76  0.372189575697
-0.2  0.78  0.307837877659
-0.2  0.8  0.25461260903
-0.2  0.82  0.210590006564
-0.2  0.84  0.174178926305
-0.2  0.86  0.144063333602
-0.2  0.88  0.119154736619
-0.2  0.9  0.0985528441125
-0.2  0.92  0.0815130254846
-0.2  0.94  0.0674193970097
-0.2  0.96  0.0557625614572
-0.2  0.98  0.0461211965427
-0.18  -1  0.0432960215916
-0.18  -0.98  0.0523468002965
-0.18  -0.96  0.0632895910652
-0.18  -0.94  0.0765199078934
-0.18  -0.92  0.0925159446516
-0.18  -0.9  0.111855858827
-0.18  -0.88  0.135238668329
-0.18  -0.86  0.163509516652
-0.18  -0.84  0.197690219566
-0.18  -0.82  0.239016197419
-0.18  -0.8  0.288981127918
-0.18  -0.78  0.349390933312
-0.18  -0.76  0.422429053275
-0.18  -0.74  0.510735362704
-0.18  -0.72  0.617501586821
-0.18  -0.7  0.746586662234
-0.18  -0.68  0.902656213559
-0.18  -0.66  1.0913511868
-0.18  -0.64  1.31949173454
-0.18  -0.62  1.59532372218
-0.18  -0.6  1.92881676475
-0.18  -0.58  2.33202456673
-0.18  -0.56  2.81952058858
-0.18  -0.54  3.408924787
-0.18  -0.52  4.12154046703
-0.18  -0.5  4.98312426431
-0.18  -0.48  6.02481708775
-0.18  -0.46  7.2842696701
-0.18  -0.44  8.80700340838
-0.18  -0.42  10.64805568
-0.18  -0.4  12.8739691024
-0.18  -0.38  15.5651966359
-0.18  -0.36  18.8190094592
-0.18  -0.34  22.7530127186
-0.18  -0.32  27.5093962248
-0.18  -0.3  33.2600737325
-0.18  -0.28  40.2128965553
-0.18  -0.26  48.6191661022
-0.18  -0.24  58.7827168635
-0.18  -0.22  71.0708981432
-0.18  -0.2  48.026334336
-0.18  -0.18  45.3787329923
-0.18  -0.16  42.4545461684
-0.18  -0.14  39.316802215
-0.18  -0.12  36.0456875611
-0.18  -0.1  32.7450962738
-0.18  -0.08  29.5521199342
-0.18  -0.06  26.6485365827
-0.18  -0.04  24.2676941359
-0.18  -0.02  22.6778510769
-0.18  6.17561557e-16  22.1152794424
-0.18  0.02  22.6778510769
-0.18  0.04  24.2676941359
-0.18  0.06  26.6485365827
-0.18  0.08  29.5521199342
-0.18  0.1  32.7450962738
-0.18  0.12  36.0456875611
-0.18  0.14  39.316802215
-0.18  0.16  42.4545461684
-0.18  0.18  45.3787329923
-0.18  0.2  85.9278514568
-0.18  0.22  71.0708981432
-0.18  0.24  58.7827168635
-0.18  0.26  48.6191661022
-0.18  0.28  40.2128965553
-0.18  0.3  33.2600737325
-0.18  0.32  27.5093962248
-0.18  0.34  22.7530127186
-0.18  0.36  18.8190094592
-0.18  0.38  15.5651966359
-0.18  0.4  12.8739691024
-0.18  0.42  10.64805568
-0.18  0.44  8.80700340838
-0.18  0.46  7.2842696701
-0.18  0.48  6.02481708775
-0.18  0.5  4.98312426431
-0.18  0.52  4.12154046703
-0.18  0.54  3.408924787
-0.18  0.56  2.81952058858
-0.18  0.58  2.33202456673
-0.18  0.6  1.92881676475
-0.18  0.62  1.59532372218
-0.18  0.64  1.31949173454
-0.18  0.66  1.0913511868
-0.18  0.68  0.902656213559
-0.18  0.7  0.746586662234
-0.18  0.72  0.617501586821
-0.18  0.74  0.510735362704
-0.18  0.76  0.422429053275
-0.18  0.78  0.349390933312
-0.18  0.8  0.288981127918
-0.18  0.82  0.239016197419
-0.18  0.84  0.197690219566
-0.18  0.86  0.163509516652
-0.18  0.88  0.135238668329
-0.18  0.9  0.111855858827
-0.18  0.92  0.0925159446516
-0.18  0.94  0.0765199078934
-0.18  0.96  0.0632895910652
-0.18  0.98  0.0523468002965
-0.16  -1  0.0491402731452
-0.16  -0.98  0.0594127582693
-0.16  -0.96  0.0718326459998
-0.16  -0.94  0.0868488382233
-0.16  -0.92  0.105004077126
-0.16  -0.9  0.126954561957
-0.16  -0.88  0.153493666559
-0.16  -0.86  0.18558061491
-0.16  -0.84  0.224375151122
-0.16  -0.82  0.271279456992
-0.16  -0.8  0.327988832176
-0.16  -0.78  0.396552968755
-0.16  -0.76  0.479450034883
-0.16  -0.74  0.579676245197
-0.16  -0.72  0.700854155382
-0.16  -0.7  0.847363595085
-0.16  -0.68  1.02449997159
-0.16  -0.66  1.23866566592
-0.16  -0.64  1.49760143922
-0.16  -0.62  1.81066621322
-0.16  -0.6  2.18917533719
-0.16  -0.58  2.64680956766
-0.16  -0.56  3.20010954281
-0.16  -0.54  3.86907362401
-0.16  -0.52  4.67788071243
-0.16  -0.5  5.65576416638
-0.16  -0.48  6.83806840579
-0.16  -0.46  8.26752639372
-0.16  -0.44  9.99580416789
-0.16  -0.42  12.0853682473
-0.16  -0.4  14.6117434096
-0.16  -0.38  17.6662424428
-0.16  -0.36  21.3592665365
-0.16  -0.34  25.8242955995
-0.16  -0.32  31.2227127309
-0.16  -0.3  37.7496372175
-0.16  -0.28  45.6409768853
-0.16  -0.26  55.1819547045
-0.16  -0.24  66.7174178296
-0.16  -0.22  80.6643016851
-0.16  -0.2  54.5091003902
-0.16  -0.18  51.5041163656
-0.16  -0.16  48.1852123654
-0.16  -0.14  44.623924532
-0.16  -0.12  40.9112631449
-0.16  -0.1  37.165146263
-0.16  -0.08  33.5411705788
-0.16  -0.06  30.2456511811
-0.16  -0.04  27.5434341218
-0.16  -0.02  25.7389883711
-0.16  6.17561557e-16  25.1004788091
-0.16  0.02  25.7389883711
-0.16  0.04  27.5434341218
-0.16  0.06  30.2456511811
-0.16  0.08  33.5411705788
-0.16  0.1  37.165146263
-0.16  0.12  40.9112631449
-0.16  0.14  44.623924532
-0.16  0.16  48.1852123654
-0.16  0.18  51.5041163656
-0.16  0.2  97.5266995937
-0.16  0.22  80.6643016851
-0.16  0.24  66.7174178296
-0.16  0.26  55.1819547045
-0.16  0.28  45.6409768853
-0.16  0.3  37.7496372175
-0.16  0.32  31.2227127309
-0.16  0.34  25.8242955995
-0.16  0.36  21.3592665365
-0.16  0.38  17.6662424428
-0.16  0.4  14.6117434096
-0.16  0.42  12.0853682473
-0.16  0.44  9.99580416789
-0.16  0.46  8.26752639372
-0.16  0.48  6.83806840579
-0.16  0.5  5.65576416638
-0.16  0.52  4.67788071243
-0.16  0.54  3.86907362401
-0.16  0.56  3.20010954281
-0.16  0.58  2.64680956766
-0.16  0.6  2.18917533719
-0.16  0.62  1.81066621322
-0.16  0.64  1.49760143922
-0.16  0.66  1.23866566592
-0.16  0.68  1.02449997159
-0.16  0.7  0.847363595085
-0.16  0.72  0.700854155382
-0.16  0.74  0.579676245197
-0.16  0.76  0.479450034883
-0.16  0.78  0.396552968755
-0.16  0.8  0.327988832176
-0.16  0.82  0.271279456992
-0.16  0.84  0.224375151122
-0.16  0.86  0.18558061491
-0.16  0.88  0.153493666559
-0.16  0.9  0.126954561957
-0.16  0.92  0.105004077126
-0.16  0.94  0.0868488382233
-0.16  0.96  0.0718326459998
-0.16  0.98  0.0594127582693
-0.14  -1  0.0557734026364
-0.14  -0.98  0.0674325044736
-0.14  -0.96  0.0815288729867
-0.14  -0.94  0.0985720044417
-0.14  -0.92  0.119177902303
-0.14  -0.9  0.144091341935
-0.14  -0.88  0.174212789616
-0.14  -0.86  0.2106309488
-0.14  -0.84  0.25466211
-0.14  -0.82  0.307897726516
-0.14  -0.8  0.372261935606
-0.14  -0.78  0.450081104101
-0.14  -0.76  0.544167912144
-0.14  -0.74  0.657923014115
-0.14  -0.72  0.7954579512
-0.14  -0.7  0.961743758088
-0.14  -0.68  1.16279063504
-0.14  -0.66  1.40586517932
-0.14  -0.64  1.69975302766
-0.14  -0.62  2.05507640244
-0.14  -0.6  2.48467803918
-0.14  -0.58  3.00408537174
-0.14  -0.56  3.63207175273
-0.14  -0.54  4.39133499369
-0.14  -0.52  5.3093177502
-0.14  -0.5  6.41919940364
-0.14  -0.48  7.76109528989
-0.14  -0.46  9.38350661995
-0.14  -0.44  11.3450734977
-0.14  -0.42  13.716694396
-0.14  -0.4  16.5840886964
-0.14  -0.38  20.0508949131
-0.14  -0.36  24.2424165824
-0.14  -0.34  29.3101512077
-0.14  -0.32  35.4372659549
-0.14  -0.3  42.8452180086
-0.14  -0.28  51.8017588755
-0.14  -0.26  62.6306119403
-0.14  -0.24  75.7231730577
-0.14  -0.22  91.5526570838
-0.14  -0.2  61.8669333487
-0.14  -0.18  58.4563258532
-0.14  -0.16  54.6894243431
-0.14  -0.14  50.6474211648
-0.14  -0.12  46.4336114901
-0.14  -0.1  42.1818303786
-0.14  -0.08  38.0686775196
-0.14  -0.06  34.3283171492
-0.14  -0.04  31.2613451847
-0.14  -0.02  29.2133289051
-0.14  6.17561557e-16  28.4886310431
-0.14  0.02  29.2133289051
-0.14  0.04  31.2613451847
-0.14  0.06  34.3283171492
-0.14  0.08  38.0686775196
-0.14  0.1  42.1818303786
-0.14  0.12  46.4336114901
-0.14  0.14  50.6474211648
-0.14  0.16  54.6894243431
-0.14  0.18  58.4563258532
-0.14  0.2  110.691201658
-0.14  0.22  91.5526570838
-0.14  0.24  75.7231730577
-0.14  0.26  62.6306119403
-0.14  0.28  51.8017588755
-0.14  0.3  42.8452180086
-0.14  0.32  35.4372659549
-0.14  0.34  29.3101512077
-0.14  0.36  24.2424165824
-0.14  0.38  20.0508949131
-0.14  0.4  16.5840886964
-0.14  0.42  13.716694396
-0.14  0.44  11.3450734977
-0.14  0.46  9.38350661995
-0.14  0.48  7.76109528989
-0.14  0.5  6.41919940364
-0.14  0.52  5.3093177502
-0.14  0.54  4.39133499369
-0.14  0.56  3.63207175273
-0.14  0.58  3.00408537174
-0.14  0.6  2.48467803918
-0.14  0.62  2.05507640244
-0.14  0.64  1.69975302766
-0.14  0.66  1.40586517932
-0.14  0.68  1.16279063504
-0.14  0.7  0.961743758088
-0.14  0.72  0.7954579512
-0.14  0.74  0.657923014115
-0.14  0.76  0.544167912144
-0.14  0.78  0.450081104101
-0.14  0.8  0.372261935606
-0.14  0.82  0.307897726516
-0.14  0.84  0.25466211
-0.14  0.86  0.2106309488
-0.14  0.88  0.174212789616
-0.14  0.9  0.144091341935
-0.14  0.92  0.119177902303
-0.14  0.94  0.0985720044417
-0.14  0.96  0.0815288729867
-0.14  0.98  0.0674325044736
-0.12  -1  0.0633018956254
-0.12  -0.98  0.0765347846495
-0.12  -0.96  0.0925339313061
-0.12  -0.94  0.111877605486
-0.12  -0.92  0.135264960999
-0.12  -0.9  0.16354130565
-0.12  -0.88  0.197728653867
-0.12  -0.86  0.239062666185
-0.12  -0.84  0.289037310707
-0.12  -0.82  0.349458860782
-0.12  -0.8  0.422511180583
-0.12  -0.78  0.510834658243
-0.12  -0.76  0.617621639508
-0.12  -0.74  0.746731811229
-0.12  -0.72  0.902831705097
-0.12  -0.7  1.09156336381
-0.12  -0.68  1.31974826591
-0.12  -0.66  1.59563387992
-0.12  -0.64  1.92919175915
-0.12  -0.62  2.3324779515
-0.12  -0.6  2.82006875077
-0.12  -0.58  3.40958753927
-0.12  -0.56  4.12234176376
-0.12  -0.54  4.98409306742
-0.12  -0.52  6.02598841345
-0.12  -0.5  7.28568585455
-0.12  -0.48  8.80871563786
-0.12  -0.46  10.650125841
-0.12  -0.44  12.8764720183
-0.12  -0.42  15.5682227717
-0.12  -0.4  18.8226681909
-0.12  -0.38  22.7574362866
-0.12  -0.36  27.5147445138
-0.12  -0.34  33.2665400498
-0.12  -0.32  40.2207146183
-0.12  -0.3  48.6286184852
-0.12  -0.28  58.7941452116
-0.12  -0.26  71.0847155202
-0.12  -0.24  85.9445572753
-0.12  -0.22  103.910761564
-0.12  -0.2  70.2179528661
-0.12  -0.18  66.3469693957
-0.12  -0.16  62.0715980725
-0.12  -0.14  57.483990876
-0.12  -0.12  52.7013861288
-0.12  -0.1  47.8756844247
-0.12  -0.08  43.2073235096
-0.12  -0.06  38.962075944
-0.12  -0.04  35.4811131552
-0.12  -0.02  33.1566483271
-0.12  6.17561557e-16  32.3341281606
-0.12  0.02  33.1566483271
-0.12  0.04  35.4811131552
-0.12  0.06  38.962075944
-0.12  0.08  43.2073235096
-0.12  0.1  47.8756844247
-0.12  0.12  52.7013861288
-0.12  0.14  57.483990876
-0.12  0.16  62.0715980725
-0.12  0.18  66.3469693957
-0.12  0.2  125.632695206
-0.12  0.22  103.910761564
-0.12  0.24  85.9445572753
-0.12  0.26  71.0847155202
-0.12  0.28  58.7941452116
-0.12  0.3  48.6286184852
-0.12  0.32  40.2207146183
-0.12  0.34  33.2665400498
-0.12  0.36  27.5147445138
-0.12  0.38  22.7574362866
-0.12  0.4  18.8226681909
-0.12  0.42  15.5682227717
-0.12  0.44  12.8764720183
-0.12  0.46  10.650125841
-0.12  0.48  8.80871563786
-0.12  0.5  7.28568585455
-0.12  0.52  6.02598841345
-0.12  0.54  4.98409306742
-0.12  0.56  4.12234176376
-0.12  0.58  3.40958753927
-0.12  0.6  2.82006875077
-0.12  0.62  2.3324779515
-0.12  0.64  1.92919175915
-0.12  0.66  1.59563387992
-0.12  0.68  1.31974826591
-0.12  0.7  1.09156336381
-0.12  0.72  0.902831705097
-0.12  0.74  0.746731811229
-0.12  0.76  0.617621639508
-0.12  0.78  0.510834658243
-0.12  0.8  0.422511180583
-0.12  0.82  0.349458860782
-0.12  0.84  0.289037310707
-0.12  0.86  0.239062666185
-0.12  0.88  0.197728653867
-0.12  0.9  0.16354130565
-0.12  0.92  0.135264960999
-0.12  0.94  0.111877605486
-0.12  0.96  0.0925339313061
-0.12  0.98  0.0765347846495
-0.1  -1  0.0718466114735
-0.1  -0.98  0.0868657230971
-0.1  -0.96  0.105024491684
-0.1  -0.94  0.126979244058
-0.1  -0.92  0.153523508307
-0.1  -0.9  0.185616694901
-0.1  -0.88  0.224418773422
-0.1  -0.86  0.271332198278
-0.1  -0.84  0.328052598718
-0.1  -0.82  0.396630065317
-0.1  -0.8  0.479543248028
-0.1  -0.78  0.579788944002
-0.1  -0.76  0.700990413208
-0.1  -0.74  0.847528336809
-0.1  -0.72  1.0246991516
-0.1  -0.7  1.23890648334
-0.1  -0.68  1.49789259811
-0.1  -0.66  1.81101823716
-0.1  -0.64  2.18960094967
-0.1  -0.62  2.64732415192
-0.1  -0.6  3.20073169789
-0.1  -0.58  3.86982583695
-0.1  -0.56  4.67879017106
-0.1  -0.54  5.65686374199
-0.1  -0.52  6.83939784121
-0.1  -0.5  8.2691337398
-0.1  -0.48  9.99774752022
-0.1  -0.46  12.087717846
-0.1  -0.44  14.6145841781
-0.1  -0.42  17.6696770573
-0.1  -0.4  21.3634191369
-0.1  -0.38  25.8293162766
-0.1  -0.36  31.228782951
-0.1  -0.34  37.7569763814
-0.1  -0.32  45.6498502583
-0.1  -0.3  55.1926830039
-0.1  -0.28  66.730388817
-0.1  -0.26  80.679984181
-0.1  -0.24  97.5456604232
-0.1  -0.22  117.937007103
-0.1  -0.2  79.6962228097
-0.1  -0.18  75.3027201716
-0.1  -0.16  70.450243965
-0.1  -0.14  65.2433851721
-0.1  -0.12  59.8152073631
-0.1  -0.1  54.3381152161
-0.1  -0.08  49.0396022794
-0.1  -0.06  44.2213160426
-0.1  -0.04  40.2704804702
-0.1  -0.02  37.6322510817
-0.1  6.17561557e-16  36.6987042069
-0.1  0.02  37.6322510817
-0.1  0.04  40.2704804702
-0.1  0.06  44.2213160426
-0.1  0.08  49.0396022794
-0.1  0.1  54.3381152161
-0.1  0.12  59.8152073631
-0.1  0.14  65.2433851721
-0.1  0.16  70.450243965
-0.1  0.18  75.3027201716
-0.1  0.2  142.591044891
-0.1  0.22  117.937007103
-0.1  0.24  97.5456604232
-0.1  0.26  80.679984181
-0.1  0.28  66.730388817
-0.1  0.3  55.1926830039
-0.1  0.32  45.6498502583
-0.1  0.34  37.7569763814
-0.1  0.36  31.228782951
-0.1  0.38  25.8293162766
-0.1  0.4  21.3634191369
-0.1  0.42  17.6696770573
-0.1  0.44  14.6145841781
-0.1  0.46  12.087717846
-0.1  0.48  9.99774752022
-0.1  0.5  8.2691337398
-0.1  0.52  6.83939784121
-0.1  0.54  5.65686374199
-0.1  0.56  4.67879017106
-0.1  0.58  3.86982583695
-0.1  0.6  3.20073169789
-0.1  0.62  2.64732415192
-0.1  0.64  2.18960094967
-0.1  0.66  1.81101823716
-0.1  0.68  1.49789259811
-0.1  0.7  1.23890648334
-0.1  0.72  1.0246991516
-0.1  0.74  0.847528336809
-0.1  0.76  0.700990413208
-0.1  0.78  0.579788944002
-0.1  0.8  0.479543248028
-0.1  0.82  0.396630065317
-0.1  0.84  0.328052598718
-0.1  0.86  0.271332198278
-0.1  0.88  0.224418773422
-0.1  0.9  0.185616694901
-0.1  0.92  0.153523508307
-0.1  0.94  0.126979244058
-0.1  0.96  0.105024491684
-0.1  0.98  0.0868657230971
-0.08  -1  0.0815447235699
-0.08  -0.98  0.0985911684961
-0.08  -0.96  0.11920107249
-0.08  -0.94  0.144119355714
-0.08  -0.92  0.17424665951
-0.08  -0.9  0.210671898997
-0.08  -0.88  0.254711620594
-0.08  -0.86  0.307957587009
-0.08  -0.84  0.372334309582
-0.08  -0.82  0.450168607432
-0.08  -0.8  0.544273707531
-0.08  -0.78  0.658050925407
-0.08  -0.76  0.795612601595
-0.08  -0.74  0.961930737238
-0.08  -0.72  1.16301670108
-0.08  -0.7  1.40613850314
-0.08  -0.68  1.70008348821
-0.08  -0.66  2.05547594383
-0.08  -0.64  2.48516110235
-0.08  -0.62  3.00466941643
-0.08  -0.6  3.63277788852
-0.08  -0.58  4.39218874301
-0.08  -0.56  5.31034997081
-0.08  -0.54  6.42044740389
-0.08  -0.52  7.76260417726
-0.08  -0.5  9.38533093134
-0.08  -0.48  11.3472791707
-0.08  -0.46  13.7193611519
-0.08  -0.44  16.5873129219
-0.08  -0.42  20.0547931441
-0.08  -0.4  24.2471297156
-0.08  -0.38  29.3158495937
-0.08  -0.36  35.444155555
-0.08  -0.34  42.8535478391
-0.08  -0.32  51.811830008
-0.08  -0.3  62.6427883839
-0.08  -0.28  75.7378949152
-0.08  -0.26  91.570456459
-0.08  -0.24  110.712721888
-0.08  -0.22  133.856565336
-0.08  -0.2  90.4539034659
-0.08  -0.18  85.4673501578
-0.08  -0.16  79.9598693903
-0.08  -0.14  74.0501702099
-0.08  -0.12  67.8892775827
-0.08  -0.1  61.6728679854
-0.08  -0.08  55.6591428578
-0.08  -0.06  50.1904671443
-0.08  -0.04  45.7063336826
-0.08  -0.02  42.7119866731
-0.08  6.17561557e-16  41.6524263086
-0.08  0.02  42.7119866731
-0.08  0.04  45.7063336826
-0.08  0.06  50.1904671443
-0.08  0.08  55.6591428578
-0.08  0.1  61.6728679854
-0.08  0.12  67.8892775827
-0.08  0.14  74.0501702099
-0.08  0.16  79.9598693903
-0.08  0.18  85.4673501578
-0.08  0.2  161.838493155
-0.08  0.22  133.856565336
-0.08  0.24  110.712721888
-0.08  0.26  91.570456459
-0.08  0.28  75.7378949152
-0.08  0.3  62.6427883839
-0.08  0.32  51.811830008
-0.08  0.34  42.8535478391
-0.08  0.36  35.444155555
-0.08  0.38  29.3158495937
-0.08  0.4  24.2471297156
-0.08  0.42  20.0547931441
-0.08  0.44  16.5873129219
-0.08  0.46  13.7193611519
-0.08  0.48  11.3472791707
-0.08  0.5  9.38533093134
-0.08  0.52  7.76260417726
-0.08  0.54  6.42044740389
-0.08  0.56  5.31034997081
-0.08  0.58  4.39218874301
-0.08  0.6  3.63277788852
-0.08  0.62  3.00466941643
-0.08  0.64  2.48516110235
-0.08  0.66  2.05547594383
-0.08  0.68  1.70008348821
-0.08  0.7  1.40613850314
-0.08  0.72  1.16301670108
-0.08  0.74  0.961930737238
-0.08  0.76  0.795612601595
-0.08  0.78  0.658050925407
-0.08  0.8  0.544273707531
-0.08  0.82  0.450168607432
-0.08  0.84  0.372334309582
-0.08  0.86  0.307957587009
-0.08  0.88  0.254711620594
-0.08  0.9  0.210671898997
-0.08  0.92  0.17424665951
-0.08  0.94  0.144119355714
-0.08  0.96  0.11920107249
-0.08  0.98  0.0985911684961
-0.06  -1  0.0925519214576
-0.06  -0.98  0.111899356373
-0.06  -0.96  0.135291258781
-0.06  -0.94  0.163573100829
-0.06  -0.92  0.197767095641
-0.06  -0.9  0.239109143985
-0.06  -0.88  0.289093504418
-0.06  -0.86  0.349526801458
-0.06  -0.84  0.422593323857
-0.06  -0.82  0.510933973086
-0.06  -0.8  0.617741715535
-0.06  -0.78  0.746876988444
-0.06  -0.76  0.903007230754
-0.06  -0.74  1.09177558207
-0.06  -0.72  1.32000484715
-0.06  -0.7  1.59594409796
-0.06  -0.68  1.92956682645
-0.06  -0.66  2.33293142441
-0.06  -0.64  2.82061701953
-0.06  -0.62  3.41025042039
-0.06  -0.6  4.12314321628
-0.06  -0.58  4.98506205888
-0.06  -0.56  6.02715996688
-0.06  -0.54  7.28710231433
-0.06  -0.52  8.81042820023
-0.06  -0.5  10.6521964044
-0.06  -0.48  12.8789754209
-0.06  -0.46  15.5712494959
-0.06  -0.44  18.8263276339
-0.06  -0.42  22.7618607147
-0.06  -0.4  27.5200938426
-0.06  -0.38  33.2730076243
-0.06  -0.36  40.2285342012
-0.06  -0.34  48.638072706
-0.06  -0.32  58.8055757816
-0.06  -0.3  71.0985355836
-0.06  -0.28  85.9612663417
-0.06  -0.26  103.930963562
-0.06  -0.24  125.657120313
-0.06  -0.22  151.925002369
-0.06  -0.2  102.66369426
-0.06  -0.18  97.0040381854
-0.06  -0.16  90.7531380032
-0.06  -0.14  84.0457265309
-0.06  -0.12  77.0532146235
-0.06  -0.1  69.9976918673
-0.06  -0.08  63.172212654
-0.06  -0.06  56.9653555706
-0.06  -0.04  51.8759377665
-0.06  -0.02  48.4774031085
-0.06  6.17561557e-16  47.2748195035
-0.06  0.02  48.4774031085
-0.06  0.04  51.8759377666
-0.06  0.06  56.9653555706
-0.06  0.08  63.172212654
-0.06  0.1  69.9976918673
-0.06  0.12  77.0532146235
-0.06  0.14  84.0457265309
-0.06  0.16  90.7531380032
-0.06  0.18  97.0040381854
-0.06  0.2  183.684030696
-0.06  0.22  151.925002369
-0.06  0.24  125.657120313
-0.06  0.26  103.930963562
-0.06  0.28  85.9612663417
-0.06  0.3  71.0985355836
-0.06  0.32  58.8055757816
-0.06  0.34  48.638072706
-0.06  0.36  40.2285342012
-0.06  0.38  33.2730076243
-0.06  0.4  27.5200938426
-0.06  0.42  22.7618607147
-0.06  0.44  18.8263276339
-0.06  0.46  15.5712494959
-0.06  0.48  12.8789754209
-0.06  0.5  10.6521964044
-0.06  0.52  8.81042820023
-0.06  0.54  7.28710231433
-0.06  0.56  6.02715996688
-0.06  0.58  4.98506205888
-0.06  0.6  4.12314321628
-0.06  0.62  3.41025042039
-0.06  0.64  2.82061701953
-0.06  0.66  2.33293142441
-0.06  0.68  1.92956682645
-0.06  0.7  1.59594409796
-0.06  0.72  1.32000484715
-0.06  0.74  1.09177558207
-0.06  0.76  0.903007230754
-0.06  0.78  0.746876988444
-0.06  0.8  0.617741715535
-0.06  0.82  0.510933973086
-0.06  0.84  0.422593323857
-0.06  0.86  0.349526801458
-0.06  0.88  0.289093504417
-0.06  0.9  0.239109143985
-0.06  0.92  0.197767095641
-0.06  0.94  0.163573100829
-0.06  0.96  0.135291258781
-0.06  0.98  0.111899356373
-0.04  -1  0.10504491021
-0.04  -0.98  0.127003930957
-0.04  -0.96  0.153553355857
-0.04  -0.94  0.185652781906
-0.04  -0.92  0.224462404204
-0.04  -0.9  0.271384949817
-0.04  -0.88  0.328116377656
-0.04  -0.86  0.396707176867
-0.04  -0.84  0.479636479295
-0.04  -0.82  0.579901664717
-0.04  -0.8  0.701126697526
-0.04  -0.78  0.847693110562
-0.04  -0.76  1.02489837034
-0.04  -0.74  1.23914734759
-0.04  -0.72  1.49818381361
-0.04  -0.7  1.81137032954
-0.04  -0.68  2.1900266449
-0.04  -0.66  2.64783883623
-0.04  -0.64  3.20135397393
-0.04  -0.62  3.87057819613
-0.04  -0.6  4.67969980651
-0.04  -0.58  5.65796353138
-0.04  -0.56  6.8407275351
-0.04  -0.54  8.27074139838
-0.04  -0.52  9.99969125036
-0.04  -0.5  12.0900679016
-0.04  -0.48  14.6174254989
-0.04  -0.46  17.6731123395
-0.04  -0.44  21.3675725446
-0.04  -0.42  25.8343379298
-0.04  -0.4  31.2348543513
-0.04  -0.38  37.7643169722
-0.04  -0.36  45.6587253564
-0.04  -0.34  55.2034133891
-0.04  -0.32  66.7433623261
-0.04  -0.3  80.6956697259
-0.04  -0.28  97.564624939
-0.04  -0.26  117.959936039
-0.04  -0.24  142.618766987
-0.04  -0.22  172.432381534
-0.04  -0.2  116.521606203
-0.04  -0.18  110.097989547
-0.04  -0.16  103.003320543
-0.04  -0.14  95.3905187264
-0.04  -0.12  87.4541325998
-0.04  -0.1  79.4462301949
-0.04  -0.08  71.6994234317
-0.04  -0.06  64.6547426217
-0.04  -0.04  58.8783370342
-0.04  -0.02  55.0210560359
-0.04  6.17561557e-16  53.6561434028
-0.04  0.02  55.0210560359
-0.04  0.04  58.8783370342
-0.04  0.06  64.6547426217
-0.04  0.08  71.6994234317
-0.04  0.1  79.4462301949
-0.04  0.12  87.4541325998
-0.04  0.14  95.3905187264
-0.04  0.16  103.003320543
-0.04  0.18  110.097989547
-0.04  0.2  208.478356879
-0.04  0.22  172.432381534
-0.04  0.24  142.618766987
-0.04  0.26  117.959936039
-0.04  0.28  97.564624939
-0.04  0.3  80.6956697259
-0.04  0.32  66.7433623261
-0.04  0.34  55.2034133891
-0.04  0.36  45.6587253564
-0.04  0.38  37.7643169722
-0.04  0.4  31.2348543513
-0.04  0.42  25.8343379298
-0.04  0.44  21.3675725446
-0.04  0.46  17.6731123395
-0.04  0.48  14.6174254989
-0.04  0.5  12.0900679016
-0.04  0.52  9.99969125036
-0.04  0.54  8.27074139838
-0.04  0.56  6.8407275351
-0.04  0.58  5.65796353138
-0.04  0.6  4.67969980651
-0.04  0.62  3.87057819613
-0.04  0.64  3.20135397393
-0.04  0.66  2.64783883623
-0.04  0.68  2.1900266449
-0.04  0.7  1.81137032954
-0.04  0.72  1.49818381361
-0.04  0.74  1.23914734759
-0.04  0.76  1.02489837034
-0.04  0.78  0.847693110562
-0.04  0.8  0.701126697526
-0.04  0.82  0.579901664717
-0.04  0.84  0.479636479295
-0.04  0.86  0.396707176867
-0.04  0.88  0.328116377656
-0.04  0.9  0.271384949817
-0.04  0.92  0.224462404204
-0.04  0.94  0.185652781906
-0.04  0.96  0.153553355857
-0.04  0.98  0.127003930957
-0.02  -1  0.119224247182
-0.02  -0.98  0.144147374939
-0.02  -0.96  0.174280535989
-0.02  -0.94  0.210712857155
-0.02  -0.92  0.254761140814
-0.02  -0.9  0.30801745914
-0.02  -0.88  0.37240669763
-0.02  -0.86  0.450256127775
-0.02  -0.84  0.544379523488
-0.02  -0.82  0.658178861566
-0.02  -0.8  0.795767282056
-0.02  -0.78  0.96211775274
-0.02  -0.76  1.16324281107
-0.02  -0.74  1.4064118801
-0.02  -0.72  1.70041401302
-0.02  -0.7  2.0558755629
-0.02  -0.68  2.48564425943
-0.02  -0.66  3.00525357466
-0.02  -0.64  3.63348416159
-0.02  -0.62  4.39304265832
-0.02  -0.6  5.31138239209
-0.02  -0.58  6.42169564677
-0.02  -0.56  7.76411335797
-0.02  -0.54  9.38715559741
-0.02  -0.52  11.3494852725
-0.02  -0.5  13.7220284263
-0.02  -0.48  16.5905377744
-0.02  -0.46  20.0586921329
-0.02  -0.44  24.2518437651
-0.02  -0.42  29.3215490876
-0.02  -0.4  35.4510464945
-0.02  -0.38  42.861879289
-0.02  -0.36  51.8219030986
-0.02  -0.34  62.6549671948
-0.02  -0.32  75.7526196348
-0.02  -0.3  91.5882592948
-0.02  -0.28  110.734246302
-0.02  -0.26  133.882589302
-0.02  -0.24  161.869957278
-0.02  -0.22  195.707919946
-0.02  -0.2  132.250108569
-0.02  -0.18  124.959409206
-0.02  -0.16  116.907076454
-0.02  -0.14  108.266671471
-0.02  -0.12  99.2590036138
-0.02  -0.1  90.1701659556
-0.02  -0.08  81.3776675608
-0.02  -0.06  73.3820705868
-0.02  -0.04  66.8259451523
-0.02  -0.02  62.447994595
-0.02  6.17561557e-16  60.8988411823
-0.02  0.02  62.447994595
-0.02  0.04  66.8259451523
-0.02  0.06  73.3820705868
-0.02  0.08  81.3776675608
-0.02  0.1  90.1701659556
-0.02  0.12  99.2590036138
-0.02  0.14  108.266671471
-0.02  0.16  116.907076454
-0.02  0.18  124.959409206
-0.02  0.2  236.619509721
-0.02  0.22  195.707919946
-0.02  0.24  161.869957278
-0.02  0.26  133.882589302
-0.02  0.28  110.734246302
-0.02  0.3  91.5882592948
-0.02  0.32  75.7526196348
-0.02  0.34  62.6549671948
-0.02  0.36  51.8219030986
-0.02  0.38  42.861879289
-0.02  0.4  35.4510464945
-0.02  0.42  29.3215490876
-0.02  0.44  24.2518437651
-0.02  0.46  20.0586921329
-0.02  0.48  16.5905377744
-0.02  0.5  13.7220284263
-0.02  0.52  11.3494852725
-0.02  0.54  9.38715559741
-0.02  0.56  7.76411335797
-0.02  0.58  6.42169564677
-0.02  0.6  5.31138239209
-0.02  0.62  4.39304265832
-0.02  0.64  3.63348416159
-0.02  0.66  3.00525357466
-0.02  0.68  2.48564425943
-0.02  0.7  2.0558755629
-0.02  0.72  1.70041401302
-0.02  0.74  1.4064118801
