0.14  0.32  22.7265557457
0.14  0.34  18.0007384173
0.14  0.36  14.2576194647
0.14  0.38  11.292854109
0.14  0.4  8.94458953988
0.14  0.42  7.08462902864
0.14  0.44  5.61143339777
0.14  0.46  4.44457778245
0.14  0.48  3.52036106712
0.14  0.5  2.78832830687
0.14  0.52  2.20851628531
0.14  0.54  1.74927183806
0.14  0.56  1.38552383959
0.14  0.58  1.09741451747
0.14  0.6  0.869215374525
0.14  0.62  0.68846853699
0.14  0.64  0.545306652778
0.14  0.66  0.431914211888
0.14  0.68  0.342100881184
0.14  0.7  0.270963561016
0.14  0.72  0.214618714645
0.14  0.74  0.169990357756
0.14  0.76  0.134642133971
0.14  0.78  0.106644309004
0.14  0.8  0.0844684223846
0.14  0.82  0.0669038455661
0.14  0.84  0.0529916911572
0.14  0.86  0.0419724652288
0.14  0.88  0.0332446049355
0.14  0.9  0.0263316379272
0.14  0.92  0.0208561707162
0.14  0.94  0.0165192859687
0.14  0.96  0.0130842239753
0.14  0.98  0.0103634574375
0.16  -1  0.00899942290816
0.16  -0.98  0.0113620831357
0.16  -0.96  0.0143450235088
0.16  -0.94  0.0181110890504
0.16  -0.92  0.0228658772423
0.16  -0.9  0.0288689620268
0.16  -0.88  0.0364480644969
0.16  -0.86  0.0460169438837
0.16  -0.84  0.0580979855482
0.16  -0.82  0.0733507191022
0.16  -0.8  0.092607823525
0.16  -0.78  0.11692058487
0.16  -0.76  0.147616288192
0.16  -0.74  0.186370676847
0.16  -0.72  0.235299434865
0.16  -0.7  0.297073686615
0.16  -0.68  0.375065819131
0.16  -0.66  0.473533587858
0.16  -0.64  0.597852556515
0.16  -0.62  0.754809560499
0.16  -0.6  0.952973214568
0.16  -0.58  1.20316169165
0.16  -0.56  1.51903330978
0.16  -0.54  1.91783216855
0.16  -0.52  2.421329541
0.16  -0.5  3.05701241343
0.16  -0.48  3.8595840581
0.16  -0.46  4.87285855827
0.16  -0.44  6.15215271166
0.16  -0.42  7.76730589139
0.16  -0.4  9.80649272508
0.16  -0.38  12.3810367342
0.16  -0.36  15.6314877205
0.16  -0.34  19.7352946771
0.16  -0.32  24.9164931038
0.16  -0.3  31.4579355794
0.16  -0.28  39.7167332817
0.16  -0.26  50.1437514418
0.16  -0.24  63.308223031
0.16  -0.22  79.9288243919
0.16  -0.2  91.4497535299
0.16  -0.18  83.1578175198
0.16  -0.16  74.6244255463
0.16  -0.14  65.8783245958
0.16  -0.12  56.9509278356
0.16  -0.1  47.8781874312
0.16  -0.08  38.7052875036
0.16  -0.06  29.5003339413
0.16  -0.04  20.4049628147
0.16  -0.02  11.9089050145
0.16  6.17561557e-16  7.06690681366
0.16  0.02  11.9089050145
0.16  0.04  20.4049628147
0.16  0.06  29.5003339413
0.16  0.08  38.7052875036
0.16  0.1  47.8781874312
0.16  0.12  56.9509278356
0.16  0.14  65.8783245958
0.16  0.16  74.6244255463
0.16  0.18  83.1578175198
0.16  0.2  100.9129093
0.16  0.22  79.9288243919
0.16  0.24  63.308223031
0.16  0.26  50.1437514418
0.16  0.28  39.7167332817
0.16  0.3  31.4579355794
0.16  0.32  24.9164931038
0.16  0.34  19.7352946771
0.16  0.36  15.6314877205
0.16  0.38  12.3810367342
0.16  0.4  9.80649272508
0.16  0.42  7.76730589139
0.16  0.44  6.15215271166
0.16  0.46  4.87285855827
0.16  0.48  3.8595840581
0.16  0.5  3.05701241343
0.16  0.52  2.421329541
0.16  0.54  1.91783216855
0.16  0.56  1.51903330978
0.16  0.58  1.20316169165
0.16  0.6  0.952973214568
0.16  0.62  0.754809560499
0.16  0.64  0.597852556515
0.16  0.66  0.473533587858
0.16  0.68  0.375065819131
0.16  0.7  0.297073686615
0.16  0.72  0.235299434865
0.16  0.74  0.186370676847
0.16  0.76  0.147616288192
0.16  0.78  0.11692058487
0.16  0.8  0.092607823525
0.16  0.82  0.0733507191022
0.16  0.84  0.0580979855482
0.16  0.86  0.0460169438837
0.16  0.88  0.0364480644969
0.16  0.9  0.0288689620268
0.16  0.92  0.0228658772423
0.16  0.94  0.0181110890504
0.16  0.96  0.0143450235088
0.16  0.98  0.0113620831357
0.18  -1  0.0117446487304
0.18  -0.98  0.0148280258231
0.18  -0.96  0.0187208962019
0.18  -0.94  0.0236357798931
0.18  -0.92  0.0298409907906
0.18  -0.9  0.0376752844795
0.18  -0.88  0.0475663516191
0.18  -0.86  0.0600541664812
0.18  -0.84  0.0758204652866
0.18  -0.82  0.0957259636277
0.18  -0.8  0.120857344753
0.18  -0.78  0.152586583902
0.18  -0.76  0.192645847338
0.18  -0.74  0.243222054964
0.18  -0.72  0.307076268907
0.18  -0.7  0.387694425736
0.18  -0.68  0.489477641114
0.18  -0.66  0.617982476008
0.18  -0.64  0.780224281101
0.18  -0.62  0.985060179622
0.18  -0.6  1.24367259643
0.18  -0.58  1.57017973025
0.18  -0.56  1.98240629596
0.18  -0.54  2.50285661352
0.18  -0.52  3.15994316634
0.18  -0.5  3.98953769887
0.18  -0.48  5.03692953097
0.18  -0.46  6.35929799764
0.18  -0.44  8.02883398986
0.18  -0.42  10.136681008
0.18  -0.4  12.7979108781
0.18  -0.38  16.1578057666
0.18  -0.36  20.3997894403
0.18  -0.34  25.7554407586
0.18  -0.32  32.5171360524
0.18  -0.3  41.0540105665
0.18  -0.28  51.8321103333
0.18  -0.26  65.4398346115
0.18  -0.24  82.6200578452
0.18  -0.22  104.310684751
0.18  -0.2  91.6273740668
0.18  -0.18  83.5232614285
0.18  -0.16  75.2071994647
0.18  -0.14  66.7185980697
0.18  -0.12  58.1062031694
0.18  -0.1  49.4357747207
0.18  -0.08  40.8074773823
0.18  -0.06  32.399588915
0.18  -0.04  24.5912180198
0.18  -0.02  18.3186158724
0.18  6.17561557e-16  15.6682088725
0.18  0.02  18.3186158724
0.18  0.04  24.5912180198
0.18  0.06  32.399588915
0.18  0.08  40.8074773823
0.18  0.1  49.4357747207
0.18  0.12  58.1062031694
0.18  0.14  66.7185980697
0.18  0.16  75.2071994647
0.18  0.18  83.5232614285
0.18  0.2  131.695852522
0.18  0.22  104.310684751
0.18  0.24  82.6200578452
0.18  0.26  65.4398346115
0.18  0.28  51.8321103333
0.18  0.3  41.0540105665
0.18  0.32  32.5171360524
0.18  0.34  25.7554407586
0.18  0.36  20.3997894403
0.18  0.38  16.1578057666
0.18  0.4  12.7979108781
0.18  0.42  10.136681008
0.18  0.44  8.02883398986
0.18  0.46  6.35929799764
0.18  0.48  5.03692953097
0.18  0.5  3.98953769887
0.18  0.52  3.15994316634
0.18  0.54  2.50285661352
0.18  0.56  1.98240629596
0.18  0.58  1.57017973025
0.18  0.6  1.24367259643
0.18  0.62  0.985060179622
0.18  0.64  0.780224281101
0.18  0.66  0.617982476008
0.18  0.68  0.489477641114
0.18  0.7  0.387694425736
0.18  0.72  0.307076268907
0.18  0.74  0.243222054964
0.18  0.76  0.192645847338
0.18  0.78  0.152586583902
0.18  0.8  0.120857344753
0.18  0.82  0.0957259636277
0.18  0.84  0.0758204652866
0.18  0.86  0.0600541664812
0.18  0.88  0.0475663516191
0.18  0.9  0.0376752844795
0.18  0.92  0.0298409907906
0.18  0.94  0.0236357798931
0.18  0.96  0.0187208962019
0.18  0.98  0.0148280258231
0.2  -1  0.0151680441978
0.2  -0.98  0.0191501811773
0.2  -0.96  0.0241777670437
0.2  -0.94  0.0305252683411
0.2  -0.92  0.0385392085884
0.2  -0.9  0.0486570857305
0.2  -0.88  0.0614312560767
0.2  -0.86  0.0775590885993
0.2  -0.84  0.097921035781
0.2  -0.82  0.123628699377
0.2  -0.8  0.156085515107
0.2  -0.78  0.197063369178
0.2  -0.76  0.248799329297
0.2  -0.74  0.314117770932
0.2  -0.72  0.396584565941
0.2  -0.7  0.500701751052
0.2  -0.68  0.632153303576
0.2  -0.66  0.798115441742
0.2  -0.64  1.00764838963
0.2  -0.62  1.27219099396
0.2  -0.6  1.60618519492
0.2  -0.58  2.02786444223
0.2  -0.56  2.56024909773
0.2  -0.54  3.23240316556
0.2  -0.52  4.0810209577
0.2  -0.5  5.15243031396
0.2  -0.48  6.50512173678
0.2  -0.46  8.21294151144
0.2  -0.44  10.3691231309
0.2  -0.42  13.0913771095
0.2  -0.4  16.5283170485
0.2  -0.38  20.8675727672
0.2  -0.36  26.3460334115
0.2  -0.34  33.262779733
0.2  -0.32  41.9954115402
0.2  -0.3  53.0206616702
0.2  -0.28  66.9404218422
0.2  -0.26  84.5146012
0.2  -0.24  106.702611358
0.2  -0.22  134.715742712
0.2  -0.2  91.9140131507
0.2  -0.18  84.1111378428
0.2  -0.16  76.1406033937
0.2  -0.14  68.0560800638
0.2  -0.12  59.928137881
0.2  -0.1  51.8567606027
0.2  -0.08  43.996338112
0.2  -0.06  36.6071201701
0.2  -0.04  30.1575505499
0.2  -0.02  25.4761143177
0.2  6.17561557e-16  23.7037709812
0.2  0.02  25.4761143177
0.2  0.04  30.1575505499
0.2  0.06  36.6071201701
0.2  0.08  43.996338112
0.2  0.1  51.8567606027
0.2  0.12  59.928137881
0.2  0.14  68.0560800638
0.2  0.16  76.1406033937
0.2  0.18  84.1111378428
0.2  0.2  170.083291341
0.2  0.22  134.715742712
0.2  0.24  106.702611358
0.2  0.26  84.5146012
0.2  0.28  66.9404218422
0.2  0.3  53.0206616702
0.2  0.32  41.9954115402
0.2  0.34  33.262779733
0.2  0.36  26.3460334115
0.2  0.38  20.8675727672
0.2  0.4  16.5283170485
0.2  0.42  13.0913771095
0.2  0.44  10.3691231309
0.2  0.46  8.21294151144
0.2  0.48  6.50512173678
0.2  0.5  5.15243031396
0.2  0.52  4.0810209577
0.2  0.54  3.23240316556
0.2  0.56  2.56024909773
0.2  0.58  2.02786444223
0.2  0.6  1.60618519492
0.2  0.62  1.27219099396
0.2  0.64  1.00764838963
0.2  0.66  0.798115441742
0.2  0.68  0.632153303576
0.2  0.7  0.500701751052
0.2  0.72  0.396584565941
0.2  0.74  0.314117770932
0.2  0.76  0.248799329297
0.2  0.78  0.197063369178
0.2  0.8  0.156085515107
0.2  0.82  0.123628699377
0.2  0.84  0.097921035781
0.2  0.86  0.0775590885993
0.2  0.88  0.0614312560767
0.2  0.9  0.0486570857305
0.2  0.92  0.0385392085884
0.2  0.94  0.0305252683411
0.2  0.96  0.0241777670437
0.2  0.98  0.0191501811773
0.22  -1  0.0185526645698
0.22  -0.98  0.0234233816304
0.22  -0.96  0.0295728306272
0.22  -0.94  0.0373367229848
0.22  -0.92  0.0471389060053
0.22  -0.9  0.0595145015882
0.22  -0.88  0.0751391196668
0.22  -0.86  0.0948657411829
0.22  -0.84  0.119771284121
0.22  -0.82  0.151215394736
0.22  -0.8  0.190914673522
0.22  -0.78  0.241036388058
0.22  -0.76  0.304316788732
0.22  -0.74  0.384210486435
0.22  -0.72  0.485079047074
0.22  -0.7  0.612429098678
0.22  -0.68  0.773212949868
0.22  -0.66  0.976208131088
0.22  -0.64  1.23249657855
0.22  -0.62  1.55606962056
0.22  -0.6  1.96459179375
0.22  -0.58  2.48036518743
0.22  -0.56  3.13154696187
0.22  -0.54  3.95368650717
0.22  -0.52  4.99166615966
0.22  -0.5  6.30215142357
0.22  -0.48  7.95668446071
0.22  -0.46  10.0455897284
0.22  -0.44  12.6829049825
0.22  -0.42  16.0126068398
0.22  -0.4  20.2164707661
0.22  -0.38  25.5239945827
0.22  -0.36  32.2249272387
0.22  -0.34  40.6850868179
0.22  -0.32  51.3663313223
0.22  -0.3  64.8517724768
0.22  -0.28  81.8776090313
0.22  -0.26  103.373317408
0.22  -0.24  130.512393782
0.22  -0.22  164.776417725
0.22  -0.2  92.2678596988
0.22  -0.18  84.8337355718
0.22  -0.16  77.2812495796
0.22  -0.14  69.6773278096
0.22  -0.12  62.1110404208
0.22  -0.1  54.7074554775
0.22  -0.08  47.6516176352
0.22  -0.06  41.2281087097
0.22  -0.04  35.8747035029
0.22  -0.02  32.2077583007
0.22  6.17561557e-16  30.8834490308
0.22  0.02  32.2077583007
0.22  0.04  35.8747035029
0.22  0.06  41.2281087097
0.22  0.08  47.6516176352
0.22  0.1  54.7074554775
0.22  0.12  62.1110404208
0.22  0.14  69.6773278096
0.22  0.16  77.2812495796
0.22  0.18  84.8337355718
0.22  0.2  208.03593476
0.22  0.22  164.776417725
0.22  0.24  130.512393782
0.22  0.26  103.373317408
0.22  0.28  81.8776090313
0.22  0.3  64.8517724768
0.22  0.32  51.3663313223
0.22  0.34  40.6850868179
0.22  0.36  32.2249272387
0.22  0.38  25.5239945827
0.22  0.4  20.2164707661
0.22  0.42  16.0126068398
0.22  0.44  12.6829049825
0.22  0.46  10.0455897284
0.22  0.48  7.95668446071
0.22  0.5  6.30215142357
0.22  0.52  4.99166615966
0.22  0.54  3.95368650717
0.22  0.56  3.13154696187
0.22  0.58  2.48036518743
0.22  0.6  1.96459179375
0.22  0.62  1.55606962056
0.22  0.64  1.23249657855
0.22  0.66  0.976208131088
0.22  0.68  0.773212949868
0.22  0.7  0.612429098678
0.22  0.72  0.485079047074
0.22  0.74  0.384210486435
0.22  0.76  0.304316788732
0.22  0.78  0.241036388058
0.22  0.8  0.190914673522
0.22  0.82  0.151215394736
0.22  0.84  0.119771284121
0.22  0.86  0.0948657411829
0.22  0.88  0.0751391196668
0.22  0.9  0.0595145015882
0.22  0.92  0.0471389060053
0.22  0.94  0.0373367229848
0.22  0.96  0.0295728306272
0.22  0.98  0.0234233816304
0.24  -1  0.0215405874686
0.24  -0.98  0.0271957377833
0.24  -0.96  0.0343355609337
0.24  -0.94  0.0433498349642
0.24  -0.92  0.0547306681562
0.24  -0.9  0.0690993642606
0.24  -0.88  0.0872403407828
0.24  -0.86  0.110143951993
0.24  -0.84  0.139060554462
0.24  -0.82  0.175568766667
0.24  -0.8  0.221661649116
0.24  -0.78  0.279855509733
0.24  -0.76  0.35332727443
0.24  -0.74  0.446087922211
0.24  -0.72  0.563201452998
0.24  -0.7  0.711061342093
0.24  -0.68  0.897739573518
0.24  -0.66  1.13342730669
0.24  -0.64  1.43099123337
0.24  -0.62  1.80667599756
0.24  -0.6  2.28099102499
0.24  -0.58  2.87983017604
0.24  -0.56  3.63588534631
0.24  -0.54  4.59043118635
0.24  -0.52  5.79557837214
0.24  -0.5  7.31711843704
0.24  -0.48  9.23811547076
0.24  -0.46  11.6634407637
0.24  -0.44  14.7254979523
0.24  -0.42  18.5914512137
0.24  -0.4  23.4723511119
0.24  -0.38  29.6346562937
0.24  -0.36  37.4147800303
0.24  -0.34  47.2374557289
0.24  -0.32  59.6389240277
0.24  -0.3  75.2962073063
0.24  -0.28  95.0640697688
0.24  -0.26  120.02168083
0.24  -0.24  151.531529255
0.24  -0.22  191.313804301
0.24  -0.2  92.6378119103
0.24  -0.18  85.5856296751
0.24  -0.16  78.46066467
0.24  -0.14  71.3394082257
0.24  -0.12  64.322631764
0.24  -0.1  57.5479176111
0.24  -0.08  51.2083953547
0.24  -0.06  45.5772028676
0.24  -0.04  41.0273684671
0.24  -0.02  38.012058531
0.24  6.17561557e-16  36.9480027509
0.24  0.02  38.012058531
0.24  0.04  41.0273684671
0.24  0.06  45.5772028676
0.24  0.08  51.2083953547
0.24  0.1  57.5479176111
0.24  0.12  64.322631764
0.24  0.14  71.3394082257
0.24  0.16  78.46066467
0.24  0.18  85.5856296751
0.24  0.2  241.540304492
0.24  0.22  191.313804301
0.24  0.24  151.531529255
0.24  0.26  120.02168083
0.24  0.28  95.0640697688
0.24  0.3  75.2962073063
0.24  0.32  59.6389240277
0.24  0.34  47.2374557289
0.24  0.36  37.4147800303
0.24  0.38  29.6346562937
0.24  0.4  23.4723511119
0.24  0.42  18.5914512137
0.24  0.44  14.7254979523
0.24  0.46  11.6634407637
0.24  0.48  9.23811547076
0.24  0.5  7.31711843704
0.24  0.52  5.79557837214
0.24  0.54  4.59043118635
0.24  0.56  3.63588534631
0.24  0.58  2.87983017604
0.24  0.6  2.28099102499
0.24  0.62  1.80667599756
0.24  0.64  1.43099123337
0.24  0.66  1.13342730669
0.24  0.68  0.897739573518
0.24  0.7  0.711061342093
0.24  0.72  0.563201452998
0.24  0.74  0.446087922211
0.24  0.76  0.35332727443
0.24  0.78  0.279855509733
0.24  0.8  0.221661649116
0.24  0.82  0.175568766667
0.24  0.84  0.139060554462
0.24  0.86  0.110143951993
0.24  0.88  0.0872403407828
0.24  0.9  0.0690993642606
0.24  0.92  0.0547306681562
0.24  0.94  0.0433498349642
0.24  0.96  0.0343355609337
0.24  0.98  0.0271957377833
0.26  -1  0.023923008012
0.26  -0.98  0.0302036262395
0.26  -0.96  0.0381331242944
0.26  -0.94  0.0481443902437
0.26  -0.92  0.0607839602662
0.26  -0.9  0.0767418552182
0.26  -0.88  0.0968892503307
0.26  -0.86  0.122326034508
0.26  -0.84  0.15444085559
0.26  -0.82  0.19498692957
0.26  -0.8  0.24617775237
0.26  -0.78  0.310807939259
0.26  -0.76  0.39240578881
0.26  -0.74  0.495425900184
0.26  -0.72  0.625492359114
0.26  -0.7  0.789705768643
0.26  -0.68  0.997030886054
0.26  -0.66  1.25878602793
0.26  -0.64  1.589260961
0.26  -0.62  2.00649701071
0.26  -0.6  2.53327197532
0.26  -0.58  3.19834361412
0.26  -0.56  4.03801959428
0.26  -0.54  5.09813960319
0.26  -0.52  6.43657783396
0.26  -0.5  8.12640245997
0.26  -0.48  10.259864581
0.26  -0.46  12.9534344058
0.26  -0.44  16.3541596071
0.26  -0.42  20.6476929652
0.26  -0.4  26.0684275454
0.26  -0.38  32.9122927116
0.26  -0.36  41.5529095358
0.26  -0.34  52.4619875626
0.26  -0.32  66.2350764306
0.26  -0.3  83.6240781866
0.26  -0.28  105.578295209
0.26  -0.26  133.296254631
0.26  -0.24  168.291138471
0.26  -0.22  212.473391442
0.26  -0.2  92.9710377833
0.26  -0.18  86.2598147473
0.26  -0.16  79.5119772005
0.26  -0.14  72.8095282112
0.26  -0.12  66.2587325657
0.26  -0.1  60.0004849668
0.26  -0.08  54.2238004875
0.26  -0.06  49.1794773928
0.26  -0.04  45.1831364298
0.26  -0.02  42.5843649151
0.26  6.17561557e-16  41.6784562302
0.26  0.02  42.5843649151
0.26  0.04  45.1831364298
0.26  0.06  49.1794773928
0.26  0.08  54.2238004875
0.26  0.1  60.0004849668
0.26  0.12  66.2587325657
0.26  0.14  72.8095282112
0.26  0.16  79.5119772005
0.26  0.18  86.2598147473
0.26  0.2  268.255016164
0.26  0.22  212.473391442
0.26  0.24  168.291138471
0.26  0.26  133.296254631
0.26  0.28  105.578295209
0.26  0.3  83.6240781866
0.26  0.32  66.2350764306
0.26  0.34  52.4619875626
0.26  0.36  41.5529095358
0.26  0.38  32.9122927116
0.26  0.4  26.0684275454
0.26  0.42  20.6476929652
0.26  0.44  16.3541596071
0.26  0.46  12.9534344058
0.26  0.48  10.259864581
0.26  0.5  8.12640245997
0.26  0.52  6.43657783396
0.26  0.54  5.09813960319
0.26  0.56  4.03801959428
0.26  0.58  3.19834361412
0.26  0.6  2.53327197532
0.26  0.62  2.00649701071
0.26  0.64  1.589260961
0.26  0.66  1.25878602793
0.26  0.68  0.997030886054
0.26  0.7  0.789705768643
0.26  0.72  0.625492359114
0.26  0.74  0.495425900184
0.26  0.76  0.39240578881
0.26  0.78  0.310807939259
0.26  0.8  0.24617775237
0.26  0.82  0.19498692957
0.26  0.84  0.15444085559
0.26  0.86  0.122326034508
0.26  0.88  0.0968892503307
0.26  0.9  0.0767418552182
0.26  0.92  0.0607839602662
0.26  0.94  0.0481443902437
0.26  0.96  0.0381331242944
0.26  0.98  0.0302036262395
0.28  -1  0.0255663661941
0.28  -0.98  0.0322784228657
0.28  -0.96  0.0407526268999
0.28  -0.94  0.0514516030152
0.28  -0.92  0.0649594309427
0.28  -0.9  0.0820135315735
0.28  -0.88  0.103544924325
0.28  -0.86  0.13072905346
0.28  -0.84  0.165049958072
0.28  -0.82  0.208381288923
0.28  -0.8  0.263088594996
0.28  -0.78  0.332158463817
0.28  -0.76  0.419361565585
0.28  -0.74  0.529458502033
0.28  -0.72  0.66845969774
0.28  -0.7  0.843953521924
0.28  -0.68  1.06552055356
0.28  -0.66  1.34525660544
0.28  -0.64  1.6984330602
0.28  -0.62  2.14433056736
0.28  -0.6  2.70729161475
0.28  -0.58  3.41804943643
0.28  -0.56  4.31540580493
0.28  -0.54  5.448349302
0.28  -0.52  6.87872970897
0.28  -0.5  8.68463451704
0.28  -0.48  10.9646518886
0.28  -0.46  13.8432527934
0.28  -0.44  17.4775861423
0.28  -0.42  22.0660578781
0.28  -0.4  27.8591623761
0.28  -0.38  35.1731574613
0.28  -0.36  44.4073295921
0.28  -0.34  56.0657917526
0.28  -0.32  70.7850040459
0.28  -0.3  89.3685193975
0.28  -0.28  112.830851208
0.28  -0.26  142.452857788
0.28  -0.24  179.851667116
0.28  -0.22  227.068959279
0.28  -0.2  93.2204625253
0.28  -0.18  86.7625933573
0.28  -0.16  80.2923232733
0.28  -0.14  73.8941670714
0.28  -0.12  67.676084392
0.28  -0.1  61.7780638003
0.28  -0.08  56.3820556538
0.28  -0.06  51.7196385592
0.28  -0.04  48.0679617021
0.28  -0.02  45.7179465376
0.28  6.17561557e-16  44.90400459
0.28  0.02  45.7179465376
0.28  0.04  48.0679617021
0.28  0.06  51.7196385592
0.28  0.08  56.3820556538
0.28  0.1  61.7780638003
0.28  0.12  67.676084392
0.28  0.14  73.8941670714
0.28  0.16  80.2923232733
0.28  0.18  86.7625933573
0.28  0.2  286.682426108
0.28  0.22  227.068959279
0.28  0.24  179.851667116
0.28  0.26  142.452857788
0.28  0.28  112.830851208
0.28  0.3  89.3685193975
0.28  0.32  70.7850040459
0.28  0.34  56.0657917526
0.28  0.36  44.4073295921
0.28  0.38  35.1731574613
0.28  0.4  27.8591623761
0.28  0.42  22.0660578781
0.28  0.44  17.4775861423
0.28  0.46  13.8432527934
0.28  0.48  10.9646518886
0.28  0.5  8.68463451704
0.28  0.52  6.87872970897
0.28  0.54  5.448349302
0.28  0.56  4.31540580493
0.28  0.58  3.41804943643
0.28  0.6  2.70729161475
0.28  0.62  2.14433056736
0.28  0.64  1.6984330602
0.28  0.66  1.34525660544
0.28  0.68  1.06552055356
0.28  0.7  0.843953521924
0.28  0.72  0.66845969774
0.28  0.74  0.529458502033
0.28  0.76  0.419361565585
0.28  0.78  0.332158463817
0.28  0.8  0.263088594996
0.28  0.82  0.208381288923
0.28  0.84  0.165049958072
0.28  0.86  0.13072905346
0.28  0.88  0.103544924325
0.28  0.9  0.0820135315735
0.28  0.92  0.0649594309427
0.28  0.94  0.0514516030152
0.28  0.96  0.0407526268999
0.28  0.98  0.0322784228657
0.3  -1  0.0277190759108
0.3  -0.98  0.0349962934467
0.3  -0.96  0.0441840326477
0.3  -0.94  0.0557838716258
0.3  -0.92  0.0704290701209
0.3  -0.9  0.0889191404887
0.3  -0.88  0.112263494771
0.3  -0.86  0.141736550634
0.3  -0.84  0.178947304523
0.3  -0.82  0.225927170181
0.3  -0.8  0.285240877823
0.3  -0.78  0.360126488178
0.3  -0.76  0.454672165073
0.3  -0.74  0.574039356944
0.3  -0.72  0.724744571219
0.3  -0.7  0.915015124237
0.3  -0.68  1.15523828785
0.3  -0.66  1.45852835255
0.3  -0.64  1.84144256433
0.3  -0.62  2.32488501976
0.3  -0.6  2.9352478648
0.3  -0.58  3.70585209787
0.3  -0.56  4.67876663365
0.3  -0.54  5.90710493404
0.3  -0.52  7.4579245844
0.3  -0.5  9.41588810893
0.3  -0.48  11.8878848769
0.3  -0.46  15.0088664193
0.3  -0.44  18.9492137184
0.3  -0.42  23.924038666
0.3  -0.4  30.2049274758
0.3  -0.38  38.1347671503
0.3  -0.36  48.1464644062
0.3  -0.34  60.7865789683
0.3  -0.32  76.7451614202
0.3  -0.3  96.8934245253
0.3  -0.28  122.331304574
0.3  -0.26  154.44750923
0.3  -0.24  194.995330021
0.3  -0.22  246.188358231
0.3  -0.2  133.296880646
0.3  -0.18  122.679424214
0.3  -0.16  111.90531678
0.3  -0.14  101.074476541
0.3  -0.12  90.3197583893
0.3  -0.1  79.8267864598
0.3  -0.08  69.8672676253
0.3  -0.06  60.8514474223
0.3  -0.04  53.393279757
0.3  -0.02  48.3268658191
0.3  6.17561557e-16  46.5081813228
0.3  0.02  48.3268658191
0.3  0.04  53.393279757
0.3  0.06  60.8514474223
0.3  0.08  69.8672676253
0.3  0.1  79.8267864598
0.3  0.12  90.3197583893
0.3  0.14  101.074476541
0.3  0.16  111.90531678
0.3  0.18  122.679424214
0.3  0.2  310.821329525
0.3  0.22  246.188358231
0.3  0.24  194.995330021
0.3  0.26  154.44750923
0.3  0.28  122.331304574
0.3  0.3  96.8934245253
0.3  0.32  76.7451614202
0.3  0.34  60.7865789683
0.3  0.36  48.1464644062
0.3  0.38  38.1347671503
0.3  0.4  30.2049274758
0.3  0.42  23.924038666
0.3  0.44  18.9492137184
0.3  0.46  15.0088664193
0.3  0.48  11.8878848769
0.3  0.5  9.41588810893
0.3  0.52  7.4579245844
0.3  0.54  5.90710493404
0.3  0.56  4.67876663365
0.3  0.58  3.70585209787
0.3  0.6  2.9352478648
0.3  0.62  2.32488501976
0.3  0.64  1.84144256433
0.3  0.66  1.45852835255
0.3  0.68  1.15523828785
0.3  0.7  0.915015124237
0.3  0.72  0.724744571219
0.3  0.74  0.574039356944
0.3  0.76  0.454672165073
0.3  0.78  0.360126488178
0.3  0.8  0.285240877823
0.3  0.82  0.225927170181
0.3  0.84  0.178947304523
0.3  0.86  0.141736550634
0.3  0.88  0.112263494771
0.3  0.9  0.0889191404887
0.3  0.92  0.0704290701209
0.3  0.94  0.0557838716258
0.3  0.96  0.0441840326477
0.3  0.98  0.0349962934467
0.32  -1  0.0231181881384
0.32  -0.98  0.0291875132725
0.32  -0.96  0.0368502464782
0.32  -0.94  0.0465247125656
0.32  -0.92  0.0587390610967
0.32  -0.9  0.0741600991872
0.32  -0.88  0.093629693917
0.32  -0.86  0.118210731634
0.32  -0.84  0.149245143169
0.32  -0.82  0.188427162674
0.32  -0.8  0.237895819453
0.32  -0.78  0.300351712088
0.32  -0.76  0.379204439833
0.32  -0.74  0.478758739844
0.32  -0.72  0.604449491882
0.32  -0.7  0.763138419898
0.32  -0.68  0.963488688048
0.32  -0.66  1.21643784114
0.32  -0.64  1.53579490836
0.32  -0.62  1.93899426734
0.32  -0.6  2.44804742372
0.32  -0.58  3.09074466578
0.32  -0.56  3.90217219508
0.32  -0.54  4.92662755634
0.32  -0.52  6.22003793413
0.32  -0.5  7.85301333612
0.32  -0.48  9.91470134271
0.32  -0.46  12.517653862
0.32  -0.44  15.8039715764
0.32  -0.42  19.9530615194
0.32  -0.4  25.1914312851
0.32  -0.38  31.8050545564
0.32  -0.36  40.1549830133
0.32  -0.34  50.6970569077
0.32  -0.32  64.0067903466
0.32  -0.3  80.8107898243
0.32  -0.28  102.026421207
0.32  -0.26  128.811890677
0.32  -0.24  162.629473654
0.32  -0.22  205.325343506
0.32  -0.2  111.171901075
0.32  -0.18  102.316759001
0.32  -0.16  93.3309672853
0.32  -0.14  84.2978594302
0.32  -0.12  75.3282387111
0.32  -0.1  66.5769188626
0.32  -0.08  58.2705081106
0.32  -0.06  50.7511583189
0.32  -0.04  44.5309176511
0.32  -0.02  40.3054409079
0.32  6.17561557e-16  38.7886266214
0.32  0.02  40.3054409079
0.32  0.04  44.5309176511
0.32  0.06  50.7511583189
0.32  0.08  58.2705081106
0.32  0.1  66.5769188627
0.32  0.12  75.3282387111
0.32  0.14  84.2978594302
0.32  0.16  93.3309672853
0.32  0.18  102.316759001
0.32  0.2  259.230358058
0.32  0.22  205.325343506
0.32  0.24  162.629473654
0.32  0.26  128.811890677
0.32  0.28  102.026421207
0.32  0.3  80.8107898243
0.32  0.32  64.0067903466
0.32  0.34  50.6970569077
0.32  0.36  40.1549830133
0.32  0.38  31.8050545564
0.32  0.4  25.1914312851
0.32  0.42  19.9530615194
0.32  0.44  15.8039715764
0.32  0.46  12.517653862
0.32  0.48  9.91470134271
0.32  0.5  7.85301333612
0.32  0.52  6.22003793413
0.32  0.54  4.92662755634
0.32  0.56  3.90217219508
0.32  0.58  3.09074466578
0.32  0.6  2.44804742372
0.32  0.62  1.93899426734
0.32  0.64  1.53579490836
0.32  0.66  1.21643784114
0.32  0.68  0.963488688048
0.32  0.7  0.763138419898
0.32  0.72  0.604449491882
0.32  0.74  0.478758739844
0.32  0.76  0.379204439833
0.32  0.78  0.300351712088
0.32  0.8  0.237895819453
0.32  0.82  0.188427162674
0.32  0.84  0.149245143169
0.32  0.86  0.118210731634
0.32  0.88  0.093629693917
0.32  0.9  0.0741600991872
0.32  0.92  0.0587390610967
0.32  0.94  0.0465247125656
0.32  0.96  0.0368502464782
0.32  0.98  0.0291875132725
0.34  -1  0.0192809682589
0.34  -0.98  0.0243428902643
0.34  -0.96  0.0307337421266
0.34  -0.94  0.0388024139635
0.34  -0.92  0.0489893916333
0.34  -0.9  0.061850803789
0.34  -0.88  0.0780887821181
0.34  -0.86  0.0985897921956
0.34  -0.84  0.124473027515
0.34  -0.82  0.157151508626
0.34  -0.8  0.198409222918
0.34  -0.78  0.25049851626
0.34  -0.76  0.316263053328
0.34  -0.74  0.399293059272
0.34  -0.72  0.504121317697
0.34  -0.7  0.636470624909
0.34  -0.68  0.803566209465
0.34  -0.66  1.01453017268
0.34  -0.64  1.28087948342
0.34  -0.62  1.61715471381
0.34  -0.6  2.04171383979
0.34  -0.58  2.57773444184
0.34  -0.56  3.25447901816
0.34  -0.54  4.10889248624
0.34  -0.52  5.18761908413
0.34  -0.5  6.54954877796
0.34  -0.48  8.26903218976
0.34  -0.46  10.4399395551
0.34  -0.44  13.1807852979
0.34  -0.42  16.6411979832
0.34  -0.4  21.0100888572
0.34  -0.38  26.5259649114
0.34  -0.36  33.489949484
0.34  -0.34  42.2822212193
0.34  -0.32  53.3827688243
0.34  -0.3  67.3975946667
0.34  -0.28  85.091797726
0.34  -0.26  107.431341965
0.34  -0.24  135.635790344
0.34  -0.22  171.244883344
0.34  -0.2  92.719285918
0.34  -0.18  85.3339444617
0.34  -0.16  77.839638947
0.34  -0.14  70.3058709548
0.34  -0.12  62.8250523308
0.34  -0.1  55.5263004039
0.34  -0.08  48.5986103489
0.34  -0.06  42.3273427309
0.34  -0.04  37.1395545634
0.34  -0.02  33.6154339672
0.34  6.17561557e-16  32.3503846503
0.34  0.02  33.6154339672
0.34  0.04  37.1395545634
0.34  0.06  42.3273427309
0.34  0.08  48.5986103489
0.34  0.1  55.5263004039
0.34  0.12  62.8250523308
0.34  0.14  70.3058709548
0.34  0.16  77.839638947
0.34  0.18  85.3339444617
0.34  0.2  216.202596654
0.34  0.22  171.244883344
0.34  0.24  135.635790344
0.34  0.26  107.431341965
0.34  0.28  85.091797726
0.34  0.3  67.3975946667
0.34  0.32  53.3827688243
0.34  0.34  42.2822212193
0.34  0.36  33.489949484
0.34  0.38  26.5259649114
0.34  0.4  21.0100888572
0.34  0.42  16.6411979832
0.34  0.44  13.1807852979
0.34  0.46  10.4399395551
0.34  0.48  8.26903218976
0.34  0.5  6.54954877796
0.34  0.52  5.18761908413
0.34  0.54  4.10889248624
0.34  0.56  3.25447901816
0.34  0.58  2.57773444184
0.34  0.6  2.04171383979
0.34  0.62  1.61715471381
0.34  0.64  1.28087948342
0.34  0.66  1.01453017268
0.34  0.68  0.803566209465
0.34  0.7  0.636470624909
0.34  0.72  0.504121317697
0.34  0.74  0.399293059272
0.34  0.76  0.316263053328
0.34  0.78  0.25049851626
0.34  0.8  0.198409222918
0.34  0.82  0.157151508626
0.34  0.84  0.124473027515
0.34  0.86  0.0985897921956
0.34  0.88  0.0780887821181
0.34  0.9  0.061850803789
0.34  0.92  0.0489893916333
0.34  0.94  0.0388024139635
0.34  0.96  0.0307337421266
0.34  0.98  0.0243428902643
0.36  -1  0.016080660594
0.36  -0.98  0.0203023909879
0.36  -0.96  0.0256324718388
0.36  -0.94  0.0323618835318
0.36  -0.92  0.0408579988817
0.36  -0.9  0.051584638792
0.36  -0.88  0.0651273932188
0.36  -0.86  0.0822255897649
0.36  -0.84  0.103812655137
0.36  -0.82  0.131067072883
0.36  -0.8  0.165476719302
0.36  -0.78  0.208920089758
0.36  -0.76  0.263768849712
0.36  -0.74  0.333017308958
0.36  -0.72  0.420445887324
0.36  -0.7  0.530827495786
0.36  -0.68  0.670188099771
0.36  -0.66  0.846135689355
0.36  -0.64  1.06827561552
0.36  -0.62  1.3487349666
0.36  -0.6  1.70282461165
0.36  -0.58  2.14987505316
0.36  -0.56  2.71429172013
0.36  -0.54  3.42688731194
0.36  -0.52  4.32656392887
0.36  -0.5  5.46243681996
0.36  -0.48  6.89651568835
0.36  -0.46  8.70708993206
0.36  -0.44  10.9930026279
0.36  -0.42  13.8790465837
0.36  -0.4  17.5227770423
0.36  -0.38  22.1231129547
0.36  -0.36  27.9311963865
0.36  -0.34  35.2641028945
0.36  -0.32  44.5221513517
0.36  -0.3  56.2107582011
0.36  -0.28  70.9680292083
0.36  -0.26  89.5995950045
0.36  -0.24  113.122592166
0.36  -0.22  142.821190852
0.36  -0.2  77.3294861203
0.36  -0.18  71.1699837688
0.36  -0.16  64.9196035103
0.36  -0.14  58.636310864
0.36  -0.12  52.3971789054
0.36  -0.1  46.3098937172
0.36  -0.08  40.53208054
0.36  -0.06  35.3017350145
0.36  -0.04  30.9750300672
0.36  -0.02  28.0358526131
0.36  6.17561557e-16  26.9807796299
0.36  0.02  28.0358526131
0.36  0.04  30.9750300672
0.36  0.06  35.3017350145
0.36  0.08  40.53208054
0.36  0.1  46.3098937172
0.36  0.12  52.3971789054
0.36  0.14  58.636310864
0.36  0.16  64.9196035103
0.36  0.18  71.1699837688
0.36  0.2  180.316700367
0.36  0.22  142.821190852
0.36  0.24  113.122592166
0.36  0.26  89.5995950045
0.36  0.28  70.9680292083
0.36  0.3  56.2107582011
0.36  0.32  44.5221513517
0.36  0.34  35.2641028945
0.36  0.36  27.9311963865
0.36  0.38  22.1231129547
0.36  0.4  17.5227770423
0.36  0.42  13.8790465837
0.36  0.44  10.9930026279
0.36  0.46  8.70708993206
0.36  0.48  6.89651568835
0.36  0.5  5.46243681996
0.36  0.52  4.32656392887
0.36  0.54  3.42688731194
0.36  0.56  2.71429172013
0.36  0.58  2.14987505316
0.36  0.6  1.70282461165
0.36  0.62  1.3487349666
0.36  0.64  1.06827561552
0.36  0.66  0.846135689355
0.36  0.68  0.670188099771
0.36  0.7  0.530827495786
0.36  0.72  0.420445887324
0.36  0.74  0.333017308958
0.36  0.76  0.263768849712
0.36  0.78  0.208920089758
0.36  0.8  0.165476719302
0.36  0.82  0.131067072883
0.36  0.84  0.103812655137
0.36  0.86  0.0822255897649
0.36  0.88  0.0651273932188
0.36  0.9  0.051584638792
0.36  0.92  0.0408579988817
0.36  0.94  0.0323618835318
0.36  0.96  0.0256324718388
0.36  0.98  0.0203023909879
0.38  -1  0.0134115487182
0.38  -0.98  0.0169325447943
0.38  -0.96  0.0213779242976
0.38  -0.94  0.0269903698957
0.38  -0.92  0.0340762768624
0.38  -0.9  0.0430224798432
0.38  -0.88  0.0543173709774
0.38  -0.86  0.0685775622569
0.38  -0.84  0.0865815476794
0.38  -0.82  0.109312202882
0.38  -0.8  0.138010442399
0.38  -0.78  0.174242963815
0.38  -0.76  0.219987777093
0.38  -0.74  0.277742188326
0.38  -0.72  0.350659132954
0.38  -0.7  0.442719301181
0.38  -0.68  0.558948452268
0.38  -0.66  0.705691781359
0.38  -0.64  0.890960317105
0.38  -0.62  1.12486826066
0.38  -0.6  1.42018514129
0.38  -0.58  1.79303293202
0.38  -0.56  2.26376618219
0.38  -0.54  2.85808321538
0.38  -0.52  3.60842905522
0.38  -0.5  4.55576666785
0.38  -0.48  5.75181321685
0.38  -0.46  7.26186341259
0.38  -0.44  9.16835408852
0.38  -0.42  11.5753646022
0.38  -0.4  14.6142987478
0.38  -0.38  18.4510583664
0.38  -0.36  23.2951002794
0.38  -0.34  29.4108709782
0.38  -0.32  37.1322433182
0.38  -0.3  46.8807433436
0.38  -0.28  59.1885622858
0.38  -0.26  74.7276100078
0.38  -0.24  94.3461959849
0.38  -0.22  119.115340313
0.38  -0.2  64.4941272403
0.38  -0.18  59.3569958778
0.38  -0.16  54.144070771
0.38  -0.14  48.9036961643
0.38  -0.12  43.7001523339
0.38  -0.1  38.6232513331
0.38  -0.08  33.8044553354
0.38  -0.06  29.4422568164
0.38  -0.04  25.8337101493
0.38  -0.02  23.3823853803
0.38  6.17561557e-16  22.5024362866
0.38  0.02  23.3823853803
0.38  0.04  25.8337101493
0.38  0.06  29.4422568164
0.38  0.08  33.8044553354
0.38  0.1  38.6232513331
0.38  0.12  43.7001523339
0.38  0.14  48.9036961643
0.38  0.16  54.144070771
0.38  0.18  59.3569958778
0.38  0.2  150.387242958
0.38  0.22  119.115340313
0.38  0.24  94.3461959849
0.38  0.26  74.7276100078
0.38  0.28  59.1885622858
0.38  0.3  46.8807433436
0.38  0.32  37.1322433182
0.38  0.34  29.4108709782
0.38  0.36  23.2951002794
0.38  0.38  18.4510583664
0.38  0.4  14.6142987478
0.38  0.42  11.5753646022
0.38  0.44  9.16835408852
0.38  0.46  7.26186341259
0.38  0.48  5.75181321685
0.38  0.5  4.55576666785
0.38  0.52  3.60842905522
0.38  0.54  2.85808321538
0.38  0.56  2.26376618219
0.38  0.58  1.79303293202
0.38  0.6  1.42018514129
0.38  0.62  1.12486826066
0.38  0.64  0.890960317105
0.38  0.66  0.705691781359
0.38  0.68  0.558948452268
0.38  0.7  0.442719301181
0.38  0.72  0.350659132954
0.38  0.74  0.277742188326
0.38  0.76  0.219987777093
0.38  0.78  0.174242963815
0.38  0.8  0.138010442399
0.38  0.82  0.109312202882
0.38  0.84  0.0865815476794
0.38  0.86  0.0685775622569
0.38  0.88  0.0543173709774
0.38  0.9  0.0430224798432
0.38  0.92  0.0340762768624
0.38  0.94  0.0269903698957
0.38  0.96  0.0213779242976
0.38  0.98  0.0169325447943
0.4  -1  0.0111854633067
0.4  -0.98  0.014122034857
0.4  -0.96  0.0178295581538
0.4  -0.94  0.0225104347339
0.4  -0.92  0.0284202035485
0.4  -0.9  0.0358814913743
0.4  -0.88  0.045301625692
0.4  -0.86  0.0571948715545
0.4  -0.84  0.0722105064039
0.4  -0.82  0.0911682654997
0.4  -0.8  0.115103093001
0.4  -0.78  0.145321641754
0.4  -0.76  0.18347360624
0.4  -0.74  0.231641782877
0.4  -0.72  0.292455774289
0.4  -0.7  0.369235544869
0.4  -0.68  0.466172664658
0.4  -0.66  0.588559136015
0.4  -0.64  0.743076295219
0.4  -0.62  0.938159560746
0.4  -0.6  1.1844589406
0.4  -0.58  1.49542043877
0.4  -0.56  1.88802010102
0.4  -0.54  2.38369077313
0.4  -0.52  3.00949216529
0.4  -0.5  3.79958809886
0.4  -0.48  4.79711158164
0.4  -0.46  6.05651953001
0.4  -0.44  7.64656568711
0.4  -0.42  9.65405403508
0.4  -0.4  12.188577608
0.4  -0.38  15.3885014075
0.4  -0.36  19.4285160405
0.4  -0.34  24.5291744492
0.4  -0.32  30.9689323624
0.4  -0.3  39.0993497825
0.4  -0.28  49.3642833898
0.4  -0.26  62.3241176168
0.4  -0.24  78.6863572199
0.4  -0.22  99.3442514598
0.4  -0.2  53.789216212
0.4  -0.18  49.5047599151
0.4  -0.16  45.1570903262
0.4  -0.14  40.7865273802
0.4  -0.12  36.4466819378
0.4  -0.1  32.212458803
0.4  -0.08  28.1934996994
0.4  -0.06  24.5553507805
0.4  -0.04  21.5457605249
0.4  -0.02  19.5013133225
0.4  6.17561557e-16  18.7674205778
0.4  0.02  19.5013133225
0.4  0.04  21.5457605249
0.4  0.06  24.5553507805
0.4  0.08  28.1934996994
0.4  0.1  32.212458803
0.4  0.12  36.4466819378
0.4  0.14  40.7865273802
0.4  0.16  45.1570903263
0.4  0.18  49.5047599151
0.4  0.2  125.425558468
0.4  0.22  99.3442514598
0.4  0.24  78.6863572199
0.4  0.26  62.3241176168
0.4  0.28  49.3642833898
0.4  0.3  39.0993497825
0.4  0.32  30.9689323624
0.4  0.34  24.5291744492
0.4  0.36  19.4285160405
0.4  0.38  15.3885014075
0.4  0.4  12.188577608
0.4  0.42  9.65405403508
0.4  0.44  7.64656568711
0.4  0.46  6.05651953001
0.4  0.48  4.79711158164
0.4  0.5  3.79958809886
0.4  0.52  3.00949216529
0.4  0.54  2.38369077313
0.4  0.56  1.88802010102
0.4  0.58  1.49542043877
0.4  0.6  1.1844589406
0.4  0.62  0.938159560746
0.4  0.64  0.743076295219
0.4  0.66  0.588559136015
0.4  0.68  0.466172664658
0.4  0.7  0.369235544869
0.4  0.72  0.292455774289
0.4  0.74  0.231641782877
0.4  0.76  0.18347360624
0.4  0.78  0.145321641754
0.4  0.8  0.115103093001
0.4  0.82  0.0911682654997
0.4  0.84  0.0722105064039
0.4  0.86  0.0571948715545
0.4  0.88  0.045301625692
0.4  0.9  0.0358814913743
0.4  0.92  0.0284202035485
0.4  0.94  0.0225104347339
0.4  0.96  0.0178295581538
0.4  0.98  0.014122034857
0.42  -1  0.00932886961928
0.42  -0.98  0.0117780210196
0.42  -0.96  0.0148701594941
0.42  -0.94  0.018774091421
0.42  -0.92  0.0237029406997
0.42  -0.9  0.0299257836353
0.42  -0.88  0.0377823383829
0.42  -0.86  0.0477015108802
0.42  -0.84  0.0602248097298
0.42  -0.82  0.0760359082986
0.42  -0.8  0.0959979678927
0.42  -0.78  0.121200759559
0.42  -0.76  0.15302015699
0.42  -0.74  0.193193248379
0.42  -0.72  0.243913167738
0.42  -0.7  0.307948822722
0.42  -0.68  0.388796055151
0.42  -0.66  0.490868486408
0.42  -0.64  0.619738466367
0.42  -0.62  0.782441279751
0.42  -0.6  0.987859217207
0.42  -0.58  1.24720647833
0.42  -0.56  1.57464137855
0.42  -0.54  1.98803928148
0.42  -0.52  2.50996845285
0.42  -0.5  3.16892210983
0.42  -0.48  4.00087392604
0.42  -0.46  5.05124191042
0.42  -0.44  6.37736787244
0.42  -0.42  8.05164783269
0.42  -0.4  10.1654842748
0.42  -0.38  12.8342760001
0.42  -0.36  16.2037179926
0.42  -0.34  20.457755216
0.42  -0.32  25.8286245582
0.42  -0.3  32.6095331342
0.42  -0.28  41.1706650826
0.42  -0.26  51.9793907005
0.42  -0.24  65.6257811764
0.42  -0.22  82.8548218241
0.42  -0.2  44.8611354942
0.42  -0.18  41.2878249314
0.42  -0.16  37.6617933911
0.42  -0.14  34.0166683955
0.42  -0.12  30.3971623286
0.42  -0.1  26.8657470908
0.42  -0.08  23.5138657735
0.42  -0.06  20.4795867284
0.42  -0.04  17.9695364666
0.42  -0.02  16.2644321833
0.42  6.17561557e-16  15.6523529567
0.42  0.02  16.2644321833
0.42  0.04  17.9695364666
0.42  0.06  20.4795867284
0.42  0.08  23.5138657735
0.42  0.1  26.8657470908
0.42  0.12  30.3971623286
0.42  0.14  34.0166683955
0.42  0.16  37.6617933911
0.42  0.18  41.2878249314
0.42  0.2  104.607082406
0.42  0.22  82.8548218241
0.42  0.24  65.6257811764
0.42  0.26  51.9793907005
0.42  0.28  41.1706650826
0.42  0.3  32.6095331342
0.42  0.32  25.8286245582
0.42  0.34  20.457755216
0.42  0.36  16.2037179926
0.42  0.38  12.8342760001
0.42  0.4  10.1654842748
0.42  0.42  8.05164783269
0.42  0.44  6.37736787244
0.42  0.46  5.05124191042
0.42  0.48  4.00087392604
0.42  0.5  3.16892210983
0.42  0.52  2.50996845285
0.42  0.54  1.98803928148
0.42  0.56  1.57464137855
0.42  0.58  1.24720647833
0.42  0.6  0.987859217207
0.42  0.62  0.782441279751
0.42  0.64  0.619738466367
0.42  0.66  0.490868486408
0.42  0.68  0.388796055151
0.42  0.7  0.307948822722
0.42  0.72  0.243913167738
0.42  0.74  0.193193248379
0.42  0.76  0.15302015699
0.42  0.78  0.121200759559
0.42  0.8  0.0959979678927
0.42  0.82  0.0760359082986
0.42  0.84  0.0602248097298
0.42  0.86  0.0477015108802
0.42  0.88  0.0377823383829
0.42  0.9  0.0299257836353
0.42  0.92  0.0237029406997
0.42  0.94  0.018774091421
0.42  0.96  0.0148701594941
0.42  0.98  0.0117780210196
0.44  -1  0.00778043841256
0.44  -0.98  0.00982307298793
0.44  -0.96  0.0124019698903
0.44  -0.94  0.0156579165552
0.44  -0.92  0.0197686619963
0.44  -0.9  0.0249586205001
0.44  -0.88  0.0315111228764
0.44  -0.86  0.0397838840863
0.44  -0.84  0.0502285316586
0.44  -0.82  0.0634152609913
0.44  -0.8  0.0800639635243
0.44  -0.78  0.101083527135
0.44  -0.76  0.127621454252
0.44  -0.74  0.161126506434
0.44  -0.72  0.203427795333
0.44  -0.7  0.256834637764
0.44  -0.68  0.324262626192
0.44  -0.66  0.409392797095
0.44  -0.64  0.516872586524
0.44  -0.62  0.652569543471
0.44  -0.6  0.823891651769
0.44  -0.58  1.0401917476
0.44  -0.56  1.31327811061
0.44  -0.54  1.65805910283
0.44  -0.52  2.09335704773
0.44  -0.5  2.64293578065
0.44  -0.48  3.33679796678
0.44  -0.46  4.21282301017
0.44  -0.44  5.31883497045
0.44  -0.42  6.71521337938
0.44  -0.4  8.4781894872
0.44  -0.38  10.7040078878
0.44  -0.36  13.5141807144
0.44  -0.34  17.0621212444
0.44  -0.32  21.541519054
0.44  -0.3  27.1969139421
0.44  -0.28  34.337045875
0.44  -0.26  43.351709754
0.44  -0.24  54.7330351433
0.44  -0.22  69.1023526638
0.44  -0.2  37.4149619487
0.44  -0.18  34.4347592128
0.44  -0.16  31.4105862709
0.44  -0.14  28.3704890574
0.44  -0.12  25.351758473
0.44  -0.1  22.4064971618
0.44  -0.08  19.6109702417
0.44  -0.06  17.0803291029
0.44  -0.04  14.986903825
0.44  -0.02  13.5648173982
0.44  6.17561557e-16  13.05433275
0.44  0.02  13.5648173982
0.44  0.04  14.986903825
0.44  0.06  17.0803291029
0.44  0.08  19.6109702417
0.44  0.1  22.4064971618
0.44  0.12  25.351758473
0.44  0.14  28.3704890574
0.44  0.16  31.4105862709
0.44  0.18  34.4347592128
0.44  0.2  87.2441137454
0.44  0.22  69.1023526638
0.44  0.24  54.7330351433
0.44  0.26  43.351709754
0.44  0.28  34.337045875
0.44  0.3  27.1969139421
0.44  0.32  21.541519054
0.44  0.34  17.0621212444
0.44  0.36  13.5141807144
0.44  0.38  10.7040078878
0.44  0.4  8.4781894872
0.44  0.42  6.71521337938
0.44  0.44  5.31883497045
0.44  0.46  4.21282301017
0.44  0.48  3.33679796678
0.44  0.5  2.64293578065
0.44  0.52  2.09335704773
0.44  0.54  1.65805910283
0.44  0.56  1.31327811061
0.44  0.58  1.0401917476
0.44  0.6  0.823891651769
0.44  0.62  0.652569543471
0.44  0.64  0.516872586524
0.44  0.66  0.409392797095
0.44  0.68  0.324262626192
0.44  0.7  0.256834637764
0.44  0.72  0.203427795333
0.44  0.74  0.161126506434
0.44  0.76  0.127621454252
0.44  0.78  0.101083527135
0.44  0.8  0.0800639635243
0.44  0.82  0.0634152609913
0.44  0.84  0.0502285316586
0.44  0.86  0.0397838840863
0.44  0.88  0.0315111228764
0.44  0.9  0.0249586205001
0.44  0.92  0.0197686619963
0.44  0.94  0.0156579165552
0.44  0.96  0.0124019698903
0.44  0.98  0.00982307298793
0.46  -1  0.00648902003803
0.46  -0.98  0.00819261255906
0.46  -0.96  0.0103434571244
0.46  -0.94  0.0130589728873
0.46  -0.92  0.0164874055955
0.46  -0.9  0.0208159206408
0.46  -0.88  0.0262808208128
0.46  -0.86  0.0331804465684
0.46  -0.84  0.0418914630681
0.46  -0.82  0.0528894231236
0.46  -0.8  0.0667747286315
0.46  -0.78  0.0843054077824
0.46  -0.76  0.106438497423
0.46  -0.74  0.134382289721
0.46  -0.72  0.169662295389
0.46  -0.7  0.214204524544
0.46  -0.68  0.270440631667
0.46  -0.66  0.341440664768
0.46  -0.64  0.431080665795
0.46  -0.62  0.544254271964
0.46  -0.6  0.687139869762
0.46  -0.58  0.867537886128
0.46  -0.56  1.09529663026
0.46  -0.54  1.38284993364
0.46  -0.52  1.74589593917
0.46  -0.5  2.20425409604
0.46  -0.48  2.78294714528
0.46  -0.46  3.51356716423
0.46  -0.44  4.43600024473
0.46  -0.42  5.60060395929
0.46  -0.4  7.07095648747
0.46  -0.38  8.92732748308
0.46  -0.36  11.2710601644
0.46  -0.34  14.2301038548
0.46  -0.32  17.9659990066
0.46  -0.3  22.6826960365
0.46  -0.28  28.6376894097
0.46  -0.26  36.1560748071
0.46  -0.24  45.6482967867
0.46  -0.22  57.6325558193
0.46  -0.2  31.2047245841
0.46  -0.18  28.7191840213
0.46  -0.16  26.1969715471
0.46  -0.14  23.6614779554
0.46  -0.12  21.1438045014
0.46  -0.1  18.6874056904
0.46  -0.08  16.3558879481
0.46  -0.06  14.2452895233
0.46  -0.04  12.499336679
0.46  -0.02  11.3132920334
0.46  6.17561557e-16  10.8875390185
0.46  0.02  11.3132920334
0.46  0.04  12.499336679
0.46  0.06  14.2452895233
0.46  0.08  16.3558879481
0.46  0.1  18.6874056904
0.46  0.12  21.1438045014
0.46  0.14  23.6614779554
0.46  0.16  26.1969715471
0.46  0.18  28.7191840213
0.46  0.2  72.7630979483
0.46  0.22  57.6325558193
0.46  0.24  45.6482967867
0.46  0.26  36.1560748071
0.46  0.28  28.6376894097
0.46  0.3  22.6826960365
0.46  0.32  17.9659990066
0.46  0.34  14.2301038548
0.46  0.36  11.2710601644
0.46  0.38  8.92732748308
0.46  0.4  7.07095648747
0.46  0.42  5.60060395929
0.46  0.44  4.43600024473
0.46  0.46  3.51356716423
0.46  0.48  2.78294714528
0.46  0.5  2.20425409604
0.46  0.52  1.74589593917
0.46  0.54  1.38284993364
0.46  0.56  1.09529663026
0.46  0.58  0.867537886128
0.46  0.6  0.687139869762
0.46  0.62  0.544254271964
0.46  0.64  0.431080665795
0.46  0.66  0.341440664768
0.46  0.68  0.270440631667
0.46  0.7  0.214204524544
0.46  0.72  0.169662295389
0.46  0.74  0.134382289721
0.46  0.76  0.106438497423
0.46  0.78  0.0843054077824
0.46  0.8  0.0667747286315
0.46  0.82  0.0528894231236
0.46  0.84  0.0418914630681
0.46  0.86  0.0331804465684
0.46  0.88  0.0262808208128
0.46  0.9  0.0208159206408
0.46  0.92  0.0164874055955
0.46  0.94  0.0130589728873
0.46  0.96  0.0103434571244
0.46  0.98  0.00819261255906
0.48  -1  0.00541195480527
0.48  -0.98  0.00683278039625
0.48  -0.96  0.00862662191818
0.48  -0.94  0.0108914089731
0.48  -0.92  0.0137507810758
0.48  -0.9  0.0173608373958
0.48  -0.88  0.0219186585418
0.48  -0.86  0.0276730656084
0.48  -0.84  0.0349382038463
0.48  -0.82  0.0441106925151
0.48  -0.8  0.0556912771682
0.48  -0.78  0.070312166411
0.48  -0.76  0.0887715455056
0.48  -0.74  0.112077150993
0.48  -0.72  0.141501285159
0.48  -0.7  0.178650273712
0.48  -0.68  0.225552158495
0.48  -0.66  0.284767412579
0.48  -0.64  0.359528721908
0.48  -0.62  0.453917464452
0.48  -0.6  0.57308652127
0.48  -0.58  0.723541583177
0.48  -0.56  0.913496310166
0.48  -0.54  1.15332073248
0.48  -0.52  1.45610737247
0.48  -0.5  1.83838599313
0.48  -0.48  2.32102599275
0.48  -0.46  2.93037570953
0.48  -0.44  3.69970083309
0.48  -0.42  4.6710004488
0.48  -0.4  5.89729985667
0.48  -0.38  7.4455453346
0.48  -0.36  9.40025887726
0.48  -0.34  11.8681524306
0.48  -0.32  14.9839535223
0.48  -0.3  18.9177603231
0.48  -0.28  23.8843276649
0.48  -0.26  30.1547909615
0.48  -0.24  38.0714680644
0.48  -0.22  48.0665471178
0.48  -0.2  26.0252793442
0.48  -0.18  23.9522955787
0.48  -0.16  21.8487268058
0.48  -0.14  19.7340813513
0.48  -0.12  17.6342981995
0.48  -0.1  15.5856191585
0.48  -0.08  13.641093086
0.48  -0.06  11.8808175404
0.48  -0.04  10.4246627081
0.48  -0.02  9.43548098554
0.48  6.17561557e-16  9.08039561651
0.48  0.02  9.43548098554
0.48  0.04  10.4246627081
0.48  0.06  11.8808175404
0.48  0.08  13.641093086
0.48  0.1  15.5856191585
0.48  0.12  17.6342981995
0.48  0.14  19.7340813513
0.48  0.16  21.8487268058
0.48  0.18  23.9522955787
0.48  0.2  60.6856806235
0.48  0.22  48.0665471178
0.48  0.24  38.0714680644
0.48  0.26  30.1547909615
0.48  0.28  23.8843276649
0.48  0.3  18.9177603231
0.48  0.32  14.9839535223
0.48  0.34  11.8681524306
0.48  0.36  9.40025887726
0.48  0.38  7.4455453346
0.48  0.4  5.89729985667
0.48  0.42  4.6710004488
0.48  0.44  3.69970083309
0.48  0.46  2.93037570953
0.48  0.48  2.32102599275
0.48  0.5  1.83838599313
0.48  0.52  1.45610737247
0.48  0.54  1.15332073248
0.48  0.56  0.913496310166
0.48  0.58  0.723541583177
0.48  0.6  0.57308652127
0.48  0.62  0.453917464452
0.48  0.64  0.359528721908
0.48  0.66  0.284767412579
0.48  0.68  0.225552158495
0.48  0.7  0.178650273712
0.48  0.72  0.141501285159
0.48  0.74  0.112077150993
0.48  0.76  0.0887715455056
0.48  0.78  0.070312166411
0.48  0.8  0.0556912771682
0.48  0.82  0.0441106925151
0.48  0.84  0.0349382038463
0.48  0.86  0.0276730656084
0.48  0.88  0.0219186585418
0.48  0.9  0.0173608373958
0.48  0.92  0.0137507810758
0.48  0.94  0.0108914089731
0.48  0.96  0.00862662191818
0.48  0.98  0.00683278039625
0.5  -1  0.00451366379555
0.5  -0.98  0.00569865688226
0.5  -0.96  0.00719475169898
0.5  -0.94  0.00908362322552
0.5  -0.92  0.0114683889529
0.5  -0.9  0.0144792382851
0.5  -0.88  0.0182805398542
0.5  -0.86  0.0230798147514
0.5  -0.84  0.0291390655423
0.5  -0.82  0.0367890795408
0.5  -0.8  0.0464474871884
0.5  -0.78  0.0586415613831
0.5  -0.76  0.0740370024217
0.5  -0.74  0.0934742799868
0.5  -0.72  0.118014516164
0.5  -0.7  0.148997414342
0.5  -0.68  0.18811439645
0.5  -0.66  0.237500941261
0.5  -0.64  0.299853164693
0.5  -0.62  0.378575006479
0.5  -0.6  0.477964058432
0.5  -0.58  0.603446179074
0.5  -0.56  0.761871702726
0.5  -0.54  0.961889413743
0.5  -0.52  1.21441870194
0.5  -0.5  1.53324567518
0.5  -0.48  1.93577577215
0.5  -0.46  2.44398396206
0.5  -0.44  3.08561440469
0.5  -0.42  3.89569506276
0.5  -0.4  4.91844995244
0.5  -0.38  6.20971342595
0.5  -0.36  7.83997828692
0.5  -0.34  9.8982441416
0.5  -0.32  12.4968760756
0.5  -0.3  15.7777389013
0.5  -0.28  19.9199418586
0.5  -0.26  25.1496165661
0.5  -0.24  31.7522620253
0.5  -0.22  40.0883306142
0.5  -0.2  21.7055325427
0.5  -0.18  19.9766282728
0.5  -0.16  18.2222155784
0.5  -0.14  16.4585647402
0.5  -0.12  14.7073093193
0.5  -0.1  12.9986756095
0.5  -0.08  11.3769072746
0.5  -0.06  9.90880706201
0.5  -0.04  8.69434877774
0.5  -0.02  7.86935413367
0.5  6.17561557e-16  7.57320680203
0.5  0.02  7.86935413367
0.5  0.04  8.69434877774
0.5  0.06  9.90880706201
0.5  0.08  11.3769072746
0.5  0.1  12.9986756095
0.5  0.12  14.7073093193
0.5  0.14  16.4585647402
0.5  0.16  18.2222155784
0.5  0.18  19.9766282728
0.5  0.2  50.6129059452
0.5  0.22  40.0883306142
0.5  0.24  31.7522620253
0.5  0.26  25.1496165661
0.5  0.28  19.9199418586
0.5  0.3  15.7777389013
0.5  0.32  12.4968760756
