0.26  0.88  0.703729466948
0.26  0.9  0.594551036331
0.26  0.92  0.502310833074
0.26  0.94  0.424381016273
0.26  0.96  0.358541435131
0.26  0.98  0.30291637886
0.28  -1  0.272897696689
0.28  -0.98  0.323010370662
0.28  -0.96  0.38232532125
0.28  -0.94  0.452532378355
0.28  -0.92  0.535631678252
0.28  -0.9  0.633990645687
0.28  -0.88  0.750411439685
0.28  -0.86  0.888210784562
0.28  -0.84  1.05131446043
0.28  -0.82  1.24436914516
0.28  -0.8  1.47287479409
0.28  -0.78  1.74334132882
0.28  -0.76  2.06347409906
0.28  -0.74  2.44239340117
0.28  -0.72  2.89089430722
0.28  -0.7  3.42175420698
0.28  -0.68  4.05009682426
0.28  -0.66  4.79382307836
0.28  -0.64  5.6741210652
0.28  -0.62  6.71606968723
0.28  -0.6  7.94935312896
0.28  -0.58  9.40910653281
0.28  -0.56  11.1369169679
0.28  -0.54  13.1820082085
0.28  -0.52  15.6026430752
0.28  -0.5  18.4677832908
0.28  -0.48  21.859054138
0.28  -0.46  25.8730698907
0.28  -0.44  30.6241862681
0.28  -0.42  36.2477583273
0.28  -0.4  42.9039966075
0.28  -0.38  50.7825313852
0.28  -0.36  60.1078150709
0.28  -0.34  71.145516658
0.28  -0.32  84.2100903944
0.28  -0.3  99.6737343032
0.28  -0.28  117.976993771
0.28  -0.26  139.641312294
0.28  -0.24  165.283886933
0.28  -0.22  195.635251709
0.28  -0.2  86.6581785453
0.28  -0.18  86.7473059713
0.28  -0.16  86.8435834109
0.28  -0.14  86.9426260116
0.28  -0.12  87.0399379562
0.28  -0.1  87.1311166944
0.28  -0.08  87.2120503107
0.28  -0.06  87.2790995287
0.28  -0.04  87.3292569259
0.28  -0.02  87.360277187
0.28  6.17561557e-16  87.3707735757
0.28  0.02  87.360277187
0.28  0.04  87.3292569259
0.28  0.06  87.2790995287
0.28  0.08  87.2120503107
0.28  0.1  87.1311166944
0.28  0.12  87.0399379562
0.28  0.14  86.9426260116
0.28  0.16  86.8435834109
0.28  0.18  86.7473059713
0.28  0.2  231.560089864
0.28  0.22  195.635251709
0.28  0.24  165.283886933
0.28  0.26  139.641312294
0.28  0.28  117.976993771
0.28  0.3  99.6737343032
0.28  0.32  84.2100903944
0.28  0.34  71.145516658
0.28  0.36  60.1078150709
0.28  0.38  50.7825313852
0.28  0.4  42.9039966075
0.28  0.42  36.2477583273
0.28  0.44  30.6241862681
0.28  0.46  25.8730698907
0.28  0.48  21.859054138
0.28  0.5  18.4677832908
0.28  0.52  15.6026430752
0.28  0.54  13.1820082085
0.28  0.56  11.1369169679
0.28  0.58  9.40910653281
0.28  0.6  7.94935312896
0.28  0.62  6.71606968723
0.28  0.64  5.6741210652
0.28  0.66  4.79382307836
0.28  0.68  4.05009682426
0.28  0.7  3.42175420698
0.28  0.72  2.89089430722
0.28  0.74  2.44239340117
0.28  0.76  2.06347409906
0.28  0.78  1.74334132882
0.28  0.8  1.47287479409
0.28  0.82  1.24436914516
0.28  0.84  1.05131446043
0.28  0.86  0.888210784562
0.28  0.88  0.750411439685
0.28  0.9  0.633990645687
0.28  0.92  0.535631678252
0.28  0.94  0.452532378355
0.28  0.96  0.38232532125
0.28  0.98  0.323010370662
0.3  -1  0.316823347272
0.3  -0.98  0.375002164101
0.3  -0.96  0.443864457248
0.3  -0.94  0.525372051867
0.3  -0.92  0.621847026441
0.3  -0.9  0.736037866727
0.3  -0.88  0.87119776765
0.3  -0.86  1.03117731393
0.3  -0.84  1.22053417977
0.3  -0.82  1.44466297296
0.3  -0.8  1.70994892239
0.3  -0.78  2.02394978754
0.3  -0.76  2.39561117226
0.3  -0.74  2.83552137706
0.3  -0.72  3.3562130503
0.3  -0.7  3.97252023212
0.3  -0.68  4.70200096302
0.3  -0.66  5.5654374967
0.3  -0.64  6.58742836789
0.3  -0.62  7.79708918264
0.3  -0.6  9.22888209582
0.3  -0.58  10.9235976072
0.3  -0.56  12.9295166462
0.3  -0.54  15.3037860526
0.3  -0.52  18.1140466385
0.3  -0.5  21.4403602151
0.3  -0.48  25.3774904817
0.3  -0.46  30.0376027589
0.3  -0.44  35.5534594782
0.3  -0.42  42.0822024652
0.3  -0.4  49.8098297694
0.3  -0.38  58.9564945824
0.3  -0.36  69.7827772056
0.3  -0.34  82.5971087498
0.3  -0.32  97.7645580616
0.3  -0.3  115.717232209
0.3  -0.28  136.966586824
0.3  -0.26  162.117997019
0.3  -0.24  191.888003979
0.3  -0.22  227.12472858
0.3  -0.2  149.772619499
0.3  -0.18  143.75158449
0.3  -0.16  136.942976324
0.3  -0.14  129.557469842
0.3  -0.12  121.856903757
0.3  -0.1  114.162724226
0.3  -0.08  106.862557102
0.3  -0.06  100.407939599
0.3  -0.04  95.2904902515
0.3  -0.02  91.9816171196
0.3  6.17561557e-16  90.8344239012
0.3  0.02  91.9816171196
0.3  0.04  95.2904902515
0.3  0.06  100.407939599
0.3  0.08  106.862557102
0.3  0.1  114.162724226
0.3  0.12  121.856903757
0.3  0.14  129.557469842
0.3  0.16  136.942976324
0.3  0.18  143.75158449
0.3  0.2  268.832033598
0.3  0.22  227.12472858
0.3  0.24  191.888003979
0.3  0.26  162.117997019
0.3  0.28  136.966586824
0.3  0.3  115.717232209
0.3  0.32  97.7645580616
0.3  0.34  82.5971087498
0.3  0.36  69.7827772056
0.3  0.38  58.9564945824
0.3  0.4  49.8098297694
0.3  0.42  42.0822024652
0.3  0.44  35.5534594782
0.3  0.46  30.0376027589
0.3  0.48  25.3774904817
0.3  0.5  21.4403602151
0.3  0.52  18.1140466385
0.3  0.54  15.3037860526
0.3  0.56  12.9295166462
0.3  0.58  10.9235976072
0.3  0.6  9.22888209582
0.3  0.62  7.79708918264
0.3  0.64  6.58742836789
0.3  0.66  5.5654374967
0.3  0.68  4.70200096302
0.3  0.7  3.97252023212
0.3  0.72  3.3562130503
0.3  0.74  2.83552137706
0.3  0.76  2.39561117226
0.3  0.78  2.02394978754
0.3  0.8  1.70994892239
0.3  0.82  1.44466297296
0.3  0.84  1.22053417977
0.3  0.86  1.03117731393
0.3  0.88  0.87119776765
0.3  0.9  0.736037866727
0.3  0.92  0.621847026441
0.3  0.94  0.525372051867
0.3  0.96  0.443864457248
0.3  0.98  0.375002164101
0.32  -1  0.278450412645
0.32  -0.98  0.329582741411
0.32  -0.96  0.390104587757
0.32  -0.94  0.461740164967
0.32  -0.92  0.546530306575
0.32  -0.9  0.646890607896
0.32  -0.88  0.765680244169
0.32  -0.86  0.906283425907
0.32  -0.84  1.07270581202
0.32  -0.82  1.26968862749
0.32  -0.8  1.50284373655
0.32  -0.78  1.77881351979
0.32  -0.76  2.10546010955
0.32  -0.74  2.49208937506
0.32  -0.72  2.94971603838
0.32  -0.7  3.49137747391
0.32  -0.68  4.1325051316
0.32  -0.66  4.89136416508
0.32  -0.64  5.78957378964
0.32  -0.62  6.85272319427
0.32  -0.6  8.11110055481
0.32  -0.58  9.600555917
0.32  -0.56  11.3635225322
0.32  -0.54  13.4502257427
0.32  -0.52  15.9201138572
0.32  -0.5  18.8435517792
0.32  -0.48  22.3038256409
0.32  -0.46  26.3995155506
0.32  -0.44  31.247304051
0.32  -0.42  36.9853003017
0.32  -0.4  43.7769746848
0.32  -0.38  51.8158159301
0.32  -0.36  61.3308434361
0.32  -0.34  72.5931318279
0.32  -0.32  85.9235336307
0.32  -0.3  101.701820072
0.32  -0.28  120.377500422
0.32  -0.26  142.482628114
0.32  -0.24  168.64695847
0.32  -0.22  199.615889863
0.32  -0.2  131.632495084
0.32  -0.18  126.340714358
0.32  -0.16  120.356749572
0.32  -0.14  113.865759103
0.32  -0.12  107.097868345
0.32  -0.1  100.335590616
0.32  -0.08  93.919603393
0.32  -0.06  88.2467547137
0.32  -0.04  83.7491193757
0.32  -0.02  80.8410095508
0.32  6.17561557e-16  79.8327618071
0.32  0.02  80.8410095508
0.32  0.04  83.7491193757
0.32  0.06  88.2467547137
0.32  0.08  93.919603393
0.32  0.1  100.335590616
0.32  0.12  107.097868345
0.32  0.14  113.865759103
0.32  0.16  120.356749572
0.32  0.18  126.340714358
0.32  0.2  236.271699457
0.32  0.22  199.615889863
0.32  0.24  168.64695847
0.32  0.26  142.482628114
0.32  0.28  120.377500422
0.32  0.3  101.701820072
0.32  0.32  85.9235336307
0.32  0.34  72.5931318279
0.32  0.36  61.3308434361
0.32  0.38  51.8158159301
0.32  0.4  43.7769746848
0.32  0.42  36.9853003017
0.32  0.44  31.247304051
0.32  0.46  26.3995155506
0.32  0.48  22.3038256409
0.32  0.5  18.8435517792
0.32  0.52  15.9201138572
0.32  0.54  13.4502257427
0.32  0.56  11.3635225322
0.32  0.58  9.600555917
0.32  0.6  8.11110055481
0.32  0.62  6.85272319427
0.32  0.64  5.78957378964
0.32  0.66  4.89136416508
0.32  0.68  4.1325051316
0.32  0.7  3.49137747391
0.32  0.72  2.94971603838
0.32  0.74  2.49208937506
0.32  0.76  2.10546010955
0.32  0.78  1.77881351979
0.32  0.8  1.50284373655
0.32  0.82  1.26968862749
0.32  0.84  1.07270581202
0.32  0.86  0.906283425907
0.32  0.88  0.765680244169
0.32  0.9  0.646890607896
0.32  0.92  0.546530306575
0.32  0.94  0.461740164967
0.32  0.96  0.390104587757
0.32  0.98  0.329582741411
0.34  -1  0.244725121964
0.34  -0.98  0.289664417527
0.34  -0.96  0.342855993319
0.34  -0.94  0.40581522977
0.34  -0.92  0.480335779226
0.34  -0.9  0.568540665503
0.34  -0.88  0.672942766936
0.34  -0.86  0.796516406035
0.34  -0.84  0.942782085276
0.34  -0.82  1.11590678306
0.34  -0.8  1.32082266723
0.34  -0.78  1.56336760807
0.34  -0.76  1.85045149405
0.34  -0.74  2.19025308838
0.34  -0.72  2.59245303462
0.34  -0.7  3.06850964956
0.34  -0.68  3.63198536048
0.34  -0.66  4.2989330865
0.34  -0.64  5.08835357194
0.34  -0.62  6.02273670049
0.34  -0.6  7.12870221195
0.34  -0.58  8.43775807474
0.34  -0.56  9.98719811982
0.34  -0.54  11.8211645085
0.34  -0.52  13.9919053032
0.34  -0.5  16.5612629681
0.34  -0.48  19.6024362054
0.34  -0.46  23.2020653212
0.34  -0.44  27.4627005301
0.34  -0.42  32.5057235191
0.34  -0.4  38.4748055038
0.34  -0.38  45.540000292
0.34  -0.36  53.9025889654
0.34  -0.34  63.8008141974
0.34  -0.32  75.5166675734
0.34  -0.3  89.3839232795
0.34  -0.28  105.79764703
0.34  -0.26  125.225451138
0.34  -0.24  148.220816368
0.34  -0.22  175.438860114
0.34  -0.2  115.689461933
0.34  -0.18  111.038609843
0.34  -0.16  105.779409477
0.34  -0.14  100.074593244
0.34  -0.12  94.1264142652
0.34  -0.1  88.1831684775
0.34  -0.08  82.5442712648
0.34  -0.06  77.5585053191
0.34  -0.04  73.6056135055
0.34  -0.02  71.049727433
0.34  6.17561557e-16  70.1635963991
0.34  0.02  71.049727433
0.34  0.04  73.6056135055
0.34  0.06  77.5585053191
0.34  0.08  82.5442712648
0.34  0.1  88.1831684775
0.34  0.12  94.1264142652
0.34  0.14  100.074593244
0.34  0.16  105.779409477
0.34  0.18  111.038609843
0.34  0.2  207.655000103
0.34  0.22  175.438860114
0.34  0.24  148.220816368
0.34  0.26  125.225451138
0.34  0.28  105.79764703
0.34  0.3  89.3839232795
0.34  0.32  75.5166675734
0.34  0.34  63.8008141974
0.34  0.36  53.9025889654
0.34  0.38  45.540000292
0.34  0.4  38.4748055038
0.34  0.42  32.5057235191
0.34  0.44  27.4627005301
0.34  0.46  23.2020653212
0.34  0.48  19.6024362054
0.34  0.5  16.5612629681
0.34  0.52  13.9919053032
0.34  0.54  11.8211645085
0.34  0.56  9.98719811982
0.34  0.58  8.43775807474
0.34  0.6  7.12870221195
0.34  0.62  6.02273670049
0.34  0.64  5.08835357194
0.34  0.66  4.2989330865
0.34  0.68  3.63198536048
0.34  0.7  3.06850964956
0.34  0.72  2.59245303462
0.34  0.74  2.19025308838
0.34  0.76  1.85045149405
0.34  0.78  1.56336760807
0.34  0.8  1.32082266723
0.34  0.82  1.11590678306
0.34  0.84  0.942782085276
0.34  0.86  0.796516406035
0.34  0.88  0.672942766936
0.34  0.9  0.568540665503
0.34  0.92  0.480335779226
0.34  0.94  0.40581522977
0.34  0.96  0.342855993319
0.34  0.98  0.289664417527
0.36  -1  0.215084562998
0.36  -0.98  0.254580911677
0.36  -0.96  0.301330042876
0.36  -0.94  0.35666379754
0.36  -0.92  0.422158584857
0.36  -0.9  0.49968029275
0.36  -0.88  0.591437445357
0.36  -0.86  0.700044121902
0.36  -0.84  0.828594429483
0.36  -0.82  0.980750651407
0.36  -0.8  1.16084758238
0.36  -0.78  1.37401602291
0.36  -0.76  1.62632895125
0.36  -0.74  1.9249745371
0.36  -0.72  2.27846092615
0.36  -0.7  2.69685862953
0.36  -0.68  3.19208742366
0.36  -0.66  3.77825593403
0.36  -0.64  4.47206357735
0.36  -0.62  5.29327631295
0.36  -0.6  6.26528975731
0.36  -0.58  7.41579570427
0.36  -0.56  8.77757103944
0.36  -0.54  10.3894115244
0.36  -0.52  12.2972370532
0.36  -0.5  14.5553998691
0.36  -0.48  17.2282330114
0.36  -0.46  20.3918831063
0.36  -0.44  24.1364797159
0.36  -0.42  28.5687030491
0.36  -0.4  33.8148231853
0.36  -0.38  40.0242973959
0.36  -0.36  47.3740280485
0.36  -0.34  56.073402397
0.36  -0.32  66.3702578375
0.36  -0.3  78.5579425737
0.36  -0.28  92.9836728452
0.36  -0.26  110.058424808
0.36  -0.24  130.268642875
0.36  -0.22  154.190098089
0.36  -0.2  101.677413269
0.36  -0.18  97.5898619737
0.36  -0.16  92.9676441837
0.36  -0.14  87.9537825229
0.36  -0.12  82.7260336671
0.36  -0.1  77.5026205056
0.36  -0.08  72.5466939008
0.36  -0.06  68.1647927661
0.36  -0.04  64.6906663606
0.36  -0.02  62.4443434879
0.36  6.17561557e-16  61.6655386612
0.36  0.02  62.4443434879
0.36  0.04  64.6906663606
0.36  0.06  68.1647927661
0.36  0.08  72.5466939008
0.36  0.1  77.5026205056
0.36  0.12  82.7260336671
0.36  0.14  87.9537825229
0.36  0.16  92.9676441837
0.36  0.18  97.5898619737
0.36  0.2  182.504291316
0.36  0.22  154.190098089
0.36  0.24  130.268642875
0.36  0.26  110.058424808
0.36  0.28  92.9836728452
0.36  0.3  78.5579425737
0.36  0.32  66.3702578375
0.36  0.34  56.073402397
0.36  0.36  47.3740280485
0.36  0.38  40.0242973959
0.36  0.4  33.8148231853
0.36  0.42  28.5687030491
0.36  0.44  24.1364797159
0.36  0.46  20.3918831063
0.36  0.48  17.2282330114
0.36  0.5  14.5553998691
0.36  0.52  12.2972370532
0.36  0.54  10.3894115244
0.36  0.56  8.77757103944
0.36  0.58  7.41579570427
0.36  0.6  6.26528975731
0.36  0.62  5.29327631295
0.36  0.64  4.47206357735
0.36  0.66  3.77825593403
0.36  0.68  3.19208742366
0.36  0.7  2.69685862953
0.36  0.72  2.27846092615
0.36  0.74  1.9249745371
0.36  0.76  1.62632895125
0.36  0.78  1.37401602291
0.36  0.8  1.16084758238
0.36  0.82  0.980750651407
0.36  0.84  0.828594429483
0.36  0.86  0.700044121902
0.36  0.88  0.591437445357
0.36  0.9  0.49968029275
0.36  0.92  0.422158584857
0.36  0.94  0.35666379754
0.36  0.96  0.301330042876
0.36  0.98  0.254580911677
0.38  -1  0.189034002185
0.38  -0.98  0.223746641523
0.38  -0.96  0.264833622597
0.38  -0.94  0.313465476758
0.38  -0.92  0.371027682042
0.38  -0.9  0.439160134204
0.38  -0.88  0.519803865881
0.38  -0.86  0.615256344875
0.38  -0.84  0.728236926955
0.38  -0.82  0.861964327875
0.38  -0.8  1.0202483217
0.38  -0.78  1.20759827789
0.38  -0.76  1.42935162914
0.38  -0.74  1.69182593014
0.38  -0.72  2.00249883901
0.38  -0.7  2.37022114912
0.38  -0.68  2.80546894025
0.38  -0.66  3.32064203276
0.38  -0.64  3.93041724738
0.38  -0.62  4.65216653469
0.38  -0.6  5.50645188648
0.38  -0.58  6.5176111285
0.38  -0.56  7.71445128334
0.38  -0.54  9.13106925678
0.38  -0.52  10.8078232281
0.38  -0.5  12.7924824185
0.38  -0.48  15.1415879937
0.38  -0.46  17.9220638708
0.38  -0.44  21.2131233211
0.38  -0.42  25.1085256855
0.38  -0.4  29.719247494
0.38  -0.38  35.1766440879
0.38  -0.36  41.6361918159
0.38  -0.34  49.2819174165
0.38  -0.32  58.3316407751
0.38  -0.3  69.0431804176
0.38  -0.28  81.72169853
0.38  -0.26  96.7283947557
0.38  -0.24  114.490796451
0.38  -0.22  135.514938556
0.38  -0.2  89.3624725745
0.38  -0.18  85.769996342
0.38  -0.16  81.707611224
0.38  -0.14  77.3010172643
0.38  -0.12  72.7064416478
0.38  -0.1  68.1156765961
0.38  -0.08  63.7600007281
0.38  -0.06  59.9088256501
0.38  -0.04  56.8554776581
0.38  -0.02  54.8812243835
0.38  6.17561557e-16  54.1967466541
0.38  0.02  54.8812243835
0.38  0.04  56.8554776581
0.38  0.06  59.9088256501
0.38  0.08  63.7600007281
0.38  0.1  68.1156765961
0.38  0.12  72.7064416478
0.38  0.14  77.3010172643
0.38  0.16  81.707611224
0.38  0.18  85.769996342
0.38  0.2  160.39978008
0.38  0.22  135.514938556
0.38  0.24  114.490796451
0.38  0.26  96.7283947557
0.38  0.28  81.72169853
0.38  0.3  69.0431804176
0.38  0.32  58.3316407751
0.38  0.34  49.2819174165
0.38  0.36  41.6361918159
0.38  0.38  35.1766440879
0.38  0.4  29.719247494
0.38  0.42  25.1085256855
0.38  0.44  21.2131233211
0.38  0.46  17.9220638707
0.38  0.48  15.1415879937
0.38  0.5  12.7924824185
0.38  0.52  10.8078232281
0.38  0.54  9.13106925678
0.38  0.56  7.71445128334
0.38  0.58  6.5176111285
0.38  0.6  5.50645188648
0.38  0.62  4.65216653469
0.38  0.64  3.93041724738
0.38  0.66  3.32064203276
0.38  0.68  2.80546894025
0.38  0.7  2.37022114912
0.38  0.72  2.00249883901
0.38  0.74  1.69182593014
0.38  0.76  1.42935162914
0.38  0.78  1.20759827789
0.38  0.8  1.0202483217
0.38  0.82  0.861964327875
0.38  0.84  0.728236926955
0.38  0.86  0.615256344875
0.38  0.88  0.519803865881
0.38  0.9  0.439160134204
0.38  0.92  0.371027682042
0.38  0.94  0.313465476758
0.38  0.96  0.264833622597
0.38  0.98  0.223746641523
0.4  -1  0.166138626984
0.4  -0.98  0.196646949148
0.4  -0.96  0.232757567046
0.4  -0.94  0.275499239891
0.4  -0.92  0.326089639722
0.4  -0.9  0.38597004179
0.4  -0.88  0.456846385203
0.4  -0.86  0.540737873607
0.4  -0.84  0.640034500488
0.4  -0.82  0.757565137951
0.4  -0.8  0.896678128759
0.4  -0.78  1.06133667762
0.4  -0.76  1.25623175935
0.4  -0.74  1.48691576055
0.4  -0.72  1.75996066213
0.4  -0.7  2.08314526917
0.4  -0.68  2.46567682212
0.4  -0.66  2.91845330286
0.4  -0.64  3.45437390844
0.4  -0.62  4.08870653767
0.4  -0.6  4.83952275993
0.4  -0.58  5.72821265799
0.4  -0.56  6.78009421235
0.4  -0.54  8.02513458788
0.4  -0.52  9.49880387153
0.4  -0.5  11.2430855834
0.4  -0.48  13.3076727496
0.4  -0.46  15.7513836125
0.4  -0.44  18.6438373091
0.4  -0.42  22.0674372588
0.4  -0.4  26.1197187627
0.4  -0.38  30.9161276973
0.4  -0.36  36.5933094639
0.4  -0.34  43.3130018943
0.4  -0.32  51.2666430171
0.4  -0.3  60.6808249555
0.4  -0.28  71.8237493344
0.4  -0.26  85.0128681051
0.4  -0.24  100.623927467
0.4  -0.22  119.101672542
0.4  -0.2  78.5390899302
0.4  -0.18  75.3817263773
0.4  -0.16  71.8113682514
0.4  -0.14  67.9384910881
0.4  -0.12  63.9004001855
0.4  -0.1  59.8656583206
0.4  -0.08  56.0375321638
0.4  -0.06  52.6528027905
0.4  -0.04  49.9692694726
0.4  -0.02  48.2341333353
0.4  6.17561557e-16  47.6325580164
0.4  0.02  48.2341333353
0.4  0.04  49.9692694726
0.4  0.06  52.6528027905
0.4  0.08  56.0375321638
0.4  0.1  59.8656583206
0.4  0.12  63.9004001855
0.4  0.14  67.9384910881
0.4  0.16  71.8113682514
0.4  0.18  75.3817263773
0.4  0.2  140.972517764
0.4  0.22  119.101672542
0.4  0.24  100.623927467
0.4  0.26  85.0128681051
0.4  0.28  71.8237493344
0.4  0.3  60.6808249555
0.4  0.32  51.2666430171
0.4  0.34  43.3130018943
0.4  0.36  36.5933094639
0.4  0.38  30.9161276973
0.4  0.4  26.1197187627
0.4  0.42  22.0674372588
0.4  0.44  18.6438373091
0.4  0.46  15.7513836125
0.4  0.48  13.3076727496
0.4  0.5  11.2430855834
0.4  0.52  9.49880387153
0.4  0.54  8.02513458788
0.4  0.56  6.78009421235
0.4  0.58  5.72821265799
0.4  0.6  4.83952275993
0.4  0.62  4.08870653767
0.4  0.64  3.45437390844
0.4  0.66  2.91845330286
0.4  0.68  2.46567682212
0.4  0.7  2.08314526917
0.4  0.72  1.75996066213
0.4  0.74  1.48691576055
0.4  0.76  1.25623175935
0.4  0.78  1.06133667762
0.4  0.8  0.896678128759
0.4  0.82  0.757565137951
0.4  0.84  0.640034500488
0.4  0.86  0.540737873607
0.4  0.88  0.456846385203
0.4  0.9  0.38597004179
0.4  0.92  0.326089639722
0.4  0.94  0.275499239891
0.4  0.96  0.232757567046
0.4  0.98  0.196646949148
0.42  -1  0.146016288378
0.42  -0.98  0.172829510853
0.42  -0.96  0.204566491543
0.42  -0.94  0.242131388648
0.42  -0.92  0.286594392495
0.42  -0.9  0.339222214305
0.42  -0.88  0.401514173658
0.42  -0.86  0.475244912773
0.42  -0.84  0.562514954477
0.42  -0.82  0.665810544218
0.42  -0.8  0.788074480978
0.42  -0.78  0.932789954983
0.42  -0.76  1.10407978068
0.42  -0.74  1.30682385203
0.42  -0.72  1.54679816633
0.42  -0.7  1.83083937719
0.42  -0.68  2.16703956473
0.42  -0.66  2.56497677164
0.42  -0.64  3.03598787311
0.42  -0.62  3.59349155421
0.42  -0.6  4.2533705963
0.42  -0.58  5.0344243632
0.42  -0.56  5.95890437829
0.42  -0.54  7.0531482505
0.42  -0.52  8.34833000925
0.42  -0.5  9.88134822467
0.42  -0.48  11.6958772148
0.42  -0.46  13.8436112881
0.42  -0.44  16.3857374676
0.42  -0.42  19.394678655
0.42  -0.4  22.956156894
0.42  -0.38  27.1716355149
0.42  -0.36  32.1612097341
0.42  -0.34  38.0670280591
0.42  -0.32  45.057341973
0.42  -0.3  53.3312992682
0.42  -0.28  63.1246175892
0.42  -0.26  74.7162998177
0.42  -0.24  88.4365826146
0.42  -0.22  104.676344568
0.42  -0.2  69.026611164
0.42  -0.18  66.2516604171
0.42  -0.16  63.1137360753
0.42  -0.14  59.7099331248
0.42  -0.12  56.1609267532
0.42  -0.1  52.6148637914
0.42  -0.08  49.2503917056
0.42  -0.06  46.2756131775
0.42  -0.04  43.9171034081
0.42  -0.02  42.3921230757
0.42  6.17561557e-16  41.8634092128
0.42  0.02  42.3921230757
0.42  0.04  43.9171034081
0.42  0.06  46.2756131775
0.42  0.08  49.2503917056
0.42  0.1  52.6148637914
0.42  0.12  56.1609267532
0.42  0.14  59.7099331248
0.42  0.16  63.1137360753
0.42  0.18  66.2516604171
0.42  0.2  123.898241973
0.42  0.22  104.676344568
0.42  0.24  88.4365826146
0.42  0.26  74.7162998177
0.42  0.28  63.1246175892
0.42  0.3  53.3312992682
0.42  0.32  45.057341973
0.42  0.34  38.0670280591
0.42  0.36  32.1612097341
0.42  0.38  27.1716355149
0.42  0.4  22.956156894
0.42  0.42  19.394678655
0.42  0.44  16.3857374676
0.42  0.46  13.8436112881
0.42  0.48  11.6958772148
0.42  0.5  9.88134822467
0.42  0.52  8.34833000925
0.42  0.54  7.0531482505
0.42  0.56  5.95890437829
0.42  0.58  5.0344243632
0.42  0.6  4.2533705963
0.42  0.62  3.59349155421
0.42  0.64  3.03598787311
0.42  0.66  2.56497677164
0.42  0.68  2.16703956473
0.42  0.7  1.83083937719
0.42  0.72  1.54679816633
0.42  0.74  1.30682385203
0.42  0.76  1.10407978068
0.42  0.78  0.932789954983
0.42  0.8  0.788074480978
0.42  0.82  0.665810544218
0.42  0.84  0.562514954477
0.42  0.86  0.475244912773
0.42  0.88  0.401514173658
0.42  0.9  0.339222214305
0.42  0.92  0.286594392495
0.42  0.94  0.242131388648
0.42  0.96  0.204566491543
0.42  0.98  0.172829510853
0.44  -1  0.12833112238
0.44  -0.98  0.151896787369
0.44  -0.96  0.179789856
0.44  -0.94  0.212804976855
0.44  -0.92  0.251882721205
0.44  -0.9  0.298136379042
0.44  -0.88  0.352883675716
0.44  -0.86  0.417684312753
0.44  -0.84  0.494384402355
0.44  -0.82  0.585169061489
0.44  -0.8  0.692624663911
0.44  -0.78  0.819812523644
0.44  -0.76  0.970356109076
0.44  -0.74  1.14854427234
0.44  -0.72  1.35945343486
0.44  -0.7  1.60909221008
0.44  -0.68  1.90457258347
0.44  -0.66  2.25431252665
0.44  -0.64  2.66827581784
0.44  -0.62  3.15825590104
0.44  -0.6  3.73821187066
0.44  -0.58  4.42466615366
0.44  -0.56  5.23717521873
0.44  -0.54  6.19888672255
0.44  -0.52  7.33719896589
0.44  -0.5  8.68454144665
0.44  -0.48  10.2792987473
0.44  -0.46  12.1669040772
0.44  -0.44  14.4011336243
0.44  -0.42  17.0456385904
0.44  -0.4  20.1757585573
0.44  -0.38  23.8806678439
0.44  -0.36  28.2659160025
0.44  -0.34  33.4564348319
0.44  -0.32  39.600097572
0.44  -0.3  46.8719316805
0.44  -0.28  55.4791052084
0.44  -0.26  65.6668288328
0.44  -0.24  77.7253416896
0.44  -0.22  91.998180027
0.44  -0.2  60.6662625328
0.44  -0.18  58.2274076087
0.44  -0.16  55.4695416391
0.44  -0.14  52.4779996827
0.44  -0.12  49.3588410186
0.44  -0.1  46.242269265
0.44  -0.08  43.285294507
0.44  -0.06  40.6708144953
0.44  -0.04  38.5979621497
0.44  -0.02  37.2576840216
0.44  6.17561557e-16  36.7930067983
0.44  0.02  37.2576840216
0.44  0.04  38.5979621497
0.44  0.06  40.6708144953
0.44  0.08  43.285294507
0.44  0.1  46.242269265
0.44  0.12  49.3588410186
0.44  0.14  52.4779996827
0.44  0.16  55.4695416391
0.44  0.18  58.2274076087
0.44  0.2  108.891964246
0.44  0.22  91.998180027
0.44  0.24  77.7253416896
0.44  0.26  65.6668288328
0.44  0.28  55.4791052084
0.44  0.3  46.8719316805
0.44  0.32  39.600097572
0.44  0.34  33.4564348319
0.44  0.36  28.2659160025
0.44  0.38  23.8806678439
0.44  0.4  20.1757585573
0.44  0.42  17.0456385904
0.44  0.44  14.4011336243
0.44  0.46  12.1669040772
0.44  0.48  10.2792987473
0.44  0.5  8.68454144665
0.44  0.52  7.33719896589
0.44  0.54  6.19888672255
0.44  0.56  5.23717521873
0.44  0.58  4.42466615366
0.44  0.6  3.73821187066
0.44  0.62  3.15825590104
0.44  0.64  2.66827581784
0.44  0.66  2.25431252665
0.44  0.68  1.90457258347
0.44  0.7  1.60909221008
0.44  0.72  1.35945343486
0.44  0.74  1.14854427234
0.44  0.76  0.970356109076
0.44  0.78  0.819812523644
0.44  0.8  0.692624663911
0.44  0.82  0.585169061489
0.44  0.84  0.494384402355
0.44  0.86  0.417684312753
0.44  0.88  0.352883675716
0.44  0.9  0.298136379042
0.44  0.92  0.251882721205
0.44  0.94  0.212804976855
0.44  0.96  0.179789856
0.44  0.98  0.151896787369
0.46  -1  0.112787944101
0.46  -0.98  0.133499388497
0.46  -0.96  0.158014111093
0.46  -0.94  0.187030514413
0.46  -0.92  0.221375249841
0.46  -0.9  0.262026768177
0.46  -0.88  0.310143194827
0.46  -0.86  0.367095323759
0.46  -0.84  0.434505670199
0.46  -0.82  0.514294694636
0.46  -0.8  0.608735515027
0.46  -0.78  0.720518665893
0.46  -0.76  0.852828749244
0.46  -0.74  1.00943516104
0.46  -0.72  1.1947994779
0.46  -0.7  1.41420256348
0.46  -0.68  1.67389501546
0.46  -0.66  1.9812752396
0.46  -0.64  2.3451002236
0.46  -0.62  2.77573501592
0.46  -0.6  3.2854480167
0.46  -0.58  3.88876049355
0.46  -0.56  4.60286027942
0.46  -0.54  5.44809143865
0.46  -0.52  6.44853385113
0.46  -0.5  7.63268922658
0.46  -0.48  9.03429309274
0.46  -0.46  10.6932758904
0.46  -0.44  12.656900556
0.46  -0.42  14.9811090002
0.46  -0.4  17.7321158434
0.46  -0.38  20.9882948104
0.46  -0.36  24.8424115283
0.46  -0.34  29.4042663358
0.46  -0.32  34.8038223972
0.46  -0.3  41.1949082361
0.46  -0.28  48.7596001731
0.46  -0.26  57.7134095168
0.46  -0.24  68.3114222888
0.46  -0.22  80.8555663959
0.46  -0.2  53.3185006135
0.46  -0.18  51.1750343386
0.46  -0.16  48.7511949219
0.46  -0.14  46.1219818308
0.46  -0.12  43.380608682
0.46  -0.1  40.6415091229
0.46  -0.08  38.0426765285
0.46  -0.06  35.7448564834
0.46  -0.04  33.923063374
0.46  -0.02  32.7451167326
0.46  6.17561557e-16  32.3367201743
0.46  0.02  32.7451167326
0.46  0.04  33.923063374
0.46  0.06  35.7448564834
0.46  0.08  38.0426765285
0.46  0.1  40.6415091229
0.46  0.12  43.380608682
0.46  0.14  46.1219818308
0.46  0.16  48.7511949219
0.46  0.18  51.1750343386
0.46  0.2  95.7032132864
0.46  0.22  80.8555663959
0.46  0.24  68.3114222888
0.46  0.26  57.7134095168
0.46  0.28  48.7596001731
0.46  0.3  41.1949082361
0.46  0.32  34.8038223972
0.46  0.34  29.4042663358
0.46  0.36  24.8424115283
0.46  0.38  20.9882948104
0.46  0.4  17.7321158434
0.46  0.42  14.9811090002
0.46  0.44  12.656900556
0.46  0.46  10.6932758904
0.46  0.48  9.03429309274
0.46  0.5  7.63268922658
0.46  0.52  6.44853385113
0.46  0.54  5.44809143865
0.46  0.56  4.60286027942
0.46  0.58  3.88876049355
0.46  0.6  3.2854480167
0.46  0.62  2.77573501592
0.46  0.64  2.3451002236
0.46  0.66  1.9812752396
0.46  0.68  1.67389501546
0.46  0.7  1.41420256348
0.46  0.72  1.1947994779
0.46  0.74  1.00943516104
0.46  0.76  0.852828749244
0.46  0.78  0.720518665893
0.46  0.8  0.608735515027
0.46  0.82  0.514294694636
0.46  0.84  0.434505670199
0.46  0.86  0.367095323759
0.46  0.88  0.310143194827
0.46  0.9  0.262026768177
0.46  0.92  0.221375249841
0.46  0.94  0.187030514413
0.46  0.96  0.158014111093
0.46  0.98  0.133499388497
0.48  -1  0.0991273207824
0.48  -0.98  0.117330241395
0.48  -0.96  0.138875795665
0.48  -0.94  0.164377797167
0.48  -0.92  0.194562775119
0.48  -0.9  0.230290672551
0.48  -0.88  0.272579345311
0.48  -0.86  0.322633559872
0.48  -0.84  0.381879316046
0.48  -0.82  0.452004472447
0.48  -0.8  0.535006832074
0.48  -0.78  0.633251057929
0.48  -0.76  0.749536040154
0.48  -0.74  0.887174633908
0.48  -0.72  1.05008803965
0.48  -0.7  1.24291751462
0.48  -0.68  1.47115659813
0.48  -0.66  1.74130761757
0.48  -0.64  2.06106693392
0.48  -0.62  2.43954420415
0.48  -0.6  2.88752190725
0.48  -0.58  3.41776252738
0.48  -0.56  4.04537214567
0.48  -0.54  4.78823079891
0.48  -0.52  5.66750186584
0.48  -0.5  6.70823499289
0.48  -0.48  7.94007973621
0.48  -0.46  9.39813025098
0.48  -0.44  11.1239250925
0.48  -0.42  13.1666306127
0.48  -0.4  15.584441665
0.48  -0.38  18.4462395243
0.48  -0.36  21.8335542526
0.48  -0.34  25.8428874173
0.48  -0.32  30.5884613352
0.48  -0.3  36.2054731635
0.48  -0.28  42.8539465463
0.48  -0.26  50.723290545
0.48  -0.24  60.0376957332
0.48  -0.22  71.0625211856
0.48  -0.2  46.8606831703
0.48  -0.18  44.9768287325
0.48  -0.16  42.8465593203
0.48  -0.14  40.5357906334
0.48  -0.12  38.1264464639
0.48  -0.1  35.7191005121
0.48  -0.08  33.4350327042
0.48  -0.06  31.4155194794
0.48  -0.04  29.8143778733
0.48  -0.02  28.7791014924
0.48  6.17561557e-16  28.4201690111
0.48  0.02  28.7791014924
0.48  0.04  29.8143778733
0.48  0.06  31.4155194794
0.48  0.08  33.4350327042
0.48  0.1  35.7191005121
0.48  0.12  38.1264464639
0.48  0.14  40.5357906334
0.48  0.16  42.8465593203
0.48  0.18  44.9768287325
0.48  0.2  84.1118543205
0.48  0.22  71.0625211856
0.48  0.24  60.0376957332
0.48  0.26  50.723290545
0.48  0.28  42.8539465463
0.48  0.3  36.2054731635
0.48  0.32  30.5884613352
0.48  0.34  25.8428874173
0.48  0.36  21.8335542526
0.48  0.38  18.4462395243
0.48  0.4  15.584441665
0.48  0.42  13.1666306127
0.48  0.44  11.1239250925
0.48  0.46  9.39813025098
0.48  0.48  7.94007973621
0.48  0.5  6.70823499289
0.48  0.52  5.66750186584
0.48  0.54  4.78823079891
0.48  0.56  4.04537214567
0.48  0.58  3.41776252738
0.48  0.6  2.88752190725
0.48  0.62  2.43954420415
0.48  0.64  2.06106693392
0.48  0.66  1.74130761757
0.48  0.68  1.47115659813
0.48  0.7  1.24291751462
0.48  0.72  1.05008803965
0.48  0.74  0.887174633908
0.48  0.76  0.749536040154
0.48  0.78  0.633251057929
0.48  0.8  0.535006832074
0.48  0.82  0.452004472447
0.48  0.84  0.381879316046
0.48  0.86  0.322633559872
0.48  0.88  0.272579345311
0.48  0.9  0.230290672551
0.48  0.92  0.194562775119
0.48  0.94  0.164377797167
0.48  0.96  0.138875795665
0.48  0.98  0.117330241395
0.5  -1  0.0871212415813
0.5  -0.98  0.103119465196
0.5  -0.96  0.122055470161
0.5  -0.94  0.144468726326
0.5  -0.92  0.170997767316
0.5  -0.9  0.202398381786
0.5  -0.88  0.239565145164
0.5  -0.86  0.283556905301
0.5  -0.84  0.335626948106
0.5  -0.82  0.397258702536
0.5  -0.8  0.470208002162
0.5  -0.78  0.556553107296
0.5  -0.76  0.658753912773
0.5  -0.74  0.779722028149
0.5  -0.72  0.922903726859
0.5  -0.7  1.09237812746
0.5  -0.68  1.29297340408
0.5  -0.66  1.53040433677
0.5  -0.64  1.81143512049
0.5  -0.62  2.14407207095
0.5  -0.6  2.53779171743
0.5  -0.58  3.00381078057
0.5  -0.56  3.55540572677
0.5  -0.54  4.20829100278
0.5  -0.52  4.98106672629
0.5  -0.5  5.89574858663
0.5  -0.48  6.97839505207
0.5  -0.46  8.25984975227
0.5  -0.44  9.77662018573
0.5  -0.42  11.5719177858
0.5  -0.4  13.6968889756
0.5  -0.38  16.2120722842
0.5  -0.36  19.1891230349
0.5  -0.34  22.7128547415
0.5  -0.32  26.8836553692
0.5  -0.3  31.8203472982
0.5  -0.28  37.6635724672
0.5  -0.26  44.579799136
0.5  -0.24  52.7660644177
0.5  -0.22  62.4555876898
0.5  -0.2  41.1850221202
0.5  -0.18  39.529335915
0.5  -0.16  37.6570799655
0.5  -0.14  35.6261864094
0.5  -0.12  33.5086566126
0.5  -0.1  31.3928830137
0.5  -0.08  29.3854563859
0.5  -0.06  27.6105420823
0.5  -0.04  26.2033271635
0.5  -0.02  25.2934411403
0.5  6.17561557e-16  24.9779817578
0.5  0.02  25.2934411403
0.5  0.04  26.2033271635
0.5  0.06  27.6105420823
0.5  0.08  29.3854563859
0.5  0.1  31.3928830137
0.5  0.12  33.5086566126
0.5  0.14  35.6261864094
0.5  0.16  37.6570799655
0.5  0.18  39.529335915
0.5  0.2  73.9244148058
0.5  0.22  62.4555876898
0.5  0.24  52.7660644177
0.5  0.26  44.579799136
0.5  0.28  37.6635724672
0.5  0.3  31.8203472982
0.5  0.32  26.8836553692
0.5  0.34  22.7128547415
0.5  0.36  19.1891230349
0.5  0.38  16.2120722842
0.5  0.4  13.6968889756
0.5  0.42  11.5719177858
0.5  0.44  9.77662018573
0.5  0.46  8.25984975227
0.5  0.48  6.97839505207
0.5  0.5  5.89574858663
0.5  0.52  4.98106672629
0.5  0.54  4.20829100278
0.5  0.56  3.55540572677
0.5  0.58  3.00381078057
0.5  0.6  2.53779171743
0.5  0.62  2.14407207095
0.5  0.64  1.81143512049
0.5  0.66  1.53040433677
0.5  0.68  1.29297340408
0.5  0.7  1.09237812746
0.5  0.72  0.922903726859
0.5  0.74  0.779722028149
0.5  0.76  0.658753912773
0.5  0.78  0.556553107296
0.5  0.8  0.470208002162
0.5  0.82  0.397258702536
0.5  0.84  0.335626948106
0.5  0.86  0.283556905301
0.5  0.88  0.239565145164
0.5  0.9  0.202398381786
0.5  0.92  0.170997767316
0.5  0.94  0.144468726326
0.5  0.96  0.122055470161
0.5  0.98  0.103119465196
0.52  -1  0.0765693118179
0.52  -0.98  0.0906298663993
0.52  -0.96  0.107272384831
0.52  -0.94  0.12697099758
0.52  -0.92  0.15028690051
0.52  -0.9  0.177884342844
0.52  -0.88  0.210549551037
0.52  -0.86  0.24921312766
0.52  -0.84  0.294976563437
0.52  -0.82  0.349143617731
0.52  -0.8  0.413257461479
0.52  -0.78  0.48914464076
0.52  -0.76  0.578967113449
0.52  -0.74  0.685283841472
0.52  -0.72  0.81112369334
0.52  -0.7  0.960071733902
0.52  -0.68  1.13637135964
0.52  -0.66  1.34504518924
0.52  -0.64  1.59203815351
0.52  -0.62  1.88438686113
0.52  -0.6  2.23042006535
0.52  -0.58  2.63999594273
0.52  -0.56  3.12478294376
0.52  -0.54  3.69859221659
0.52  -0.52  4.3777710743
0.52  -0.5  5.18166871519
0.52  -0.48  6.13318746419
0.52  -0.46  7.25943523958
0.52  -0.44  8.59249783336
0.52  -0.42  10.1703530068
0.52  -0.4  12.0379524427
0.52  -0.38  14.2485023791
0.52  -0.36  16.8649794069
0.52  -0.34  19.9619246169
0.52  -0.32  23.6275672087
0.52  -0.3  27.9663380619
0.52  -0.28  33.1018448782
0.52  -0.26  39.1803936545
0.52  -0.24  46.3751568099
0.52  -0.22  54.8911067129
0.52  -0.2  36.1967844318
0.52  -0.18  34.7416312336
0.52  -0.16  33.0961387338
0.52  -0.14  31.3112224591
0.52  -0.12  29.4501631313
0.52  -0.1  27.5906472946
0.52  -0.08  25.8263556864
0.52  -0.06  24.2664150302
0.52  -0.04  23.0296388324
0.52  -0.02  22.2299561677
0.52  6.17561557e-16  21.9527045193
0.52  0.02  22.2299561677
0.52  0.04  23.0296388324
0.52  0.06  24.2664150302
0.52  0.08  25.8263556864
0.52  0.1  27.5906472946
0.52  0.12  29.4501631313
0.52  0.14  31.3112224591
0.52  0.16  33.0961387338
0.52  0.18  34.7416312336
0.52  0.2  64.970855161
0.52  0.22  54.8911067129
0.52  0.24  46.3751568099
0.52  0.26  39.1803936545
0.52  0.28  33.1018448782
0.52  0.3  27.9663380619
0.52  0.32  23.6275672087
0.52  0.34  19.9619246169
0.52  0.36  16.8649794069
0.52  0.38  14.2485023791
0.52  0.4  12.0379524427
0.52  0.42  10.1703530068
0.52  0.44  8.59249783336
0.52  0.46  7.25943523958
0.52  0.48  6.13318746419
0.52  0.5  5.18166871519
0.52  0.52  4.3777710743
0.52  0.54  3.69859221659
0.52  0.56  3.12478294376
0.52  0.58  2.63999594273
0.52  0.6  2.23042006535
0.52  0.62  1.88438686113
0.52  0.64  1.59203815351
0.52  0.66  1.34504518924
0.52  0.68  1.13637135964
0.52  0.7  0.960071733902
0.52  0.72  0.81112369334
0.52  0.74  0.685283841472
0.52  0.76  0.578967113449
0.52  0.78  0.48914464076
0.52  0.8  0.413257461479
0.52  0.82  0.349143617731
0.52  0.84  0.294976563437
0.52  0.86  0.24921312766
0.52  0.88  0.210549551037
0.52  0.9  0.177884342844
0.52  0.92  0.15028690051
0.52  0.94  0.12697099758
0.52  0.96  0.107272384831
0.52  0.98  0.0906298663993
0.54  -1  0.0672954081675
0.54  -0.98  0.0796529798519
0.54  -0.96  0.0942797937045
0.54  -0.94  0.111592554572
0.54  -0.92  0.13208448753
0.54  -0.9  0.156339389425
0.54  -0.88  0.185048260721
0.54  -0.86  0.21902899149
0.54  -0.84  0.259249662366
0.54  -0.82  0.306856124293
0.54  -0.8  0.363204642803
0.54  -0.78  0.429900536799
0.54  -0.76  0.50884391266
0.54  -0.74  0.60228379657
0.54  -0.72  0.712882207266
0.54  -0.7  0.843789994569
0.54  -0.68  0.998736604277
0.54  -0.66  1.18213632674
0.54  -0.64  1.39921405606
0.54  -0.62  1.65615414262
0.54  -0.6  1.96027657973
0.54  -0.58  2.32024554366
0.54  -0.56  2.7463162283
0.54  -0.54  3.25062700645
0.54  -0.52  3.84754524122
0.54  -0.5  4.55407659934
0.54  -0.48  5.39034952739
0.54  -0.46  6.38018869328
0.54  -0.44  7.5517937297
0.54  -0.42  8.93854261647
0.54  -0.4  10.5799425893
0.54  -0.38  12.5227556656
0.54  -0.36  14.8223308527
0.54  -0.34  17.5441809912
0.54  -0.32  20.7658491576
0.54  -0.3  24.5791177972
0.54  -0.28  29.0926235235
0.54  -0.26  34.4349520786
0.54  -0.24  40.7583016258
0.54  -0.22  48.2428187391
0.54  -0.2  31.8127109263
0.54  -0.18  30.5338026262
0.54  -0.16  29.0876084945
0.54  -0.14  27.5188772836
0.54  -0.12  25.8832252957
0.54  -0.1  24.2489298547
0.54  -0.08  22.6983252968
0.54  -0.06  21.327321161
0.54  -0.04  20.2403405278
0.54  -0.02  19.5375136374
0.54  6.17561557e-16  19.2938420881
0.54  0.02  19.5375136374
0.54  0.04  20.2403405278
0.54  0.06  21.327321161
0.54  0.08  22.6983252968
0.54  0.1  24.2489298547
0.54  0.12  25.8832252957
0.54  0.14  27.5188772836
0.54  0.16  29.0876084945
0.54  0.18  30.5338026262
0.54  0.2  57.1017306182
0.54  0.22  48.2428187391
0.54  0.24  40.7583016258
0.54  0.26  34.4349520786
0.54  0.28  29.0926235235
0.54  0.3  24.5791177972
0.54  0.32  20.7658491576
0.54  0.34  17.5441809912
0.54  0.36  14.8223308527
0.54  0.38  12.5227556656
0.54  0.4  10.5799425893
0.54  0.42  8.93854261647
0.54  0.44  7.5517937297
0.54  0.46  6.38018869328
0.54  0.48  5.39034952739
0.54  0.5  4.55407659934
0.54  0.52  3.84754524122
0.54  0.54  3.25062700645
0.54  0.56  2.7463162283
0.54  0.58  2.32024554366
0.54  0.6  1.96027657973
0.54  0.62  1.65615414262
0.54  0.64  1.39921405606
0.54  0.66  1.18213632674
0.54  0.68  0.998736604277
0.54  0.7  0.843789994569
0.54  0.72  0.712882207266
0.54  0.74  0.60228379657
0.54  0.76  0.50884391266
0.54  0.78  0.429900536799
0.54  0.8  0.363204642803
0.54  0.82  0.306856124293
0.54  0.84  0.259249662366
0.54  0.86  0.21902899149
0.54  0.88  0.185048260721
0.54  0.9  0.156339389425
0.54  0.92  0.13208448753
0.54  0.94  0.111592554572
0.54  0.96  0.0942797937045
0.54  0.98  0.0796529798519
0.56  -1  0.059144738968
0.56  -0.98  0.0700055892319
0.56  -0.96  0.082860836132
0.56  -0.94  0.0980767141572
0.56  -0.92  0.116086710066
0.56  -0.9  0.137403912537
0.56  -0.88  0.162635629605
0.56  -0.86  0.192500690328
0.56  -0.84  0.227849923579
0.56  -0.82  0.269690397403
0.56  -0.8  0.319214109484
0.56  -0.78  0.377831946095
0.56  -0.76  0.447213876983
0.56  -0.74  0.529336531315
0.56  -0.72  0.626539510077
0.56  -0.7  0.741592039213
0.56  -0.68  0.877771862394
0.56  -0.66  1.03895862101
0.56  -0.64  1.22974438167
0.56  -0.62  1.45556446009
0.56  -0.6  1.72285226838
0.56  -0.58  2.03922259717
0.56  -0.56  2.41368855423
0.56  -0.54  2.85691833981
0.56  -0.52  3.38153917416
0.56  -0.5  4.00249703572
0.56  -0.48  4.73748245869
0.56  -0.46  5.60743452051
0.56  -0.44  6.63713737751
0.56  -0.42  7.85592634329
0.56  -0.4  9.2985236256
0.56  -0.38  11.006027531
0.56  -0.36  13.0270833189
0.56  -0.34  15.4192690614
0.56  -0.32  18.2507359911
0.56  -0.3  21.6021500689
0.56  -0.28  25.5689900849
0.56  -0.26  30.264267764
0.56  -0.24  35.8217473685
0.56  -0.22  42.3997565228
0.56  -0.2  27.9596265903
0.56  -0.18  26.8356168006
0.56  -0.16  25.564582465
0.56  -0.14  24.1858524668
0.56  -0.12  22.7483069863
0.56  -0.1  21.3119537508
0.56  -0.08  19.9491549461
0.56  -0.06  18.7442037623
0.56  -0.04  17.7888757902
0.56  -0.02  17.1711737195
0.56  6.17561557e-16  16.9570151228
0.56  0.02  17.1711737195
0.56  0.04  17.7888757902
0.56  0.06  18.7442037623
0.56  0.08  19.9491549461
0.56  0.1  21.3119537508
0.56  0.12  22.7483069863
0.56  0.14  24.1858524668
0.56  0.16  25.564582465
0.56  0.18  26.8356168006
0.56  0.2  50.1856968254
0.56  0.22  42.3997565228
0.56  0.24  35.8217473685
0.56  0.26  30.264267764
0.56  0.28  25.5689900849
0.56  0.3  21.6021500689
0.56  0.32  18.2507359911
0.56  0.34  15.4192690614
0.56  0.36  13.0270833189
0.56  0.38  11.006027531
0.56  0.4  9.2985236256
0.56  0.42  7.85592634329
0.56  0.44  6.63713737751
0.56  0.46  5.60743452051
0.56  0.48  4.73748245869
0.56  0.5  4.00249703572
0.56  0.52  3.38153917416
0.56  0.54  2.85691833981
0.56  0.56  2.41368855423
0.56  0.58  2.03922259717
0.56  0.6  1.72285226838
0.56  0.62  1.45556446009
0.56  0.64  1.22974438167
0.56  0.66  1.03895862101
0.56  0.68  0.877771862394
0.56  0.7  0.741592039213
0.56  0.72  0.626539510077
0.56  0.74  0.529336531315
0.56  0.76  0.447213876983
0.56  0.78  0.377831946095
0.56  0.8  0.319214109484
0.56  0.82  0.269690397403
0.56  0.84  0.227849923579
0.56  0.86  0.192500690328
0.56  0.88  0.162635629605
0.56  0.9  0.137403912536
0.56  0.92  0.116086710066
0.56  0.94  0.0980767141572
0.56  0.96  0.082860836132
0.56  0.98  0.0700055892319
0.58  -1  0.051981260577
0.58  -0.98  0.0615266689684
0.58  -0.96  0.07282491714
0.58  -0.94  0.0861978820788
0.58  -0.92  0.102026547598
0.58  -0.9  0.120761858223
0.58  -0.88  0.1429375662
0.58  -0.86  0.169185437619
0.58  -0.84  0.200253250866
0.58  -0.82  0.237026100159
0.58  -0.8  0.28055161109
0.58  -0.78  0.332069786544
0.58  -0.76  0.393048333271
0.58  -0.74  0.465224475538
0.58  -0.72  0.550654447097
0.58  -0.7  0.651772071444
0.58  -0.68  0.771458099274
0.58  -0.66  0.913122278493
0.58  -0.64  1.08080049489
0.58  -0.62  1.2792697509
0.58  -0.6  1.51418425816
0.58  -0.58  1.79223652091
0.58  -0.56  2.12134799948
0.58  -0.54  2.51089478558
0.58  -0.52  2.97197471881
0.58  -0.5  3.51772355416
0.58  -0.48  4.16368918793
0.58  -0.46  4.92827460338
0.58  -0.44  5.83326215528
0.58  -0.42  6.90443412972
0.58  -0.4  8.17230725839
0.58  -0.38  9.67300211296
0.58  -0.36  11.4492721479
0.58  -0.34  13.551721708
0.58  -0.32  16.0402477013
0.58  -0.3  18.985746008
0.58  -0.28  22.4721312408
0.58  -0.26  26.5987273976
0.58  -0.24  31.4830975126
0.58  -0.22  37.2643929227
0.58  -0.2  24.573219204
0.58  -0.18  23.5853469641
0.58  -0.16  22.468257462
0.58  -0.14  21.256516155
0.58  -0.12  19.9930829652
0.58  -0.1  18.7306976184
0.58  -0.08  17.5329579543
0.58  -0.06  16.4739477606
0.58  -0.04  15.6343269741
0.58  -0.02  15.0914395955
0.58  6.17561557e-16  14.9032194086
0.58  0.02  15.0914395955
0.58  0.04  15.6343269741
0.58  0.06  16.4739477606
0.58  0.08  17.5329579543
0.58  0.1  18.7306976184
0.58  0.12  19.9930829652
0.58  0.14  21.256516155
0.58  0.16  22.468257462
0.58  0.18  23.5853469641
0.58  0.2  44.1073175643
0.58  0.22  37.2643929227
0.58  0.24  31.4830975126
0.58  0.26  26.5987273976
0.58  0.28  22.4721312408
0.58  0.3  18.985746008
0.58  0.32  16.0402477013
0.58  0.34  13.551721708
0.58  0.36  11.4492721479
0.58  0.38  9.67300211296
0.58  0.4  8.17230725839
0.58  0.42  6.90443412972
0.58  0.44  5.83326215528
0.58  0.46  4.92827460338
0.58  0.48  4.16368918793
0.58  0.5  3.51772355416
0.58  0.52  2.97197471881
0.58  0.54  2.51089478558
0.58  0.56  2.12134799948
0.58  0.58  1.79223652091
0.58  0.6  1.51418425816
0.58  0.62  1.2792697509
0.58  0.64  1.08080049489
0.58  0.66  0.913122278493
0.58  0.68  0.771458099274
0.58  0.7  0.651772071444
0.58  0.72  0.550654447097
0.58  0.74  0.465224475538
0.58  0.76  0.393048333271
0.58  0.78  0.332069786544
0.58  0.8  0.28055161109
0.58  0.82  0.237026100159
0.58  0.84  0.200253250866
0.58  0.86  0.169185437619
0.58  0.88  0.1429375662
0.58  0.9  0.120761858223
0.58  0.92  0.102026547598
0.58  0.94  0.0861978820788
0.58  0.96  0.07282491714
0.58  0.98  0.0615266689684
0.6  -1  0.0456854066536
0.6  -0.98  0.0540746965477
0.6  -0.96  0.0640045261913
0.6  -0.94  0.0757577875515
0.6  -0.92  0.0896693205344
0.6  -0.9  0.106135452275
0.6  -0.88  0.125625288141
0.6  -0.86  0.148694076129
0.6  -0.84  0.175999025379
0.6  -0.82  0.20831802948
0.6  -0.8  0.246571827957
0.6  -0.78  0.291850237321
0.6  -0.76  0.345443198966
0.6  -0.74  0.408877528445
0.6  -0.72  0.48396041308
0.6  -0.7  0.572830897113
0.6  -0.68  0.678020821164
0.6  -0.66  0.802526952105
0.6  -0.64  0.949896358271
0.6  -0.62  1.12432746226
0.6  -0.6  1.33078965025
0.6  -0.58  1.57516484534
0.6  -0.56  1.86441507832
0.6  -0.54  2.20678082967
0.6  -0.52  2.6120157935
0.6  -0.5  3.09166475155
0.6  -0.48  3.65939247372
0.6  -0.46  4.33137301514
0.6  -0.44  5.12675050053
0.6  -0.42  6.0681845232
0.6  -0.4  7.1824956966
0.6  -0.38  8.50142974961
0.6  -0.36  10.062561934
0.6  -0.34  11.9103675096
0.6  -0.32  14.0974888051
0.6  -0.3  16.6862349502
0.6  -0.28  19.7503570078
0.6  -0.26  23.3771490752
0.6  -0.24  27.6699352154
0.6  -0.22  32.7510130665
0.6  -0.2  21.5969659001
0.6  -0.18  20.7287425345
0.6  -0.16  19.7469524124
0.6  -0.14  18.6819745
0.6  -0.12  17.57156551
0.6  -0.1  16.4620774507
0.6  -0.08  15.4094053336
0.6  -0.06  14.4786600841
0.6  -0.04  13.7407322877
0.6  -0.02  13.2635982132
0.6  6.17561557e-16  13.098174834
0.6  0.02  13.2635982132
0.6  0.04  13.7407322877
0.6  0.06  14.4786600841
0.6  0.08  15.4094053336
0.6  0.1  16.4620774507
0.6  0.12  17.57156551
0.6  0.14  18.6819745
0.6  0.16  19.7469524124
0.6  0.18  20.7287425345
0.6  0.2  38.7651379932
0.6  0.22  32.7510130665
0.6  0.24  27.6699352154
0.6  0.26  23.3771490752
0.6  0.28  19.7503570078
0.6  0.3  16.6862349502
0.6  0.32  14.0974888051
0.6  0.34  11.9103675096
0.6  0.36  10.062561934
0.6  0.38  8.50142974961
0.6  0.4  7.1824956966
0.6  0.42  6.0681845232
0.6  0.44  5.12675050053
0.6  0.46  4.33137301514
0.6  0.48  3.65939247372
0.6  0.5  3.09166475155
0.6  0.52  2.6120157935
0.6  0.54  2.20678082967
0.6  0.56  1.86441507832
0.6  0.58  1.57516484534
0.6  0.6  1.33078965025
0.6  0.62  1.12432746226
0.6  0.64  0.949896358271
0.6  0.66  0.802526952105
0.6  0.68  0.678020821164
0.6  0.7  0.572830897113
0.6  0.72  0.48396041308
0.6  0.74  0.408877528445
0.6  0.76  0.345443198966
0.6  0.78  0.291850237321
0.6  0.8  0.246571827957
0.6  0.82  0.20831802948
0.6  0.84  0.175999025379
0.6  0.86  0.148694076129
0.6  0.88  0.125625288141
0.6  0.9  0.106135452275
0.6  0.92  0.0896693205344
0.6  0.94  0.0757577875515
0.6  0.96  0.0640045261913
0.6  0.98  0.0540746965477
0.62  -1  0.0401520924645
0.62  -0.98  0.0475252903456
0.62  -0.96  0.0562524412502
0.62  -0.94  0.0665821739037
0.62  -0.92  0.078808773152
0.62  -0.9  0.0932805638745
0.62  -0.88  0.110409834448
0.62  -0.86  0.130684582473
0.62  -0.84  0.154682417391
0.62  -0.82  0.18308701606
0.62  -0.8  0.216707600095
0.62  -0.78  0.25650198987
0.62  -0.76  0.303603891966
0.62  -0.74  0.359355197453
0.62  -0.72  0.425344211171
0.62  -0.7  0.503450901111
0.62  -0.68  0.595900457024
0.62  -0.66  0.705326684087
0.62  -0.64  0.834847037657
0.62  -0.62  0.988151436788
0.62  -0.6  1.16960738672
0.62  -0.58  1.38438440521
0.62  -0.56  1.63860129744
0.62  -0.54  1.93950047536
0.62  -0.52  2.29565428747
0.62  -0.5  2.71720923739
0.62  -0.48  3.21617504869
0.62  -0.46  3.80676681113
0.62  -0.44  4.5058099559
0.62  -0.42  5.33321959711
0.62  -0.4  6.31256789552
0.62  -0.38  7.47175560841
0.62  -0.36  8.84380695714
0.62  -0.34  10.4678104577
0.62  -0.32  12.3900325176
0.62  -0.3  14.6652355244
0.62  -0.28  17.3582379773
0.62  -0.26  20.5457611079
0.62  -0.24  24.3186146
0.62  -0.22  28.7842836756
0.62  -0.2  18.9811897341
0.62  -0.18  18.2181236391
0.62  -0.16  17.3552457388
0.62  -0.14  16.4192555674
0.62  -0.12  15.4433368286
0.62  -0.1  14.4682274795
0.62  -0.08  13.5430526528
0.62  -0.06  12.7250371845
0.62  -0.04  12.076485551
0.62  -0.02  11.6571408876
0.62  6.17561557e-16  11.5117532178
0.62  0.02  11.6571408876
0.62  0.04  12.076485551
0.62  0.06  12.7250371845
0.62  0.08  13.5430526528
0.62  0.1  14.4682274795
0.62  0.12  15.4433368286
0.62  0.14  16.4192555674
0.62  0.16  17.3552457388
0.62  0.18  18.2181236391
0.62  0.2  34.0699912534
0.62  0.22  28.7842836756
0.62  0.24  24.3186146
0.62  0.26  20.5457611079
0.62  0.28  17.3582379773
0.62  0.3  14.6652355244
0.62  0.32  12.3900325176
0.62  0.34  10.4678104577
0.62  0.36  8.84380695714
0.62  0.38  7.47175560841
0.62  0.4  6.31256789552
0.62  0.42  5.33321959711
0.62  0.44  4.5058099559
0.62  0.46  3.80676681113
0.62  0.48  3.21617504869
0.62  0.5  2.71720923739
0.62  0.52  2.29565428747
0.62  0.54  1.93950047536
0.62  0.56  1.63860129744
0.62  0.58  1.38438440521
0.62  0.6  1.16960738672
0.62  0.62  0.988151436788
0.62  0.64  0.834847037657
0.62  0.66  0.705326684087
0.62  0.68  0.595900457024
0.62  0.7  0.503450901111
0.62  0.72  0.425344211171
0.62  0.74  0.359355197453
0.62  0.76  0.303603891966
0.62  0.78  0.25650198987
0.62  0.8  0.216707600095
0.62  0.82  0.18308701606
0.62  0.84  0.154682417391
0.62  0.86  0.130684582473
0.62  0.88  0.110409834448
0.62  0.9  0.0932805638745
0.62  0.92  0.078808773152
0.62  0.94  0.0665821739037
0.62  0.96  0.0562524412502
0.62  0.98  0.0475252903456
0.64  -1  0.0352889609038
0.64  -0.98  0.0417691335621
0.64  -0.96  0.0494392714846
0.64  -0.94  0.0585178900416
0.64  -0.92  0.0692636309577
0.64  -0.9  0.0819826307824
0.64  -0.88  0.097037242447
0.64  -0.86  0.114856358376
0.64  -0.84  0.135947629247
0.64  -0.82  0.160911926507
0.64  -0.8  0.190460460661
0.64  -0.78  0.225435043025
0.64  -0.76  0.266832068175
0.64  -0.74  0.315830900338
0.64  -0.72  0.373827472428
0.64  -0.7  0.44247405492
