-0.4  -0.52  1.56514337908
-0.4  -0.5  1.86803860975
-0.4  -0.48  2.22955180603
-0.4  -0.46  2.66102704185
-0.4  -0.44  3.17600375928
-0.4  -0.42  3.79064162833
-0.4  -0.4  4.52422762803
-0.4  -0.38  5.39978126057
-0.4  -0.36  6.44477688995
-0.4  -0.34  7.69200587152
-0.4  -0.32  9.18060552566
-0.4  -0.3  10.9572872441
-0.4  -0.28  13.0778022664
-0.4  -0.26  15.6086911211
-0.4  -0.24  18.6293716293
-0.4  -0.22  22.2346309891
-0.4  -0.2  15.6076306557
-0.4  -0.18  14.8437918654
-0.4  -0.16  13.9832835904
-0.4  -0.14  13.0478887978
-0.4  -0.12  12.0652965828
-0.4  -0.1  11.0709371019
-0.4  -0.08  10.1103828309
-0.4  -0.06  9.24170851795
-0.4  -0.04  8.53561946221
-0.4  -0.02  8.06862299687
-0.4  6.17561557e-16  7.9044524301
-0.4  0.02  8.06862299687
-0.4  0.04  8.53561946221
-0.4  0.06  9.24170851795
-0.4  0.08  10.1103828309
-0.4  0.1  11.0709371019
-0.4  0.12  12.0652965828
-0.4  0.14  13.0478887978
-0.4  0.16  13.9832835904
-0.4  0.18  14.8437918654
-0.4  0.2  26.5376001434
-0.4  0.22  22.2346309891
-0.4  0.24  18.6293716293
-0.4  0.26  15.6086911211
-0.4  0.28  13.0778022664
-0.4  0.3  10.9572872441
-0.4  0.32  9.18060552566
-0.4  0.34  7.69200587152
-0.4  0.36  6.44477688995
-0.4  0.38  5.39978126057
-0.4  0.4  4.52422762803
-0.4  0.42  3.79064162833
-0.4  0.44  3.17600375928
-0.4  0.46  2.66102704185
-0.4  0.48  2.22955180603
-0.4  0.5  1.86803860975
-0.4  0.52  1.56514337908
-0.4  0.54  1.31136143776
-0.4  0.56  1.09872925601
-0.4  0.58  0.92057455958
-0.4  0.6  0.771306957659
-0.4  0.62  0.646242519676
-0.4  0.64  0.541456796273
-0.4  0.66  0.453661672367
-0.4  0.68  0.380102188006
-0.4  0.7  0.318470089337
-0.4  0.72  0.266831396931
-0.4  0.74  0.22356571864
-0.4  0.76  0.187315402633
-0.4  0.78  0.156942935066
-0.4  0.8  0.131495245563
-0.4  0.82  0.110173800424
-0.4  0.84  0.0923095450923
-0.4  0.86  0.0773419096227
-0.4  0.88  0.064801218315
-0.4  0.9  0.0542939515664
-0.4  0.92  0.0454903974547
-0.4  0.94  0.0381143055696
-0.4  0.96  0.0319342184359
-0.4  0.98  0.0267562085121
-0.38  -1  0.0251630619742
-0.38  -0.98  0.0300327573408
-0.38  -0.96  0.0358448631734
-0.38  -0.94  0.0427817599743
-0.38  -0.92  0.0510611235324
-0.38  -0.9  0.060942755463
-0.38  -0.88  0.0727367356315
-0.38  -0.86  0.0868131522792
-0.38  -0.84  0.103613715177
-0.38  -0.82  0.123665616223
-0.38  -0.8  0.147598072414
-0.38  -0.78  0.176162070312
-0.38  -0.76  0.210253931566
-0.38  -0.74  0.250943438964
-0.38  -0.72  0.299507405592
-0.38  -0.7  0.357469740492
-0.38  -0.68  0.426649268036
-0.38  -0.66  0.509216801583
-0.38  -0.64  0.607763262335
-0.38  -0.62  0.725380980941
-0.38  -0.6  0.865760733035
-0.38  -0.58  1.03330755363
-0.38  -0.56  1.23327896455
-0.38  -0.54  1.47194995243
-0.38  -0.52  1.7568098741
-0.38  -0.5  2.09679746832
-0.38  -0.48  2.50258134814
-0.38  -0.46  2.98689477581
-0.38  -0.44  3.56493522514
-0.38  -0.42  4.25484126939
-0.38  -0.4  5.07826175917
-0.38  -0.38  6.06103515074
-0.38  -0.36  7.23400030181
-0.38  -0.34  8.63396417692
-0.38  -0.32  10.3048568286
-0.38  -0.3  12.299109897
-0.38  -0.28  14.6793018839
-0.38  -0.26  17.5201218303
-0.38  -0.24  20.9107130145
-0.38  -0.22  24.9574702169
-0.38  -0.2  17.5189315009
-0.38  -0.18  16.6615534825
-0.38  -0.16  15.6956678937
-0.38  -0.14  14.6457252303
-0.38  -0.12  13.5428053774
-0.38  -0.1  12.4266772463
-0.38  -0.08  11.3484940905
-0.38  -0.06  10.3734424557
-0.38  -0.04  9.58088616877
-0.38  -0.02  9.05670160367
-0.38  6.17561557e-16  8.87242681032
-0.38  0.02  9.05670160367
-0.38  0.04  9.58088616877
-0.38  0.06  10.3734424557
-0.38  0.08  11.3484940905
-0.38  0.1  12.4266772463
-0.38  0.12  13.5428053774
-0.38  0.14  14.6457252303
-0.38  0.16  15.6956678937
-0.38  0.18  16.6615534825
-0.38  0.2  29.7873783259
-0.38  0.22  24.9574702169
-0.38  0.24  20.9107130145
-0.38  0.26  17.5201218303
-0.38  0.28  14.6793018839
-0.38  0.3  12.299109897
-0.38  0.32  10.3048568286
-0.38  0.34  8.63396417692
-0.38  0.36  7.23400030181
-0.38  0.38  6.06103515074
-0.38  0.4  5.07826175917
-0.38  0.42  4.25484126939
-0.38  0.44  3.56493522514
-0.38  0.46  2.98689477581
-0.38  0.48  2.50258134814
-0.38  0.5  2.09679746832
-0.38  0.52  1.7568098741
-0.38  0.54  1.47194995243
-0.38  0.56  1.23327896455
-0.38  0.58  1.03330755363
-0.38  0.6  0.865760733035
-0.38  0.62  0.725380980941
-0.38  0.64  0.607763262335
-0.38  0.66  0.509216801583
-0.38  0.68  0.426649268036
-0.38  0.7  0.357469740492
-0.38  0.72  0.299507405592
-0.38  0.74  0.250943438964
-0.38  0.76  0.210253931566
-0.38  0.78  0.176162070312
-0.38  0.8  0.147598072414
-0.38  0.82  0.123665616223
-0.38  0.84  0.103613715177
-0.38  0.86  0.0868131522792
-0.38  0.88  0.0727367356315
-0.38  0.9  0.060942755463
-0.38  0.92  0.0510611235324
-0.38  0.94  0.0427817599743
-0.38  0.96  0.0358448631734
-0.38  0.98  0.0300327573408
-0.36  -1  0.0282445150584
-0.36  -0.98  0.0337105503227
-0.36  -0.96  0.0402344030588
-0.36  -0.94  0.048020787973
-0.36  -0.92  0.0573140372974
-0.36  -0.9  0.0684057677931
-0.36  -0.88  0.081644031515
-0.36  -0.86  0.0974442374829
-0.36  -0.84  0.116302186975
-0.36  -0.82  0.138809631482
-0.36  -0.8  0.16567284153
-0.36  -0.78  0.197734769033
-0.36  -0.76  0.236001498636
-0.36  -0.74  0.28167381807
-0.36  -0.72  0.336184898165
-0.36  -0.7  0.401245264927
-0.36  -0.68  0.478896474842
-0.36  -0.66  0.571575177735
-0.36  -0.64  0.682189577426
-0.36  -0.62  0.81421068947
-0.36  -0.6  0.971781259617
-0.36  -0.58  1.15984576075
-0.36  -0.56  1.3843055476
-0.36  -0.54  1.65220403777
-0.36  -0.52  1.97194773015
-0.36  -0.5  2.35356999593
-0.36  -0.48  2.80904591996
-0.36  -0.46  3.35266807194
-0.36  -0.44  4.00149499897
-0.36  -0.42  4.77588651283
-0.36  -0.4  5.70014256905
-0.36  -0.38  6.80326578536
-0.36  -0.36  8.11987152699
-0.36  -0.34  9.69127411673
-0.36  -0.32  11.5667832543
-0.36  -0.3  13.8052513262
-0.36  -0.28  16.4769201591
-0.36  -0.26  19.6656251678
-0.36  -0.24  23.4714260619
-0.36  -0.22  28.013746661
-0.36  -0.2  19.6642890714
-0.36  -0.18  18.7019170685
-0.36  -0.16  17.6177497249
-0.36  -0.14  16.4392317291
-0.36  -0.12  15.2012489897
-0.36  -0.1  13.9484404946
-0.36  -0.08  12.738223693
-0.36  -0.06  11.6437678351
-0.36  -0.04  10.754155593
-0.36  -0.02  10.1657797086
-0.36  6.17561557e-16  9.95893873746
-0.36  0.02  10.1657797086
-0.36  0.04  10.754155593
-0.36  0.06  11.6437678351
-0.36  0.08  12.738223693
-0.36  0.1  13.9484404946
-0.36  0.12  15.2012489897
-0.36  0.14  16.4392317291
-0.36  0.16  17.6177497249
-0.36  0.18  18.7019170685
-0.36  0.2  33.4351223447
-0.36  0.22  28.013746661
-0.36  0.24  23.4714260619
-0.36  0.26  19.6656251678
-0.36  0.28  16.4769201591
-0.36  0.3  13.8052513262
-0.36  0.32  11.5667832543
-0.36  0.34  9.69127411673
-0.36  0.36  8.11987152699
-0.36  0.38  6.80326578536
-0.36  0.4  5.70014256905
-0.36  0.42  4.77588651283
-0.36  0.44  4.00149499897
-0.36  0.46  3.35266807194
-0.36  0.48  2.80904591996
-0.36  0.5  2.35356999593
-0.36  0.52  1.97194773015
-0.36  0.54  1.65220403777
-0.36  0.56  1.3843055476
-0.36  0.58  1.15984576075
-0.36  0.6  0.971781259617
-0.36  0.62  0.81421068947
-0.36  0.64  0.682189577425
-0.36  0.66  0.571575177735
-0.36  0.68  0.478896474842
-0.36  0.7  0.401245264927
-0.36  0.72  0.336184898165
-0.36  0.74  0.28167381807
-0.36  0.76  0.236001498636
-0.36  0.78  0.197734769033
-0.36  0.8  0.16567284153
-0.36  0.82  0.138809631482
-0.36  0.84  0.116302186975
-0.36  0.86  0.0974442374829
-0.36  0.88  0.081644031515
-0.36  0.9  0.0684057677931
-0.36  0.92  0.0573140372974
-0.36  0.94  0.048020787973
-0.36  0.96  0.0402344030588
-0.36  0.98  0.0337105503227
-0.34  -1  0.0317033209909
-0.34  -0.98  0.0378387235699
-0.34  -0.96  0.0451614832974
-0.34  -0.94  0.0539013841164
-0.34  -0.92  0.064332679034
-0.34  -0.9  0.0767826960204
-0.34  -0.88  0.091642109371
-0.34  -0.86  0.109377198838
-0.34  -0.84  0.13054448122
-0.34  -0.82  0.155808173531
-0.34  -0.8  0.18596103575
-0.34  -0.78  0.221949247163
-0.34  -0.76  0.264902096925
-0.34  -0.74  0.316167420489
-0.34  -0.72  0.377353893908
-0.34  -0.7  0.450381513146
-0.34  -0.68  0.53754184244
-0.34  -0.66  0.641569922256
-0.34  -0.64  0.765730093261
-0.34  -0.62  0.913918429441
-0.34  -0.6  1.09078499464
-0.34  -0.58  1.30187975885
-0.34  -0.56  1.55382675306
-0.34  -0.54  1.85453192747
-0.34  -0.52  2.21343123566
-0.34  -0.5  2.64178672926
-0.34  -0.48  3.15303995464
-0.34  -0.46  3.76323374081
-0.34  -0.44  4.49151561404
-0.34  -0.42  5.36073863614
-0.34  -0.4  6.39817852022
-0.34  -0.38  7.63638952674
-0.34  -0.36  9.11422599725
-0.34  -0.34  10.8780615811
-0.34  -0.32  12.9832444135
-0.34  -0.3  15.4958339079
-0.34  -0.28  18.4946736619
-0.34  -0.26  22.0738655237
-0.34  -0.24  26.3457224533
-0.34  -0.22  31.4442928375
-0.34  -0.2  22.0723658098
-0.34  -0.18  20.9921423236
-0.34  -0.16  19.7752085143
-0.34  -0.14  18.45236993
-0.34  -0.12  17.0627845862
-0.34  -0.1  15.6565579338
-0.34  -0.08  14.2981387274
-0.34  -0.06  13.0696564787
-0.34  -0.04  12.0711028688
-0.34  -0.02  11.4106748357
-0.34  6.17561557e-16  11.1785042466
-0.34  0.02  11.4106748357
-0.34  0.04  12.0711028688
-0.34  0.06  13.0696564787
-0.34  0.08  14.2981387274
-0.34  0.1  15.6565579338
-0.34  0.12  17.0627845862
-0.34  0.14  18.45236993
-0.34  0.16  19.7752085143
-0.34  0.18  20.9921423236
-0.34  0.2  37.5295668512
-0.34  0.22  31.4442928375
-0.34  0.24  26.3457224533
-0.34  0.26  22.0738655237
-0.34  0.28  18.4946736619
-0.34  0.3  15.4958339079
-0.34  0.32  12.9832444135
-0.34  0.34  10.8780615811
-0.34  0.36  9.11422599725
-0.34  0.38  7.63638952674
-0.34  0.4  6.39817852022
-0.34  0.42  5.36073863614
-0.34  0.44  4.49151561404
-0.34  0.46  3.76323374081
-0.34  0.48  3.15303995464
-0.34  0.5  2.64178672926
-0.34  0.52  2.21343123566
-0.34  0.54  1.85453192747
-0.34  0.56  1.55382675306
-0.34  0.58  1.30187975885
-0.34  0.6  1.09078499464
-0.34  0.62  0.913918429441
-0.34  0.64  0.765730093261
-0.34  0.66  0.641569922256
-0.34  0.68  0.53754184244
-0.34  0.7  0.450381513146
-0.34  0.72  0.377353893908
-0.34  0.74  0.316167420489
-0.34  0.76  0.264902096925
-0.34  0.78  0.221949247163
-0.34  0.8  0.18596103575
-0.34  0.82  0.155808173531
-0.34  0.84  0.13054448122
-0.34  0.86  0.109377198838
-0.34  0.88  0.091642109371
-0.34  0.9  0.0767826960204
-0.34  0.92  0.064332679034
-0.34  0.94  0.0539013841164
-0.34  0.96  0.0451614832974
-0.34  0.98  0.0378387235699
-0.32  -1  0.0355856901693
-0.32  -0.98  0.0424724303725
-0.32  -0.96  0.0506919307498
-0.32  -0.94  0.0605021144447
-0.32  -0.92  0.0722108193185
-0.32  -0.9  0.0861854577233
-0.32  -0.88  0.102864545688
-0.32  -0.86  0.122771463298
-0.32  -0.84  0.146530878053
-0.32  -0.82  0.174888346578
-0.32  -0.8  0.208733709748
-0.32  -0.78  0.249129015384
-0.32  -0.76  0.297341844695
-0.32  -0.74  0.354885088235
-0.32  -0.72  0.423564419534
-0.32  -0.7  0.505534956083
-0.32  -0.68  0.603368885665
-0.32  -0.66  0.720136180116
-0.32  -0.64  0.859500929254
-0.32  -0.62  1.02583631789
-0.32  -0.6  1.22436185382
-0.32  -0.58  1.46130715295
-0.32  -0.56  1.74410742102
-0.32  -0.54  2.08163676604
-0.32  -0.52  2.48448666264
-0.32  -0.5  2.96529830638
-0.32  -0.48  3.53915928712
-0.32  -0.46  4.22407702883
-0.32  -0.44  5.04154385208
-0.32  -0.42  6.01721139054
-0.32  -0.4  7.18169552439
-0.32  -0.38  8.57153708878
-0.32  -0.36  10.230348504
-0.32  -0.34  12.210182308
-0.32  -0.32  14.5731645345
-0.32  -0.3  17.3934441922
-0.32  -0.28  20.759520017
-0.32  -0.26  24.7770175116
-0.32  -0.24  29.5720034119
-0.32  -0.22  35.2949415877
-0.32  -0.2  24.7753341436
-0.32  -0.18  23.5628271541
-0.32  -0.16  22.1968683794
-0.32  -0.14  20.7120357961
-0.32  -0.12  19.1522826862
-0.32  -0.1  17.5738503834
-0.32  -0.08  16.0490799969
-0.32  -0.06  14.670158568
-0.32  -0.04  13.5493226976
-0.32  -0.02  12.808019054
-0.32  6.17561557e-16  12.5474169974
-0.32  0.02  12.808019054
-0.32  0.04  13.5493226976
-0.32  0.06  14.670158568
-0.32  0.08  16.0490799969
-0.32  0.1  17.5738503834
-0.32  0.12  19.1522826862
-0.32  0.14  20.7120357961
-0.32  0.16  22.1968683794
-0.32  0.18  23.5628271541
-0.32  0.2  42.1254145122
-0.32  0.22  35.2949415877
-0.32  0.24  29.5720034119
-0.32  0.26  24.7770175116
-0.32  0.28  20.759520017
-0.32  0.3  17.3934441922
-0.32  0.32  14.5731645345
-0.32  0.34  12.210182308
-0.32  0.36  10.230348504
-0.32  0.38  8.57153708878
-0.32  0.4  7.18169552439
-0.32  0.42  6.01721139054
-0.32  0.44  5.04154385208
-0.32  0.46  4.22407702883
-0.32  0.48  3.53915928712
-0.32  0.5  2.96529830638
-0.32  0.52  2.48448666264
-0.32  0.54  2.08163676604
-0.32  0.56  1.74410742102
-0.32  0.58  1.46130715295
-0.32  0.6  1.22436185382
-0.32  0.62  1.02583631789
-0.32  0.64  0.859500929254
-0.32  0.66  0.720136180116
-0.32  0.68  0.603368885665
-0.32  0.7  0.505534956083
-0.32  0.72  0.423564419534
-0.32  0.74  0.354885088235
-0.32  0.76  0.297341844695
-0.32  0.78  0.249129015384
-0.32  0.8  0.208733709748
-0.32  0.82  0.174888346578
-0.32  0.84  0.146530878053
-0.32  0.86  0.122771463298
-0.32  0.88  0.102864545688
-0.32  0.9  0.0861854577233
-0.32  0.92  0.0722108193185
-0.32  0.94  0.0605021144447
-0.32  0.96  0.0506919307498
-0.32  0.98  0.0424724303725
-0.3  -1  0.0399434918882
-0.3  -0.98  0.0476735780586
-0.3  -0.96  0.0568996333938
-0.3  -0.94  0.0679111661468
-0.3  -0.92  0.081053711814
-0.3  -0.9  0.096739675838
-0.3  -0.88  0.115461274651
-0.3  -0.86  0.13780598114
-0.3  -0.84  0.164474959205
-0.3  -0.82  0.196305065874
-0.3  -0.8  0.23429511139
-0.3  -0.78  0.279637201296
-0.3  -0.76  0.333754144013
-0.3  -0.74  0.398344097745
-0.3  -0.72  0.47543385769
-0.3  -0.7  0.5674424557
-0.3  -0.68  0.677257068093
-0.3  -0.66  0.808323613564
-0.3  -0.64  0.964754884118
-0.3  -0.62  1.15145960208
-0.3  -0.6  1.37429645297
-0.3  -0.58  1.64025792762
-0.3  -0.56  1.95768974248
-0.3  -0.54  2.33655272338
-0.3  -0.52  2.7887353704
-0.3  -0.5  3.32842691214
-0.3  -0.48  3.97256255544
-0.3  -0.46  4.7413549023
-0.3  -0.44  5.65892820966
-0.3  -0.42  6.75407539446
-0.3  -0.4  8.06116153872
-0.3  -0.38  9.62120224578
-0.3  -0.36  11.4831506861
-0.3  -0.34  13.7054337193
-0.3  -0.32  16.3577852952
-0.3  -0.3  19.5234346641
-0.3  -0.28  23.301718063
-0.3  -0.26  27.8111958284
-0.3  -0.24  33.1933727512
-0.3  -0.22  39.6171384142
-0.3  -0.2  27.8093063162
-0.3  -0.18  26.4483164669
-0.3  -0.16  24.9150832213
-0.3  -0.14  23.2484189536
-0.3  -0.12  21.4976594378
-0.3  -0.1  19.7259332864
-0.3  -0.08  18.0144404568
-0.3  -0.06  16.4666571583
-0.3  -0.04  15.208564417
-0.3  -0.02  14.3764811854
-0.3  6.17561557e-16  14.0839659613
-0.3  0.02  14.3764811854
-0.3  0.04  15.208564417
-0.3  0.06  16.4666571583
-0.3  0.08  18.0144404568
-0.3  0.1  19.7259332864
-0.3  0.12  21.4976594378
-0.3  0.14  23.2484189536
-0.3  0.16  24.9150832213
-0.3  0.18  26.4483164669
-0.3  0.2  47.2840668496
-0.3  0.22  39.6171384142
-0.3  0.24  33.1933727512
-0.3  0.26  27.8111958284
-0.3  0.28  23.301718063
-0.3  0.3  19.5234346641
-0.3  0.32  16.3577852952
-0.3  0.34  13.7054337193
-0.3  0.36  11.4831506861
-0.3  0.38  9.62120224578
-0.3  0.4  8.06116153872
-0.3  0.42  6.75407539446
-0.3  0.44  5.65892820966
-0.3  0.46  4.7413549023
-0.3  0.48  3.97256255544
-0.3  0.5  3.32842691214
-0.3  0.52  2.7887353704
-0.3  0.54  2.33655272338
-0.3  0.56  1.95768974248
-0.3  0.58  1.64025792762
-0.3  0.6  1.37429645297
-0.3  0.62  1.15145960208
-0.3  0.64  0.964754884118
-0.3  0.66  0.808323613564
-0.3  0.68  0.677257068093
-0.3  0.7  0.5674424557
-0.3  0.72  0.47543385769
-0.3  0.74  0.398344097745
-0.3  0.76  0.333754144013
-0.3  0.78  0.279637201296
-0.3  0.8  0.23429511139
-0.3  0.82  0.196305065874
-0.3  0.84  0.164474959205
-0.3  0.86  0.13780598114
-0.3  0.88  0.115461274651
-0.3  0.9  0.096739675838
-0.3  0.92  0.081053711814
-0.3  0.94  0.0679111661468
-0.3  0.96  0.0568996333938
-0.3  0.98  0.0476735780586
-0.28  -1  0.0448349473238
-0.28  -0.98  0.0535116550895
-0.28  -0.96  0.0638675274834
-0.28  -0.94  0.0762275257609
-0.28  -0.92  0.0909794994826
-0.28  -0.9  0.108586357008
-0.28  -0.88  0.12960059129
-0.28  -0.86  0.154681616785
-0.28  -0.84  0.184616461492
-0.28  -0.82  0.220344463436
-0.28  -0.8  0.262986746546
-0.28  -0.78  0.313881400879
-0.28  -0.76  0.374625471098
-0.28  -0.74  0.447125070816
-0.28  -0.72  0.533655195323
-0.28  -0.7  0.636931109624
-0.28  -0.68  0.76019355187
-0.28  -0.66  0.907310425843
-0.28  -0.64  1.08289817352
-0.28  -0.62  1.29246663635
-0.28  -0.6  1.54259195087
-0.28  -0.58  1.84112290403
-0.28  -0.56  2.19742722359
-0.28  -0.54  2.62268553198
-0.28  -0.52  3.13024218769
-0.28  -0.5  3.73602402351
-0.28  -0.48  4.45904012128
-0.28  -0.46  5.32197830583
-0.28  -0.44  6.35191707573
-0.28  -0.42  7.58117531084
-0.28  -0.4  9.04832641995
-0.28  -0.38  10.799408752
-0.28  -0.36  12.8893702525
-0.28  -0.34  15.3837926984
-0.28  -0.32  18.3609496159
-0.28  -0.3  21.9142624584
-0.28  -0.28  26.1552321172
-0.28  -0.26  31.2169377547
-0.28  -0.24  37.2582127513
-0.28  -0.22  44.4686288042
-0.28  -0.2  31.214816854
-0.28  -0.18  29.6871610253
-0.28  -0.16  27.9661689799
-0.28  -0.14  26.0954060317
-0.28  -0.12  24.130249583
-0.28  -0.1  22.1415589374
-0.28  -0.08  20.2204777491
-0.28  -0.06  18.4831538604
-0.28  -0.04  17.0709958562
-0.28  -0.02  16.1370162241
-0.28  6.17561557e-16  15.8086797657
-0.28  0.02  16.1370162241
-0.28  0.04  17.0709958562
-0.28  0.06  18.4831538604
-0.28  0.08  20.2204777491
-0.28  0.1  22.1415589374
-0.28  0.12  24.130249583
-0.28  0.14  26.0954060317
-0.28  0.16  27.9661689799
-0.28  0.18  29.6871610253
-0.28  0.2  53.0744445776
-0.28  0.22  44.4686288042
-0.28  0.24  37.2582127513
-0.28  0.26  31.2169377547
-0.28  0.28  26.1552321172
-0.28  0.3  21.9142624584
-0.28  0.32  18.3609496159
-0.28  0.34  15.3837926984
-0.28  0.36  12.8893702525
-0.28  0.38  10.799408752
-0.28  0.4  9.04832641995
-0.28  0.42  7.58117531084
-0.28  0.44  6.35191707573
-0.28  0.46  5.32197830583
-0.28  0.48  4.45904012128
-0.28  0.5  3.73602402351
-0.28  0.52  3.13024218769
-0.28  0.54  2.62268553198
-0.28  0.56  2.19742722359
-0.28  0.58  1.84112290403
-0.28  0.6  1.54259195087
-0.28  0.62  1.29246663635
-0.28  0.64  1.08289817352
-0.28  0.66  0.907310425843
-0.28  0.68  0.76019355187
-0.28  0.7  0.636931109624
-0.28  0.72  0.533655195323
-0.28  0.74  0.447125070816
-0.28  0.76  0.374625471098
-0.28  0.78  0.313881400879
-0.28  0.8  0.262986746546
-0.28  0.82  0.220344463436
-0.28  0.84  0.184616461492
-0.28  0.86  0.154681616785
-0.28  0.88  0.12960059129
-0.28  0.9  0.108586357008
-0.28  0.92  0.0909794994826
-0.28  0.94  0.0762275257609
-0.28  0.96  0.0638675274834
-0.28  0.98  0.0535116550895
-0.26  -1  0.0503254073818
-0.26  -0.98  0.0600646594409
-0.26  -0.96  0.0716887055952
-0.26  -0.94  0.0855623016555
-0.26  -0.92  0.102120793001
-0.26  -0.9  0.121883775464
-0.26  -0.88  0.145471399944
-0.26  -0.86  0.173623832387
-0.26  -0.84  0.207224479755
-0.26  -0.82  0.247327710829
-0.26  -0.8  0.295191941688
-0.26  -0.78  0.352319124069
-0.26  -0.76  0.420501875746
-0.26  -0.74  0.501879731829
-0.26  -0.72  0.599006282133
-0.26  -0.7  0.714929301344
-0.26  -0.68  0.853286386413
-0.26  -0.66  1.01841910224
-0.26  -0.64  1.21550921744
-0.26  -0.62  1.45074130526
-0.26  -0.6  1.73149681186
-0.26  -0.58  2.06658568183
-0.26  -0.56  2.46652280911
-0.26  -0.54  2.94385798824
-0.26  -0.52  3.51356971966
-0.26  -0.5  4.19353522629
-0.26  -0.48  5.00509143046
-0.26  -0.46  5.97370449404
-0.26  -0.44  7.12976893189
-0.26  -0.42  8.50956137398
-0.26  -0.4  10.156378905
-0.26  -0.38  12.1218977018
-0.26  -0.36  14.4677946015
-0.26  -0.34  17.2676824851
-0.26  -0.32  20.6094202066
-0.26  -0.3  24.5978695531
-0.26  -0.28  29.3581857464
-0.26  -0.26  35.0397447414
-0.26  -0.24  41.8208305562
-0.26  -0.22  49.9142297218
-0.26  -0.2  35.0373641165
-0.26  -0.18  33.3226324951
-0.26  -0.16  31.3908888229
-0.26  -0.14  29.2910333954
-0.26  -0.12  27.0852250972
-0.26  -0.1  24.8530006191
-0.26  -0.08  22.6966650107
-0.26  -0.06  20.7465895077
-0.26  -0.04  19.1614995033
-0.26  -0.02  18.1131453003
-0.26  6.17561557e-16  17.7446009612
-0.26  0.02  18.1131453003
-0.26  0.04  19.1614995033
-0.26  0.06  20.7465895077
-0.26  0.08  22.6966650107
-0.26  0.1  24.8530006191
-0.26  0.12  27.0852250972
-0.26  0.14  29.2910333954
-0.26  0.16  31.3908888229
-0.26  0.18  33.3226324951
-0.26  0.2  59.5739083988
-0.26  0.22  49.9142297218
-0.26  0.24  41.8208305562
-0.26  0.26  35.0397447414
-0.26  0.28  29.3581857464
-0.26  0.3  24.5978695531
-0.26  0.32  20.6094202066
-0.26  0.34  17.2676824851
-0.26  0.36  14.4677946015
-0.26  0.38  12.1218977018
-0.26  0.4  10.156378905
-0.26  0.42  8.50956137398
-0.26  0.44  7.12976893188
-0.26  0.46  5.97370449404
-0.26  0.48  5.00509143046
-0.26  0.5  4.19353522629
-0.26  0.52  3.51356971966
-0.26  0.54  2.94385798824
-0.26  0.56  2.46652280911
-0.26  0.58  2.06658568183
-0.26  0.6  1.73149681186
-0.26  0.62  1.45074130526
-0.26  0.64  1.21550921744
-0.26  0.66  1.01841910224
-0.26  0.68  0.853286386413
-0.26  0.7  0.714929301344
-0.26  0.72  0.599006282133
-0.26  0.74  0.501879731829
-0.26  0.76  0.420501875746
-0.26  0.78  0.352319124069
-0.26  0.8  0.295191941688
-0.26  0.82  0.247327710829
-0.26  0.84  0.207224479755
-0.26  0.86  0.173623832387
-0.26  0.88  0.145471399944
-0.26  0.9  0.121883775464
-0.26  0.92  0.102120793001
-0.26  0.94  0.0855623016555
-0.26  0.96  0.0716887055952
-0.26  0.98  0.0600646594409
-0.24  -1  0.0564882257997
-0.24  -0.98  0.0674201406725
-0.24  -0.96  0.0804676603655
-0.24  -0.94  0.0960402084616
-0.24  -0.92  0.114626442467
-0.24  -0.9  0.1368095876
-0.24  -0.88  0.163285738059
-0.24  -0.86  0.194885700053
-0.24  -0.84  0.23260106202
-0.24  -0.82  0.277615310093
-0.24  -0.8  0.331340965207
-0.24  -0.78  0.395463907187
-0.24  -0.76  0.471996276675
-0.24  -0.74  0.563339614934
-0.24  -0.72  0.672360222818
-0.24  -0.7  0.802479103622
-0.24  -0.68  0.957779312184
-0.24  -0.66  1.14313407877
-0.24  -0.64  1.36435972819
-0.24  -0.62  1.62839819272
-0.24  -0.6  1.94353484589
-0.24  -0.58  2.31965849266
-0.24  -0.56  2.76857167442
-0.24  -0.54  3.30436102584
-0.24  -0.52  3.94383930529
-0.24  -0.5  4.70707296942
-0.24  -0.48  5.61801184692
-0.24  -0.46  6.70524067019
-0.24  -0.44  8.00287604766
-0.24  -0.42  9.5516370231
-0.24  -0.4  11.4001228156
-0.24  -0.38  13.6063378346
-0.24  -0.36  16.239511825
-0.24  -0.34  19.3822722557
-0.24  -0.32  23.1332371222
-0.24  -0.3  27.6101095212
-0.24  -0.28  32.9533711061
-0.24  -0.26  39.3306903191
-0.24  -0.24  46.9421837298
-0.24  -0.22  56.0266955765
-0.24  -0.2  39.3280181644
-0.24  -0.18  37.4033015638
-0.24  -0.16  35.2349977504
-0.24  -0.14  32.8779953194
-0.24  -0.12  30.4020650945
-0.24  -0.1  27.8964837805
-0.24  -0.08  25.4760846405
-0.24  -0.06  23.2872040915
-0.24  -0.04  21.5080049406
-0.24  -0.02  20.331269927
-0.24  6.17561557e-16  19.917593875
-0.24  0.02  20.331269927
-0.24  0.04  21.5080049406
-0.24  0.06  23.2872040915
-0.24  0.08  25.4760846405
-0.24  0.1  27.8964837805
-0.24  0.12  30.4020650945
-0.24  0.14  32.8779953194
-0.24  0.16  35.2349977504
-0.24  0.18  37.4033015638
-0.24  0.2  66.8692925598
-0.24  0.22  56.0266955765
-0.24  0.24  46.9421837298
-0.24  0.26  39.3306903191
-0.24  0.28  32.9533711061
-0.24  0.3  27.6101095212
-0.24  0.32  23.1332371222
-0.24  0.34  19.3822722557
-0.24  0.36  16.239511825
-0.24  0.38  13.6063378346
-0.24  0.4  11.4001228156
-0.24  0.42  9.5516370231
-0.24  0.44  8.00287604766
-0.24  0.46  6.70524067019
-0.24  0.48  5.61801184692
-0.24  0.5  4.70707296942
-0.24  0.52  3.94383930529
-0.24  0.54  3.30436102584
-0.24  0.56  2.76857167442
-0.24  0.58  2.31965849266
-0.24  0.6  1.94353484589
-0.24  0.62  1.62839819272
-0.24  0.64  1.36435972819
-0.24  0.66  1.14313407877
-0.24  0.68  0.957779312184
-0.24  0.7  0.802479103622
-0.24  0.72  0.672360222818
-0.24  0.74  0.563339614934
-0.24  0.76  0.471996276675
-0.24  0.78  0.395463907187
-0.24  0.8  0.331340965207
-0.24  0.82  0.277615310093
-0.24  0.84  0.23260106202
-0.24  0.86  0.194885700053
-0.24  0.88  0.163285738059
-0.24  0.9  0.1368095876
-0.24  0.92  0.114626442467
-0.24  0.94  0.0960402084616
-0.24  0.96  0.0804676603655
-0.24  0.98  0.0674201406725
-0.22  -1  0.0634057391686
-0.22  -0.98  0.0756763696092
-0.22  -0.96  0.0903216805344
-0.22  -0.94  0.107801233287
-0.22  -0.92  0.128663526071
-0.22  -0.9  0.153563205506
-0.22  -0.88  0.183281609056
-0.22  -0.86  0.21875128295
-0.22  -0.84  0.261085244934
-0.22  -0.82  0.311611910124
-0.22  -0.8  0.3719167759
-0.22  -0.78  0.443892173894
-0.22  -0.76  0.529796650252
-0.22  -0.74  0.632325837502
-0.22  -0.72  0.754697041936
-0.22  -0.7  0.90075020081
-0.22  -0.68  1.07506837734
-0.22  -0.66  1.28312157457
-0.22  -0.64  1.53143838088
-0.22  -0.62  1.82781083329
-0.22  -0.6  2.18153892707
-0.22  -0.58  2.60372244417
-0.22  -0.56  3.10760925791
-0.22  -0.54  3.70901104358
-0.22  -0.52  4.42679943959
-0.22  -0.5  5.28349822854
-0.22  -0.48  6.30599012039
-0.22  -0.46  7.52636031628
-0.22  -0.44  8.98290332352
-0.22  -0.42  10.7213246149
-0.22  -0.4  12.79617484
-0.22  -0.38  15.2725615926
-0.22  -0.36  18.2281924494
-0.22  -0.34  21.7558133884
-0.22  -0.32  25.9661191041
-0.22  -0.3  30.991226542
-0.22  -0.28  36.9888206523
-0.22  -0.26  44.1471024516
-0.22  -0.24  52.6906946613
-0.22  -0.22  62.8876902382
-0.22  -0.2  44.1441030665
-0.22  -0.18  41.9836868555
-0.22  -0.16  39.5498538914
-0.22  -0.14  36.9042143933
-0.22  -0.12  34.1250832767
-0.22  -0.1  31.3126700169
-0.22  -0.08  28.5958702877
-0.22  -0.06  26.1389407737
-0.22  -0.04  24.1418619897
-0.22  -0.02  22.8210247305
-0.22  6.17561557e-16  22.3566901637
-0.22  0.02  22.8210247305
-0.22  0.04  24.1418619897
-0.22  0.06  26.1389407737
-0.22  0.08  28.5958702877
-0.22  0.1  31.3126700169
-0.22  0.12  34.1250832767
-0.22  0.14  36.9042143933
-0.22  0.16  39.5498538914
-0.22  0.18  41.9836868555
-0.22  0.2  75.0580649756
-0.22  0.22  62.8876902382
-0.22  0.24  52.6906946613
-0.22  0.26  44.1471024516
-0.22  0.28  36.9888206523
-0.22  0.3  30.991226542
-0.22  0.32  25.9661191041
-0.22  0.34  21.7558133884
-0.22  0.36  18.2281924494
-0.22  0.38  15.2725615926
-0.22  0.4  12.79617484
-0.22  0.42  10.7213246149
-0.22  0.44  8.98290332352
-0.22  0.46  7.52636031628
-0.22  0.48  6.30599012039
-0.22  0.5  5.28349822854
-0.22  0.52  4.42679943959
-0.22  0.54  3.70901104358
-0.22  0.56  3.10760925791
-0.22  0.58  2.60372244417
-0.22  0.6  2.18153892707
-0.22  0.62  1.82781083329
-0.22  0.64  1.53143838088
-0.22  0.66  1.28312157457
-0.22  0.68  1.07506837734
-0.22  0.7  0.90075020081
-0.22  0.72  0.754697041936
-0.22  0.74  0.632325837502
-0.22  0.76  0.529796650252
-0.22  0.78  0.443892173894
-0.22  0.8  0.3719167759
-0.22  0.82  0.311611910124
-0.22  0.84  0.261085244934
-0.22  0.86  0.21875128295
-0.22  0.88  0.183281609056
-0.22  0.9  0.153563205506
-0.22  0.92  0.128663526071
-0.22  0.94  0.107801233287
-0.22  0.96  0.0903216805344
-0.22  0.98  0.0756763696092
-0.2  -1  0.0711703669675
-0.2  -0.98  0.0849436512607
-0.2  -0.96  0.101382417949
-0.2  -0.94  0.121002505975
-0.2  -0.92  0.144419582295
-0.2  -0.9  0.17236846115
-0.2  -0.88  0.205726162111
-0.2  -0.86  0.245539430442
-0.2  -0.84  0.293057583357
-0.2  -0.82  0.349771712873
-0.2  -0.8  0.417461475401
-0.2  -0.78  0.49825093634
-0.2  -0.76  0.594675222008
-0.2  -0.74  0.709760070432
-0.2  -0.72  0.847116777255
-0.2  -0.7  1.01105551608
-0.2  -0.68  1.20672058924
-0.2  -0.66  1.44025185297
-0.2  -0.64  1.71897738256
-0.2  -0.62  2.05164342311
-0.2  -0.6  2.44868884157
-0.2  -0.58  2.92257269236
-0.2  -0.56  3.48816517522
-0.2  -0.54  4.16321425346
-0.2  -0.52  4.96890257473
-0.2  -0.5  5.93051217017
-0.2  -0.48  7.07821778986
-0.2  -0.46  8.44803376893
-0.2  -0.44  10.0829441365
-0.2  -0.42  12.0342514294
-0.2  -0.4  14.3631865362
-0.2  -0.38  17.1428300865
-0.2  -0.36  20.4604056792
-0.2  -0.34  24.4200169075
-0.2  -0.32  29.1459140701
-0.2  -0.3  34.7863930725
-0.2  -0.28  41.5184488667
-0.2  -0.26  49.5533294499
-0.2  -0.24  59.1431647039
-0.2  -0.22  70.588878084
-0.2  -0.2  49.5499627619
-0.2  -0.18  47.1249833112
-0.2  -0.16  44.3931046602
-0.2  -0.14  41.4234817772
-0.2  -0.12  38.3040199743
-0.2  -0.1  35.1472003175
-0.2  -0.08  32.0977029653
-0.2  -0.06  29.339899375
-0.2  -0.04  27.0982595522
-0.2  -0.02  25.6156733751
-0.2  6.17561557e-16  25.0944766829
-0.2  0.02  25.6156733751
-0.2  0.04  27.0982595522
-0.2  0.06  29.339899375
-0.2  0.08  32.0977029653
-0.2  0.1  35.1472003175
-0.2  0.12  38.3040199743
-0.2  0.14  41.4234817772
-0.2  0.16  44.3931046602
-0.2  0.18  47.1249833112
-0.2  0.2  84.2496294221
-0.2  0.22  70.588878084
-0.2  0.24  59.1431647039
-0.2  0.26  49.5533294499
-0.2  0.28  41.5184488667
-0.2  0.3  34.7863930725
-0.2  0.32  29.1459140701
-0.2  0.34  24.4200169075
-0.2  0.36  20.4604056792
-0.2  0.38  17.1428300865
-0.2  0.4  14.3631865362
-0.2  0.42  12.0342514294
-0.2  0.44  10.0829441365
-0.2  0.46  8.44803376893
-0.2  0.48  7.07821778986
-0.2  0.5  5.93051217017
-0.2  0.52  4.96890257473
-0.2  0.54  4.16321425346
-0.2  0.56  3.48816517522
-0.2  0.58  2.92257269236
-0.2  0.6  2.44868884157
-0.2  0.62  2.05164342311
-0.2  0.64  1.71897738256
-0.2  0.66  1.44025185297
-0.2  0.68  1.20672058924
-0.2  0.7  1.01105551608
-0.2  0.72  0.847116777255
-0.2  0.74  0.709760070432
-0.2  0.76  0.594675222008
-0.2  0.78  0.49825093634
-0.2  0.8  0.417461475401
-0.2  0.82  0.349771712873
-0.2  0.84  0.293057583357
-0.2  0.86  0.245539430442
-0.2  0.88  0.205726162111
-0.2  0.9  0.17236846115
-0.2  0.92  0.144419582295
-0.2  0.94  0.121002505975
-0.2  0.96  0.101382417949
-0.2  0.98  0.0849436512607
-0.18  -1  0.0798858463085
-0.18  -0.98  0.0953457985201
-0.18  -0.96  0.113797646461
-0.18  -0.94  0.135820398392
-0.18  -0.92  0.162105115467
-0.18  -0.9  0.193476596827
-0.18  -0.88  0.23091926132
-0.18  -0.86  0.27560803799
-0.18  -0.84  0.328945234669
-0.18  -0.82  0.392604541583
-0.18  -0.8  0.468583550775
-0.18  -0.78  0.559266439383
-0.18  -0.76  0.667498783734
-0.18  -0.74  0.796676851874
-0.18  -0.72  0.950854176485
-0.18  -0.7  1.13486875238
-0.18  -0.68  1.35449484999
-0.18  -0.66  1.61662420856
-0.18  -0.64  1.92948229498
-0.18  -0.62  2.30288641413
-0.18  -0.6  2.7485537702
-0.18  -0.58  3.28046914573
-0.18  -0.56  3.91532373598
-0.18  -0.54  4.67303890892
-0.18  -0.52  5.5773913262
-0.18  -0.5  6.65675904092
-0.18  -0.48  7.9450119845
-0.18  -0.46  9.48257478539
-0.18  -0.44  11.3176952704
-0.18  -0.42  13.5079584536
-0.18  -0.4  16.1220935203
-0.18  -0.38  19.2421305093
-0.18  -0.36  22.9659743674
-0.18  -0.34  27.4104771501
-0.18  -0.32  32.7151047709
-0.18  -0.3  39.0463133607
-0.18  -0.28  46.6027725646
-0.18  -0.26  55.6215996795
-0.18  -0.24  66.3858002571
-0.18  -0.22  79.2331486541
-0.18  -0.2  55.6178207089
-0.18  -0.18  52.895879767
-0.18  -0.16  49.8294569375
-0.18  -0.14  46.4961758638
-0.18  -0.12  42.9947066883
-0.18  -0.1  39.4513048389
-0.18  -0.08  36.0283679177
-0.18  -0.06  32.9328453969
-0.18  -0.04  30.4166957408
-0.18  -0.02  28.7525529728
-0.18  6.17561557e-16  28.1675308545
-0.18  0.02  28.7525529728
-0.18  0.04  30.4166957408
-0.18  0.06  32.9328453969
-0.18  0.08  36.0283679177
-0.18  0.1  39.4513048389
-0.18  0.12  42.9947066883
-0.18  0.14  46.4961758638
-0.18  0.16  49.8294569375
-0.18  0.18  52.895879767
-0.18  0.2  94.5667871943
-0.18  0.22  79.2331486541
-0.18  0.24  66.3858002571
-0.18  0.26  55.6215996795
-0.18  0.28  46.6027725646
-0.18  0.3  39.0463133607
-0.18  0.32  32.7151047709
-0.18  0.34  27.4104771501
-0.18  0.36  22.9659743674
-0.18  0.38  19.2421305093
-0.18  0.4  16.1220935203
-0.18  0.42  13.5079584536
-0.18  0.44  11.3176952704
-0.18  0.46  9.48257478539
-0.18  0.48  7.9450119845
-0.18  0.5  6.65675904092
-0.18  0.52  5.5773913262
-0.18  0.54  4.67303890892
-0.18  0.56  3.91532373598
-0.18  0.58  3.28046914573
-0.18  0.6  2.7485537702
-0.18  0.62  2.30288641413
-0.18  0.64  1.92948229498
-0.18  0.66  1.61662420856
-0.18  0.68  1.35449484999
-0.18  0.7  1.13486875238
-0.18  0.72  0.950854176485
-0.18  0.74  0.796676851874
-0.18  0.76  0.667498783734
-0.18  0.78  0.559266439383
-0.18  0.8  0.468583550775
-0.18  0.82  0.392604541583
-0.18  0.84  0.328945234669
-0.18  0.86  0.27560803799
-0.18  0.88  0.23091926132
-0.18  0.9  0.193476596827
-0.18  0.92  0.162105115467
-0.18  0.94  0.135820398392
-0.18  0.96  0.113797646461
-0.18  0.98  0.0953457985201
-0.16  -1  0.089668617886
-0.16  -0.98  0.107021786331
-0.16  -0.96  0.127733236216
-0.16  -0.94  0.152452880796
-0.16  -0.92  0.181956408149
-0.16  -0.9  0.21716962181
-0.16  -0.88  0.259197491954
-0.16  -0.86  0.309358828714
-0.16  -0.84  0.369227665675
-0.16  -0.82  0.440682652138
-0.16  -0.8  0.525966004038
-0.16  -0.78  0.62775386338
-0.16  -0.76  0.749240274014
-0.16  -0.74  0.894237408883
-0.16  -0.72  1.06729519379
-0.16  -0.7  1.27384408141
-0.16  -0.68  1.52036545576
-0.16  -0.66  1.81459501427
-0.16  -0.64  2.16576550943
-0.16  -0.62  2.58489646722
-0.16  -0.6  3.08513997345
-0.16  -0.58  3.68219337853
-0.16  -0.56  4.39479187121
-0.16  -0.54  5.24529637794
-0.16  -0.52  6.2603952357
-0.16  -0.5  7.47194165653
-0.16  -0.48  8.91795326279
-0.16  -0.46  10.6438050581
-0.16  -0.44  12.7036532684
-0.16  -0.42  15.1621347331
-0.16  -0.4  18.0963951714
-0.16  -0.38  21.5985099699
-0.16  -0.36  25.7783734553
-0.16  -0.34  30.7671473136
-0.16  -0.32  36.7213763684
-0.16  -0.3  43.8279008659
-0.16  -0.28  52.3097194137
-0.16  -0.26  62.4329865469
-0.16  -0.24  74.5153645031
-0.16  -0.22  88.9359912785
-0.16  -0.2  62.4287448059
-0.16  -0.18  59.3734766514
-0.16  -0.16  55.9315415693
-0.16  -0.14  52.1900689465
-0.16  -0.12  48.2598120105
-0.16  -0.1  44.2824873513
-0.16  -0.08  40.4403796812
-0.16  -0.06  36.9657813774
-0.16  -0.04  34.1415055829
-0.16  -0.02  32.2735729157
-0.16  6.17561557e-16  31.6169093487
-0.16  0.02  32.2735729157
-0.16  0.04  34.1415055829
-0.16  0.06  36.9657813774
-0.16  0.08  40.4403796812
-0.16  0.1  44.2824873513
-0.16  0.12  48.2598120105
-0.16  0.14  52.1900689465
-0.16  0.16  55.9315415693
-0.16  0.18  59.3734766514
-0.16  0.2  106.147377758
-0.16  0.22  88.9359912785
-0.16  0.24  74.5153645031
-0.16  0.26  62.4329865469
-0.16  0.28  52.3097194137
-0.16  0.3  43.8279008659
-0.16  0.32  36.7213763684
-0.16  0.34  30.7671473136
-0.16  0.36  25.7783734553
-0.16  0.38  21.5985099699
-0.16  0.4  18.0963951714
-0.16  0.42  15.1621347331
-0.16  0.44  12.7036532684
-0.16  0.46  10.6438050581
-0.16  0.48  8.91795326279
-0.16  0.5  7.47194165653
-0.16  0.52  6.2603952357
-0.16  0.54  5.24529637794
-0.16  0.56  4.39479187121
-0.16  0.58  3.68219337853
-0.16  0.6  3.08513997345
-0.16  0.62  2.58489646722
-0.16  0.64  2.16576550943
-0.16  0.66  1.81459501427
-0.16  0.68  1.52036545576
-0.16  0.7  1.27384408141
-0.16  0.72  1.06729519379
-0.16  0.74  0.894237408883
-0.16  0.76  0.749240274014
-0.16  0.78  0.62775386338
-0.16  0.8  0.525966004038
-0.16  0.82  0.440682652138
-0.16  0.84  0.369227665675
-0.16  0.86  0.309358828714
-0.16  0.88  0.259197491954
-0.16  0.9  0.21716962181
-0.16  0.92  0.181956408149
-0.16  0.94  0.152452880796
-0.16  0.96  0.127733236216
-0.16  0.98  0.107021786331
-0.14  -1  0.100649381651
-0.14  -0.98  0.120127608425
-0.14  -0.96  0.143375369716
-0.14  -0.94  0.17112216676
-0.14  -0.92  0.204238677915
-0.14  -0.9  0.243764080052
-0.14  -0.88  0.29093865731
-0.14  -0.86  0.3472427205
-0.14  -0.84  0.414443058393
-0.14  -0.82  0.494648378525
-0.14  -0.8  0.590375477216
-0.14  -0.78  0.704628215172
-0.14  -0.76  0.840991776891
-0.14  -0.74  1.00374517167
-0.14  -0.72  1.19799550641
-0.14  -0.7  1.4298382437
-0.14  -0.68  1.70654847385
-0.14  -0.66  2.03680920303
-0.14  -0.64  2.43098382091
-0.14  -0.62  2.90144129787
-0.14  -0.6  3.46294431602
-0.14  -0.58  4.13311251366
-0.14  -0.56  4.93297537922
-0.14  -0.54  5.88763214445
-0.14  -0.52  7.02703938364
-0.14  -0.5  8.38695103359
-0.14  -0.48  10.0100403313
-0.14  -0.46  11.9472388753
-0.14  -0.44  14.2593348299
-0.14  -0.42  17.0188804218
-0.14  -0.4  20.3124685876
-0.14  -0.38  24.2434502092
-0.14  -0.36  28.9351772047
-0.14  -0.34  34.5348732396
-0.14  -0.32  41.2182535203
-0.14  -0.3  49.1950386345
-0.14  -0.28  58.715535462
-0.14  -0.26  70.0784916585
-0.14  -0.24  83.6404701837
-0.14  -0.22  99.8270380397
-0.14  -0.2  70.0737304765
-0.14  -0.18  66.6443160639
-0.14  -0.16  62.7808837298
-0.14  -0.14  58.5812326721
-0.14  -0.12  54.1696788905
-0.14  -0.1  49.7052935011
-0.14  -0.08  45.3926836901
-0.14  -0.06  41.4925882163
-0.14  -0.04  38.3224533461
-0.14  -0.02  36.2257747939
-0.14  6.17561557e-16  35.4886966107
-0.14  0.02  36.2257747939
-0.14  0.04  38.3224533461
-0.14  0.06  41.4925882163
-0.14  0.08  45.3926836901
-0.14  0.1  49.7052935011
-0.14  0.12  54.1696788905
-0.14  0.14  58.5812326721
-0.14  0.16  62.7808837298
-0.14  0.18  66.6443160639
-0.14  0.2  119.146120316
-0.14  0.22  99.8270380397
-0.14  0.24  83.6404701837
-0.14  0.26  70.0784916585
-0.14  0.28  58.715535462
-0.14  0.3  49.1950386345
-0.14  0.32  41.2182535203
-0.14  0.34  34.5348732396
-0.14  0.36  28.9351772047
-0.14  0.38  24.2434502092
-0.14  0.4  20.3124685876
-0.14  0.42  17.0188804218
-0.14  0.44  14.2593348299
-0.14  0.46  11.9472388753
-0.14  0.48  10.0100403313
-0.14  0.5  8.38695103359
-0.14  0.52  7.02703938364
-0.14  0.54  5.88763214445
-0.14  0.56  4.93297537922
-0.14  0.58  4.13311251366
-0.14  0.6  3.46294431602
-0.14  0.62  2.90144129787
-0.14  0.64  2.43098382091
-0.14  0.66  2.03680920303
-0.14  0.68  1.70654847385
-0.14  0.7  1.4298382437
-0.14  0.72  1.19799550641
-0.14  0.74  1.00374517167
-0.14  0.76  0.840991776891
-0.14  0.78  0.704628215172
-0.14  0.8  0.590375477216
-0.14  0.82  0.494648378525
-0.14  0.84  0.414443058393
-0.14  0.86  0.3472427205
-0.14  0.88  0.29093865731
-0.14  0.9  0.243764080052
-0.14  0.92  0.204238677915
-0.14  0.94  0.17112216676
-0.14  0.96  0.143375369716
-0.14  0.98  0.120127608425
-0.12  -1  0.112974842988
-0.12  -0.98  0.134838361427
-0.12  -0.96  0.160933029259
-0.12  -0.94  0.192077681993
-0.12  -0.92  0.229249620725
-0.12  -0.9  0.273615279284
-0.12  -0.88  0.326566826242
-0.12  -0.86  0.389765850361
-0.12  -0.84  0.465195500277
-0.12  -0.82  0.555222714555
-0.12  -0.8  0.662672494841
-0.12  -0.78  0.790916552777
-0.12  -0.76  0.943979112346
-0.12  -0.74  1.12666318769
-0.12  -0.72  1.34470129888
-0.12  -0.7  1.60493535511
-0.12  -0.68  1.91553134976
-0.12  -0.66  2.28623560459
-0.12  -0.64  2.7286806036
-0.12  -0.62  3.25675001367
-0.12  -0.6  3.88701434588
-0.12  -0.58  4.63925092858
-0.12  -0.56  5.53706450843
-0.12  -0.54  6.60862795364
-0.12  -0.52  7.88756630215
-0.12  -0.5  9.41401189587
-0.12  -0.48  11.2358637101
-0.12  -0.46  13.4102903957
-0.12  -0.44  16.005524198
-0.12  -0.42  19.1030020449
-0.12  -0.4  22.7999209907
-0.12  -0.38  27.2122882025
-0.12  -0.36  32.4785611986
-0.12  -0.34  38.7639925639
-0.12  -0.32  46.2658154808
-0.12  -0.3  55.2194327913
-0.12  -0.28  65.9058038014
-0.12  -0.26  78.660260621
-0.12  -0.24  93.8830306904
-0.12  -0.22  112.051795685
-0.12  -0.2  78.6549163876
-0.12  -0.18  74.8055379965
-0.12  -0.16  70.4689921163
-0.12  -0.14  65.7550543745
-0.12  -0.12  60.8032644316
-0.12  -0.1  55.7921731549
-0.12  -0.08  50.9514438003
-0.12  -0.06  46.573745035
-0.12  -0.04  43.0153973993
-0.12  -0.02  40.661960882
-0.12  6.17561557e-16  39.834620558
-0.12  0.02  40.661960882
-0.12  0.04  43.0153973993
-0.12  0.06  46.573745035
-0.12  0.08  50.9514438003
-0.12  0.1  55.7921731549
-0.12  0.12  60.8032644316
-0.12  0.14  65.7550543745
-0.12  0.16  70.4689921163
-0.12  0.18  74.8055379965
-0.12  0.2  133.736680888
-0.12  0.22  112.051795685
-0.12  0.24  93.8830306904
-0.12  0.26  78.660260621
-0.12  0.28  65.9058038014
-0.12  0.3  55.2194327913
-0.12  0.32  46.2658154808
-0.12  0.34  38.7639925639
-0.12  0.36  32.4785611986
-0.12  0.38  27.2122882025
-0.12  0.4  22.7999209907
-0.12  0.42  19.1030020449
-0.12  0.44  16.005524198
-0.12  0.46  13.4102903957
-0.12  0.48  11.2358637101
-0.12  0.5  9.41401189587
-0.12  0.52  7.88756630215
-0.12  0.54  6.60862795364
-0.12  0.56  5.53706450843
-0.12  0.58  4.63925092858
-0.12  0.6  3.88701434588
-0.12  0.62  3.25675001367
-0.12  0.64  2.7286806036
-0.12  0.66  2.28623560459
-0.12  0.68  1.91553134976
-0.12  0.7  1.60493535511
-0.12  0.72  1.34470129888
-0.12  0.74  1.12666318769
-0.12  0.76  0.943979112346
-0.12  0.78  0.790916552777
-0.12  0.8  0.662672494841
-0.12  0.82  0.555222714555
-0.12  0.84  0.465195500277
-0.12  0.86  0.389765850361
-0.12  0.88  0.326566826242
-0.12  0.9  0.273615279284
-0.12  0.92  0.229249620725
-0.12  0.94  0.192077681993
-0.12  0.96  0.160933029259
-0.12  0.98  0.134838361427
-0.1  -1  0.126809672737
-0.1  -0.98  0.151350584188
-0.1  -0.96  0.180640788985
-0.1  -0.94  0.215599396726
-0.1  -0.92  0.2573233882
-0.1  -0.9  0.307122038003
-0.1  -0.88  0.366557998816
-0.1  -0.86  0.437496336536
-0.1  -0.84  0.522163054962
-0.1  -0.82  0.623214946498
-0.1  -0.8  0.743822960754
-0.1  -0.78  0.887771707103
-0.1  -0.76  1.05957821352
-0.1  -0.74  1.26463366831
-0.1  -0.72  1.50937259242
-0.1  -0.7  1.80147475102
-0.1  -0.68  2.15010614004
-0.1  -0.66  2.56620660978
-0.1  -0.64  3.0628331511
-0.1  -0.62  3.65556961615
-0.1  -0.6  4.36301573062
-0.1  -0.58  5.20737074232
-0.1  -0.56  6.21513002065
-0.1  -0.54  7.41791646592
-0.1  -0.52  8.85347281754
-0.1  -0.5  10.5668459993
-0.1  -0.48  12.6118006656
-0.1  -0.46  15.052506305
-0.1  -0.44  17.9655508415
-0.1  -0.42  21.4423439194
-0.1  -0.4  25.5919852842
-0.1  -0.38  30.5446882695
-0.1  -0.36  36.4558658158
-0.1  -0.34  43.5110072381
-0.1  -0.32  51.9314987728
-0.1  -0.3  61.9815705491
-0.1  -0.28  73.9765879767
-0.1  -0.26  88.2929477295
-0.1  -0.24  105.379888854
-0.1  -0.22  125.773589628
-0.1  -0.2  88.2869490445
-0.1  -0.18  83.9661781446
-0.1  -0.16  79.0985815245
-0.1  -0.14  73.8073778679
-0.1  -0.12  68.2491947759
-0.1  -0.1  62.6244483451
-0.1  -0.08  57.1909262528
-0.1  -0.06  52.2771371907
-0.1  -0.04  48.2830364934
-0.1  -0.02  45.6413995884
-0.1  6.17561557e-16  44.7127436775
-0.1  0.02  45.6413995884
-0.1  0.04  48.2830364934
-0.1  0.06  52.2771371907
-0.1  0.08  57.1909262528
-0.1  0.1  62.6244483451
-0.1  0.12  68.2491947759
-0.1  0.14  73.8073778679
-0.1  0.16  79.0985815245
-0.1  0.18  83.9661781446
-0.1  0.2  150.113992528
-0.1  0.22  125.773589628
-0.1  0.24  105.379888854
-0.1  0.26  88.2929477295
-0.1  0.28  73.9765879767
-0.1  0.3  61.9815705491
-0.1  0.32  51.9314987728
-0.1  0.34  43.5110072381
-0.1  0.36  36.4558658158
-0.1  0.38  30.5446882695
-0.1  0.4  25.5919852842
-0.1  0.42  21.4423439194
-0.1  0.44  17.9655508415
-0.1  0.46  15.052506305
-0.1  0.48  12.6118006656
-0.1  0.5  10.5668459993
-0.1  0.52  8.85347281754
-0.1  0.54  7.41791646592
-0.1  0.56  6.21513002065
-0.1  0.58  5.20737074232
-0.1  0.6  4.36301573062
-0.1  0.62  3.65556961615
-0.1  0.64  3.0628331511
-0.1  0.66  2.56620660978
-0.1  0.68  2.15010614004
-0.1  0.7  1.80147475102
-0.1  0.72  1.50937259242
-0.1  0.74  1.26463366831
-0.1  0.76  1.05957821352
-0.1  0.78  0.887771707103
-0.1  0.8  0.743822960754
-0.1  0.82  0.623214946497
-0.1  0.84  0.522163054962
-0.1  0.86  0.437496336536
-0.1  0.88  0.366557998816
-0.1  0.9  0.307122038003
-0.1  0.92  0.2573233882
-0.1  0.94  0.215599396726
-0.1  0.96  0.180640788985
-0.1  0.98  0.151350584188
-0.08  -1  0.142338707222
-0.08  -0.98  0.169884883587
-0.08  -0.96  0.202761948839
-0.08  -0.94  0.242001566171
-0.08  -0.92  0.288835051963
-0.08  -0.9  0.344732013775
-0.08  -0.88  0.411446465772
-0.08  -0.86  0.491071868675
-0.08  -0.84  0.586106821336
-0.08  -0.82  0.699533465322
-0.08  -0.8  0.834911062782
-0.08  -0.78  0.996487684025
-0.08  -0.76  1.18933350949
-0.08  -0.74  1.41949992908
-0.08  -0.72  1.69420943123
-0.08  -0.7  2.02208224041
-0.08  -0.68  2.41340681478
-0.08  -0.66  2.88046269199
-0.08  -0.64  3.43790581393
-0.08  -0.62  4.10322842172
-0.08  -0.6  4.89730795201
-0.08  -0.58  5.84506215883
-0.08  -0.56  6.97623101821
-0.08  -0.54  8.32630995138
-0.08  -0.52  9.93766365039
-0.08  -0.5  11.8608554576
-0.08  -0.48  14.1562340138
-0.08  -0.46  16.8958269638
-0.08  -0.44  20.1656011417
-0.08  -0.42  24.0681601603
-0.08  -0.4  28.7259640529
-0.08  -0.38  34.2851719979
-0.08  -0.36  40.9202287088
-0.08  -0.34  48.839338408
-0.08  -0.32  58.2909981541
-0.08  -0.3  69.5717955353
-0.08  -0.28  83.0357154155
-0.08  -0.26  99.1052477733
-0.08  -0.24  118.284645192
-0.08  -0.22  141.175746014
-0.08  -0.2  99.0985144931
-0.08  -0.18  94.2486246477
-0.08  -0.16  88.7849451411
-0.08  -0.14  82.8457839408
-0.08  -0.12  76.6069491679
-0.08  -0.1  70.2933997507
-0.08  -0.08  64.1944918867
-0.08  -0.06  58.6789632399
-0.08  -0.04  54.1957474292
-0.08  -0.02  51.2306172945
-0.08  6.17561557e-16  50.1882387522
-0.08  0.02  51.2306172945
-0.08  0.04  54.1957474292
-0.08  0.06  58.6789632399
-0.08  0.08  64.1944918867
-0.08  0.1  70.2933997507
-0.08  0.12  76.6069491679
-0.08  0.14  82.8457839408
-0.08  0.16  88.7849451411
-0.08  0.18  94.2486246477
-0.08  0.2  168.496859674
-0.08  0.22  141.175746014
-0.08  0.24  118.284645192
-0.08  0.26  99.1052477733
-0.08  0.28  83.0357154155
-0.08  0.3  69.5717955353
-0.08  0.32  58.2909981541
-0.08  0.34  48.839338408
-0.08  0.36  40.9202287088
-0.08  0.38  34.2851719979
-0.08  0.4  28.7259640529
-0.08  0.42  24.0681601603
-0.08  0.44  20.1656011417
-0.08  0.46  16.8958269638
-0.08  0.48  14.1562340138
-0.08  0.5  11.8608554576
-0.08  0.52  9.93766365039
-0.08  0.54  8.32630995138
-0.08  0.56  6.97623101821
-0.08  0.58  5.84506215883
-0.08  0.6  4.89730795201
-0.08  0.62  4.10322842172
-0.08  0.64  3.43790581393
-0.08  0.66  2.88046269199
-0.08  0.68  2.41340681478
-0.08  0.7  2.02208224041
-0.08  0.72  1.69420943123
-0.08  0.74  1.41949992908
-0.08  0.76  1.18933350949
-0.08  0.78  0.996487684025
-0.08  0.8  0.834911062782
-0.08  0.82  0.699533465322
-0.08  0.84  0.586106821336
-0.08  0.86  0.491071868675
-0.08  0.88  0.411446465772
-0.08  0.9  0.344732013775
-0.08  0.92  0.288835051963
-0.08  0.94  0.242001566171
-0.08  0.96  0.202761948839
-0.08  0.98  0.169884883587
-0.06  -1  0.159769417713
-0.06  -0.98  0.190688881885
-0.06  -0.96  0.227592052314
-0.06  -0.94  0.271636929037
-0.06  -0.92  0.324205614679
-0.06  -0.9  0.386947684036
-0.06  -0.88  0.461831946769
-0.06  -0.86  0.551208227509
-0.06  -0.84  0.657881101989
-0.06  -0.82  0.785197902995
-0.06  -0.8  0.93715375773
-0.06  -0.78  1.11851695258
-0.06  -0.76  1.33497855915
-0.06  -0.74  1.59333101684
-0.06  -0.72  1.90168127557
-0.06  -0.7  2.26970518719
-0.06  -0.68  2.70895112812
-0.06  -0.66  3.23320238062
-0.06  -0.64  3.85890964423
-0.06  -0.62  4.60570724914
-0.06  -0.6  5.49702927004
-0.06  -0.58  6.56084487377
-0.06  -0.56  7.83053597556
-0.06  -0.54  9.34594474405
-0.06  -0.52  11.1546238254
-0.06  -0.5  13.3133285178
-0.06  -0.48  15.8897977195
-0.06  -0.46  18.9648795362
-0.06  -0.44  22.6350682477
-0.06  -0.42  27.0155322421
-0.06  -0.4  32.243727933
-0.06  -0.38  38.4837130618
-0.06  -0.36  45.9312947344
-0.06  -0.34  54.820173734
-0.06  -0.32  65.4292779161
-0.06  -0.3  78.0915148024
-0.06  -0.28  93.2042180255
-0.06  -0.26  111.241615427
-0.06  -0.24  132.769710051
-0.06  -0.22  158.464040992
-0.06  -0.2  111.234057593
-0.06  -0.18  105.790253222
-0.06  -0.16  99.6574948852
-0.06  -0.14  92.9910276593
-0.06  -0.12  85.9881890194
-0.06  -0.1  78.9014862259
-0.06  -0.08  72.0557098581
-0.06  -0.06  65.8647529675
-0.06  -0.04  60.8325253075
-0.06  -0.02  57.5042871612
-0.06  6.17561557e-16  56.3342595842
-0.06  0.02  57.5042871612
-0.06  0.04  60.8325253075
-0.06  0.06  65.8647529675
-0.06  0.08  72.0557098581
-0.06  0.1  78.9014862259
-0.06  0.12  85.9881890194
-0.06  0.14  92.9910276593
-0.06  0.16  99.6574948852
-0.06  0.18  105.790253222
-0.06  0.2  189.130881417
-0.06  0.22  158.464040992
-0.06  0.24  132.769710051
-0.06  0.26  111.241615427
-0.06  0.28  93.2042180255
-0.06  0.3  78.0915148024
-0.06  0.32  65.4292779161
-0.06  0.34  54.820173734
-0.06  0.36  45.9312947344
-0.06  0.38  38.4837130618
-0.06  0.4  32.243727933
-0.06  0.42  27.0155322421
