-0.52  -0.66  0.0374764978768
-0.52  -0.64  0.0466502419853
-0.52  -0.62  0.0580695956289
-0.52  -0.6  0.0722842539072
-0.52  -0.58  0.0899784699091
-0.52  -0.56  0.112003992703
-0.52  -0.54  0.139421068108
-0.52  -0.52  0.1735494759
-0.52  -0.5  0.216032060247
-0.52  -0.48  0.268913811538
-0.52  -0.46  0.334740306383
-0.52  -0.44  0.416680244413
-0.52  -0.42  0.518677980431
-0.52  -0.4  0.645643394405
-0.52  -0.38  0.803688239074
-0.52  -0.36  1.00042034229
-0.52  -0.34  1.24530982613
-0.52  -0.32  1.55014497156
-0.52  -0.3  1.92959967267
-0.52  -0.28  2.401939796
-0.52  -0.26  2.98990244729
-0.52  -0.24  3.72179047085
-0.52  -0.22  4.63283486773
-0.52  -0.2  2.80029915916
-0.52  -0.18  2.59929291629
-0.52  -0.16  2.38916378244
-0.52  -0.14  2.17261901391
-0.52  -0.12  1.95313885054
-0.52  -0.1  1.73540472848
-0.52  -0.08  1.52601701127
-0.52  -0.06  1.33461562221
-0.52  -0.04  1.17524088978
-0.52  -0.02  1.06657409131
-0.52  6.17561557e-16  1.02750747309
-0.52  0.02  1.06657409131
-0.52  0.04  1.17524088978
-0.52  0.06  1.33461562221
-0.52  0.08  1.52601701127
-0.52  0.1  1.73540472848
-0.52  0.12  1.95313885054
-0.52  0.14  2.17261901391
-0.52  0.16  2.38916378244
-0.52  0.18  2.59929291629
-0.52  0.2  5.76689071557
-0.52  0.22  4.63283486773
-0.52  0.24  3.72179047085
-0.52  0.26  2.98990244729
-0.52  0.28  2.401939796
-0.52  0.3  1.92959967267
-0.52  0.32  1.55014497156
-0.52  0.34  1.24530982613
-0.52  0.36  1.00042034229
-0.52  0.38  0.803688239074
-0.52  0.4  0.645643394405
-0.52  0.42  0.518677980431
-0.52  0.44  0.416680244413
-0.52  0.46  0.334740306383
-0.52  0.48  0.268913811538
-0.52  0.5  0.216032060247
-0.52  0.52  0.1735494759
-0.52  0.54  0.139421068108
-0.52  0.56  0.112003992703
-0.52  0.58  0.0899784699091
-0.52  0.6  0.0722842539072
-0.52  0.62  0.0580695956289
-0.52  0.64  0.0466502419853
-0.52  0.66  0.0374764978768
-0.52  0.68  0.0301067654386
-0.52  0.7  0.0241862867805
-0.52  0.72  0.0194300669536
-0.52  0.74  0.0156091551071
-0.52  0.76  0.0125396234474
-0.52  0.78  0.0100737134794
-0.52  0.8  0.00809272333334
-0.52  0.82  0.00650129379639
-0.52  0.84  0.00522281799167
-0.52  0.86  0.00419575374201
-0.52  0.88  0.00337066110511
-0.52  0.9  0.00270782247579
-0.52  0.92  0.00217533069381
-0.52  0.94  0.00174755312424
-0.52  0.96  0.00140389777551
-0.52  0.98  0.00112782205973
-0.5  -1  0.0010535485894
-0.5  -0.98  0.00131144315567
-0.5  -0.96  0.00163246685331
-0.5  -0.94  0.00203207284711
-0.5  -0.92  0.00252949702934
-0.5  -0.9  0.00314868398077
-0.5  -0.88  0.00391943959442
-0.5  -0.86  0.00487886584621
-0.5  -0.84  0.00607314677823
-0.5  -0.82  0.00755977166673
-0.5  -0.8  0.00941030239182
-0.5  -0.78  0.0117138182222
-0.5  -0.76  0.014581203837
-0.5  -0.74  0.0181504869978
-0.5  -0.72  0.0225934828111
-0.5  -0.7  0.0281240644175
-0.5  -0.68  0.0350084582343
-0.5  -0.66  0.0435780593356
-0.5  -0.64  0.0542453838654
-0.5  -0.62  0.0675239263879
-0.5  -0.6  0.0840528780505
-0.5  -0.58  0.104627895422
-0.5  -0.56  0.130239401128
-0.5  -0.54  0.162120259972
-0.5  -0.52  0.20180512553
-0.5  -0.5  0.251204313989
-0.5  -0.48  0.312695761324
-0.5  -0.46  0.389239490348
-0.5  -0.44  0.48452009776
-0.5  -0.42  0.603124120125
-0.5  -0.4  0.750760816646
-0.5  -0.38  0.934536996622
-0.5  -0.36  1.16329912096
-0.5  -0.34  1.44805914556
-0.5  -0.32  1.80252460546
-0.5  -0.3  2.24375845646
-0.5  -0.28  2.79300043709
-0.5  -0.26  3.47668948907
-0.5  -0.24  4.32773645249
-0.5  -0.22  5.38710829975
-0.5  -0.2  3.25621682464
-0.5  -0.18  3.02248468651
-0.5  -0.16  2.77814435639
-0.5  -0.14  2.52634385991
-0.5  -0.12  2.27113005595
-0.5  -0.1  2.01794656687
-0.5  -0.08  1.77446836369
-0.5  -0.06  1.55190484891
-0.5  -0.04  1.36658226168
-0.5  -0.02  1.24022338452
-0.5  6.17561557e-16  1.19479631681
-0.5  0.02  1.24022338452
-0.5  0.04  1.36658226168
-0.5  0.06  1.55190484891
-0.5  0.08  1.77446836369
-0.5  0.1  2.01794656687
-0.5  0.12  2.27113005595
-0.5  0.14  2.52634385991
-0.5  0.16  2.77814435639
-0.5  0.18  3.02248468651
-0.5  0.2  6.70580016871
-0.5  0.22  5.38710829975
-0.5  0.24  4.32773645249
-0.5  0.26  3.47668948907
-0.5  0.28  2.79300043709
-0.5  0.3  2.24375845646
-0.5  0.32  1.80252460546
-0.5  0.34  1.44805914556
-0.5  0.36  1.16329912096
-0.5  0.38  0.934536996622
-0.5  0.4  0.750760816646
-0.5  0.42  0.603124120125
-0.5  0.44  0.48452009776
-0.5  0.46  0.389239490348
-0.5  0.48  0.312695761324
-0.5  0.5  0.251204313989
-0.5  0.52  0.20180512553
-0.5  0.54  0.162120259972
-0.5  0.56  0.130239401128
-0.5  0.58  0.104627895422
-0.5  0.6  0.0840528780505
-0.5  0.62  0.0675239263879
-0.5  0.64  0.0542453838654
-0.5  0.66  0.0435780593356
-0.5  0.68  0.0350084582343
-0.5  0.7  0.0281240644175
-0.5  0.72  0.0225934828111
-0.5  0.74  0.0181504869978
-0.5  0.76  0.014581203837
-0.5  0.78  0.0117138182222
-0.5  0.8  0.00941030239182
-0.5  0.82  0.00755977166673
-0.5  0.84  0.00607314677823
-0.5  0.86  0.00487886584621
-0.5  0.88  0.00391943959442
-0.5  0.9  0.00314868398077
-0.5  0.92  0.00252949702934
-0.5  0.94  0.00203207284711
-0.5  0.96  0.00163246685331
-0.5  0.98  0.00131144315567
-0.48  -1  0.00122507719619
-0.48  -0.98  0.00152495966515
-0.48  -0.96  0.00189824934099
-0.48  -0.94  0.00236291532354
-0.48  -0.92  0.0029413253073
-0.48  -0.9  0.00366132229842
-0.48  -0.88  0.00455756489759
-0.48  -0.86  0.00567319566613
-0.48  -0.84  0.00706191788586
-0.48  -0.82  0.00879058068177
-0.48  -0.8  0.0109423969482
-0.48  -0.78  0.0136209489801
-0.48  -0.76  0.0169551746292
-0.48  -0.74  0.0211055740042
-0.48  -0.72  0.0262719354881
-0.48  -0.7  0.0327029529806
-0.48  -0.68  0.0407081973133
-0.48  -0.66  0.0506730181059
-0.48  -0.64  0.063077093397
-0.48  -0.62  0.0785175199769
-0.48  -0.6  0.0977375559225
-0.48  -0.58  0.121662398921
-0.48  -0.56  0.151443722645
-0.48  -0.54  0.188515115041
-0.48  -0.52  0.234661087156
-0.48  -0.5  0.292102974412
-0.48  -0.48  0.363605865355
-0.48  -0.46  0.452611705125
-0.48  -0.44  0.563404980874
-0.48  -0.42  0.701318964753
-0.48  -0.4  0.872992442416
-0.48  -0.38  1.08668928521
-0.48  -0.36  1.35269624939
-0.48  -0.34  1.68381815116
-0.48  -0.32  2.09599425403
-0.48  -0.3  2.60906553947
-0.48  -0.28  3.24772979514
-0.48  -0.26  4.0427304959
-0.48  -0.24  5.03233670701
-0.48  -0.22  6.26418524766
-0.48  -0.2  3.78636260145
-0.48  -0.18  3.51457645382
-0.48  -0.16  3.23045499085
-0.48  -0.14  2.93765876926
-0.48  -0.12  2.64089351845
-0.48  -0.1  2.34648913877
-0.48  -0.08  2.06337016592
-0.48  -0.06  1.80457100904
-0.48  -0.04  1.5890759879
-0.48  -0.02  1.44214457866
-0.48  6.17561557e-16  1.38932151449
-0.48  0.02  1.44214457866
-0.48  0.04  1.5890759879
-0.48  0.06  1.80457100904
-0.48  0.08  2.06337016592
-0.48  0.1  2.34648913877
-0.48  0.12  2.64089351845
-0.48  0.14  2.93765876926
-0.48  0.16  3.23045499085
-0.48  0.18  3.51457645382
-0.48  0.2  7.79757379159
-0.48  0.22  6.26418524766
-0.48  0.24  5.03233670701
-0.48  0.26  4.0427304959
-0.48  0.28  3.24772979514
-0.48  0.3  2.60906553947
-0.48  0.32  2.09599425403
-0.48  0.34  1.68381815116
-0.48  0.36  1.35269624939
-0.48  0.38  1.08668928521
-0.48  0.4  0.872992442416
-0.48  0.42  0.701318964753
-0.48  0.44  0.563404980874
-0.48  0.46  0.452611705125
-0.48  0.48  0.363605865355
-0.48  0.5  0.292102974412
-0.48  0.52  0.234661087156
-0.48  0.54  0.188515115041
-0.48  0.56  0.151443722645
-0.48  0.58  0.121662398921
-0.48  0.6  0.0977375559225
-0.48  0.62  0.0785175199769
-0.48  0.64  0.063077093397
-0.48  0.66  0.0506730181059
-0.48  0.68  0.0407081973133
-0.48  0.7  0.0327029529806
-0.48  0.72  0.0262719354881
-0.48  0.74  0.0211055740042
-0.48  0.76  0.0169551746292
-0.48  0.78  0.0136209489801
-0.48  0.8  0.0109423969482
-0.48  0.82  0.00879058068177
-0.48  0.84  0.00706191788586
-0.48  0.86  0.00567319566613
-0.48  0.88  0.00455756489759
-0.48  0.9  0.00366132229842
-0.48  0.92  0.0029413253073
-0.48  0.94  0.00236291532354
-0.48  0.96  0.00189824934099
-0.48  0.98  0.00152495966515
-0.46  -1  0.00142453243422
-0.46  -0.98  0.00177323887068
-0.46  -0.96  0.00220730396653
-0.46  -0.94  0.0027476223769
-0.46  -0.92  0.00342020348828
-0.46  -0.9  0.0042574234362
-0.46  -0.88  0.00529958359999
-0.46  -0.86  0.00659685059618
-0.46  -0.84  0.00821167115627
-0.46  -0.82  0.0102217781342
-0.46  -0.8  0.0127239323442
-0.46  -0.78  0.0158385803501
-0.46  -0.76  0.0197156524195
-0.46  -0.74  0.0245417797387
-0.46  -0.72  0.0305492783057
-0.46  -0.7  0.0380273319594
-0.46  -0.68  0.0473359128646
-0.46  -0.66  0.0589231095443
-0.46  -0.64  0.0733466965832
-0.46  -0.62  0.0913009843044
-0.46  -0.6  0.113650240887
-0.46  -0.58  0.141470295771
-0.46  -0.56  0.176100327014
-0.46  -0.54  0.219207325506
-0.46  -0.52  0.272866339151
-0.46  -0.5  0.339660359751
-0.46  -0.48  0.422804660865
-0.46  -0.46  0.526301571901
-0.46  -0.44  0.655133138833
-0.46  -0.42  0.815500945677
-0.46  -0.4  1.01512464105
-0.46  -0.38  1.26361354004
-0.46  -0.36  1.57292918919
-0.46  -0.34  1.95796116122
-0.46  -0.32  2.43724379661
-0.46  -0.3  3.03384839382
-0.46  -0.28  3.77649379576
-0.46  -0.26  4.70092883298
-0.46  -0.24  5.85165317036
-0.46  -0.22  7.28405939395
-0.46  -0.2  4.4028215938
-0.46  -0.18  4.08678585036
-0.46  -0.16  3.75640647466
-0.46  -0.14  3.41593999993
-0.46  -0.12  3.07085829696
-0.46  -0.1  2.72852183936
-0.46  -0.08  2.39930816955
-0.46  -0.06  2.09837383327
-0.46  -0.04  1.8477939939
-0.46  -0.02  1.67694063159
-0.46  6.17561557e-16  1.61551742624
-0.46  0.02  1.67694063159
-0.46  0.04  1.8477939939
-0.46  0.06  2.09837383327
-0.46  0.08  2.39930816955
-0.46  0.1  2.72852183936
-0.46  0.12  3.07085829696
-0.46  0.14  3.41593999993
-0.46  0.16  3.75640647466
-0.46  0.18  4.08678585036
-0.46  0.2  9.06709945205
-0.46  0.22  7.28405939395
-0.46  0.24  5.85165317036
-0.46  0.26  4.70092883298
-0.46  0.28  3.77649379576
-0.46  0.3  3.03384839382
-0.46  0.32  2.43724379661
-0.46  0.34  1.95796116122
-0.46  0.36  1.57292918919
-0.46  0.38  1.26361354004
-0.46  0.4  1.01512464105
-0.46  0.42  0.815500945677
-0.46  0.44  0.655133138833
-0.46  0.46  0.526301571901
-0.46  0.48  0.422804660865
-0.46  0.5  0.339660359751
-0.46  0.52  0.272866339151
-0.46  0.54  0.219207325506
-0.46  0.56  0.176100327014
-0.46  0.58  0.141470295771
-0.46  0.6  0.113650240887
-0.46  0.62  0.0913009843044
-0.46  0.64  0.0733466965832
-0.46  0.66  0.0589231095443
-0.46  0.68  0.0473359128646
-0.46  0.7  0.0380273319594
-0.46  0.72  0.0305492783057
-0.46  0.74  0.0245417797387
-0.46  0.76  0.0197156524195
-0.46  0.78  0.0158385803501
-0.46  0.8  0.0127239323442
-0.46  0.82  0.0102217781342
-0.46  0.84  0.00821167115627
-0.46  0.86  0.00659685059618
-0.46  0.88  0.00529958359999
-0.46  0.9  0.0042574234362
-0.46  0.92  0.00342020348828
-0.46  0.94  0.0027476223769
-0.46  0.96  0.00220730396653
-0.46  0.98  0.00177323887068
-0.44  -1  0.00165646104788
-0.44  -0.98  0.00206194049873
-0.44  -0.96  0.00256667588155
-0.44  -0.94  0.00319496371742
-0.44  -0.92  0.00397704798997
-0.44  -0.9  0.00495057600444
-0.44  -0.88  0.00616241062154
-0.44  -0.86  0.00767088610183
-0.44  -0.84  0.00954861615055
-0.44  -0.82  0.0118859893342
-0.44  -0.8  0.0147955201284
-0.44  -0.78  0.0184172650432
-0.44  -0.76  0.0229255645445
-0.44  -0.74  0.0285374353059
-0.44  -0.72  0.0355230167728
-0.44  -0.7  0.0442185749039
-0.44  -0.68  0.0550426890554
-0.44  -0.66  0.0685164011963
-0.44  -0.64  0.0852882973826
-0.44  -0.62  0.106165728839
-0.44  -0.6  0.132153675543
-0.44  -0.58  0.164503123093
-0.44  -0.56  0.204771281587
-0.44  -0.54  0.254896545272
-0.44  -0.52  0.317291801312
-0.44  -0.5  0.39496057929
-0.44  -0.48  0.491641632554
-0.44  -0.46  0.611988911134
-0.44  -0.44  0.761795589615
-0.44  -0.42  0.948272934033
-0.44  -0.4  1.18039743165
-0.44  -0.38  1.46934289341
-0.44  -0.36  1.82901832937
-0.44  -0.34  2.27673748868
-0.44  -0.32  2.83405229414
-0.44  -0.3  3.52779029021
-0.44  -0.28  4.39134604447
-0.44  -0.26  5.46628866682
-0.44  -0.24  6.80436282781
-0.44  -0.22  8.4699795994
-0.44  -0.2  5.11964648589
-0.44  -0.18  4.7521568548
-0.44  -0.16  4.36798829975
-0.44  -0.14  3.97209036162
-0.44  -0.12  3.57082578836
-0.44  -0.1  3.17275341482
-0.44  -0.08  2.78994035464
-0.44  -0.06  2.44001079597
-0.44  -0.04  2.14863396711
-0.44  -0.02  1.94996391034
-0.44  6.17561557e-16  1.87854037189
-0.44  0.02  1.94996391034
-0.44  0.04  2.14863396711
-0.44  0.06  2.44001079597
-0.44  0.08  2.78994035464
-0.44  0.1  3.17275341482
-0.44  0.12  3.57082578836
-0.44  0.14  3.97209036162
-0.44  0.16  4.36798829975
-0.44  0.18  4.7521568548
-0.44  0.2  10.5433170202
-0.44  0.22  8.4699795994
-0.44  0.24  6.80436282781
-0.44  0.26  5.46628866682
-0.44  0.28  4.39134604447
-0.44  0.3  3.52779029021
-0.44  0.32  2.83405229414
-0.44  0.34  2.27673748868
-0.44  0.36  1.82901832936
-0.44  0.38  1.46934289341
-0.44  0.4  1.18039743165
-0.44  0.42  0.948272934033
-0.44  0.44  0.761795589615
-0.44  0.46  0.611988911134
-0.44  0.48  0.491641632554
-0.44  0.5  0.39496057929
-0.44  0.52  0.317291801312
-0.44  0.54  0.254896545272
-0.44  0.56  0.204771281587
-0.44  0.58  0.164503123093
-0.44  0.6  0.132153675543
-0.44  0.62  0.106165728839
-0.44  0.64  0.0852882973826
-0.44  0.66  0.0685164011963
-0.44  0.68  0.0550426890554
-0.44  0.7  0.0442185749039
-0.44  0.72  0.0355230167728
-0.44  0.74  0.0285374353059
-0.44  0.76  0.0229255645445
-0.44  0.78  0.0184172650432
-0.44  0.8  0.0147955201284
-0.44  0.82  0.0118859893342
-0.44  0.84  0.00954861615055
-0.44  0.86  0.00767088610183
-0.44  0.88  0.00616241062154
-0.44  0.9  0.00495057600444
-0.44  0.92  0.00397704798997
-0.44  0.94  0.00319496371742
-0.44  0.96  0.00256667588155
-0.44  0.98  0.00206194049873
-0.42  -1  0.00192615003859
-0.42  -0.98  0.00239764573775
-0.42  -0.96  0.00298455726117
-0.42  -0.94  0.00371513685485
-0.42  -0.92  0.00462455253575
-0.42  -0.9  0.0057565809798
-0.42  -0.88  0.00716571480608
-0.42  -0.86  0.00891978569612
-0.42  -0.84  0.0111032296174
-0.42  -0.82  0.0138211513299
-0.42  -0.8  0.0172043838295
-0.42  -0.78  0.0214157862747
-0.42  -0.76  0.0266580835623
-0.42  -0.74  0.033183624925
-0.42  -0.72  0.0413065313038
-0.42  -0.7  0.0514178162333
-0.42  -0.68  0.0640042081181
-0.42  -0.66  0.0796715799488
-0.42  -0.64  0.0991741142992
-0.42  -0.62  0.123450607524
-0.42  -0.6  0.153669660734
-0.42  -0.58  0.191285932923
-0.42  -0.56  0.238110164097
-0.42  -0.54  0.296396339136
-0.42  -0.52  0.368950188188
-0.42  -0.5  0.459264246518
-0.42  -0.48  0.571685975187
-0.42  -0.46  0.711627035423
-0.42  -0.44  0.885823790552
-0.42  -0.42  1.1026615753
-0.42  -0.4  1.3725783419
-0.42  -0.38  1.70856711328
-0.42  -0.36  2.12680143019
-0.42  -0.34  2.64741389922
-0.42  -0.32  3.2954653191
-0.42  -0.3  4.10215103598
-0.42  -0.28  5.10630259845
-0.42  -0.26  6.35625699742
-0.42  -0.24  7.91218347098
-0.42  -0.22  9.8489798798
-0.42  -0.2  5.95317788426
-0.42  -0.18  5.52585714042
-0.42  -0.16  5.07914197131
-0.42  -0.14  4.61878775424
-0.42  -0.12  4.15219315833
-0.42  -0.1  3.68931048528
-0.42  -0.08  3.24417149961
-0.42  -0.06  2.83726978961
-0.42  -0.04  2.49845379942
-0.42  -0.02  2.26743820264
-0.42  6.17561557e-16  2.18438617342
-0.42  0.02  2.26743820264
-0.42  0.04  2.49845379942
-0.42  0.06  2.83726978961
-0.42  0.08  3.24417149961
-0.42  0.1  3.68931048528
-0.42  0.12  4.15219315833
-0.42  0.14  4.61878775424
-0.42  0.16  5.07914197131
-0.42  0.18  5.52585714042
-0.42  0.2  12.2598780764
-0.42  0.22  9.8489798798
-0.42  0.24  7.91218347098
-0.42  0.26  6.35625699742
-0.42  0.28  5.10630259845
-0.42  0.3  4.10215103598
-0.42  0.32  3.2954653191
-0.42  0.34  2.64741389922
-0.42  0.36  2.12680143019
-0.42  0.38  1.70856711328
-0.42  0.4  1.3725783419
-0.42  0.42  1.1026615753
-0.42  0.44  0.885823790552
-0.42  0.46  0.711627035423
-0.42  0.48  0.571685975187
-0.42  0.5  0.459264246518
-0.42  0.52  0.368950188188
-0.42  0.54  0.296396339136
-0.42  0.56  0.238110164097
-0.42  0.58  0.191285932923
-0.42  0.6  0.153669660734
-0.42  0.62  0.123450607524
-0.42  0.64  0.0991741142992
-0.42  0.66  0.0796715799488
-0.42  0.68  0.0640042081181
-0.42  0.7  0.0514178162333
-0.42  0.72  0.0413065313038
-0.42  0.74  0.033183624925
-0.42  0.76  0.0266580835623
-0.42  0.78  0.0214157862747
-0.42  0.8  0.0172043838295
-0.42  0.82  0.0138211513299
-0.42  0.84  0.0111032296174
-0.42  0.86  0.00891978569612
-0.42  0.88  0.00716571480608
-0.42  0.9  0.0057565809798
-0.42  0.92  0.00462455253575
-0.42  0.94  0.00371513685485
-0.42  0.96  0.00298455726117
-0.42  0.98  0.00239764573775
-0.4  -1  0.00223974718627
-0.4  -0.98  0.00278800726175
-0.4  -0.96  0.00347047405137
-0.4  -0.94  0.00431999955899
-0.4  -0.92  0.00537747751847
-0.4  -0.9  0.00669381190133
-0.4  -0.88  0.00833236728864
-0.4  -0.86  0.0103720190612
-0.4  -0.84  0.0129109502354
-0.4  -0.82  0.0160713777131
-0.4  -0.8  0.020005435455
-0.4  -0.78  0.0249024977751
-0.4  -0.76  0.0309982952801
-0.4  -0.74  0.0385862622678
-0.4  -0.72  0.048031661817
-0.4  -0.7  0.0597891685101
-0.4  -0.68  0.0744247551697
-0.4  -0.66  0.0926429371758
-0.4  -0.64  0.115320685825
-0.4  -0.62  0.143549643229
-0.4  -0.6  0.178688670845
-0.4  -0.58  0.222429261196
-0.4  -0.56  0.276876961491
-0.4  -0.54  0.344652728656
-0.4  -0.52  0.429019094729
-0.4  -0.5  0.534037215838
-0.4  -0.48  0.664762364667
-0.4  -0.46  0.827487276865
-0.4  -0.44  1.03004506538
-0.4  -0.42  1.28218628415
-0.4  -0.4  1.59604829199
-0.4  -0.38  1.98673951035
-0.4  -0.36  2.47306669968
-0.4  -0.34  3.07844026316
-0.4  -0.32  3.83200115673
-0.4  -0.3  4.77002365155
-0.4  -0.28  5.93766147393
-0.4  -0.26  7.39112137683
-0.4  -0.24  9.20036877261
-0.4  -0.22  11.4524956683
-0.4  -0.2  6.92241681515
-0.4  -0.18  6.42552383461
-0.4  -0.16  5.90607881577
-0.4  -0.14  5.37077417091
-0.4  -0.12  4.82821314898
-0.4  -0.1  4.28996838935
-0.4  -0.08  3.77235617292
-0.4  -0.06  3.2992066561
-0.4  -0.04  2.90522791847
-0.4  -0.02  2.63660059324
-0.4  6.17561557e-16  2.54002683469
-0.4  0.02  2.63660059324
-0.4  0.04  2.90522791847
-0.4  0.06  3.2992066561
-0.4  0.08  3.77235617292
-0.4  0.1  4.28996838935
-0.4  0.12  4.82821314898
-0.4  0.14  5.37077417091
-0.4  0.16  5.90607881577
-0.4  0.18  6.42552383461
-0.4  0.2  14.2559130263
-0.4  0.22  11.4524956683
-0.4  0.24  9.20036877261
-0.4  0.26  7.39112137683
-0.4  0.28  5.93766147393
-0.4  0.3  4.77002365155
-0.4  0.32  3.83200115673
-0.4  0.34  3.07844026316
-0.4  0.36  2.47306669968
-0.4  0.38  1.98673951035
-0.4  0.4  1.59604829199
-0.4  0.42  1.28218628415
-0.4  0.44  1.03004506538
-0.4  0.46  0.827487276864
-0.4  0.48  0.664762364667
-0.4  0.5  0.534037215838
-0.4  0.52  0.429019094729
-0.4  0.54  0.344652728656
-0.4  0.56  0.276876961491
-0.4  0.58  0.222429261196
-0.4  0.6  0.178688670845
-0.4  0.62  0.143549643229
-0.4  0.64  0.115320685825
-0.4  0.66  0.0926429371758
-0.4  0.68  0.0744247551697
-0.4  0.7  0.0597891685101
-0.4  0.72  0.048031661817
-0.4  0.74  0.0385862622678
-0.4  0.76  0.0309982952801
-0.4  0.78  0.0249024977751
-0.4  0.8  0.020005435455
-0.4  0.82  0.0160713777131
-0.4  0.84  0.0129109502354
-0.4  0.86  0.0103720190612
-0.4  0.88  0.00833236728864
-0.4  0.9  0.00669381190133
-0.4  0.92  0.00537747751847
-0.4  0.94  0.00431999955899
-0.4  0.96  0.00347047405137
-0.4  0.98  0.00278800726175
-0.38  -1  0.002604401193
-0.38  -0.98  0.00324192367921
-0.38  -0.96  0.00403550312066
-0.38  -0.94  0.00502334016723
-0.38  -0.92  0.00625298647558
-0.38  -0.9  0.00778363371029
-0.38  -0.88  0.00968896286158
-0.38  -0.86  0.012060691038
-0.38  -0.84  0.0150129864665
-0.38  -0.82  0.0186879642246
-0.38  -0.8  0.0232625272553
-0.38  -0.78  0.0289568819695
-0.38  -0.76  0.0360451383547
-0.38  -0.74  0.0448685048473
-0.38  -0.72  0.0558517131331
-0.38  -0.7  0.069523463519
-0.38  -0.68  0.0865418750569
-0.38  -0.66  0.107726165517
-0.38  -0.64  0.134096086194
-0.38  -0.62  0.166921009823
-0.38  -0.6  0.207781034564
-0.38  -0.58  0.258643045416
-0.38  -0.56  0.321955394449
-0.38  -0.54  0.400765757487
-0.38  -0.52  0.498867840524
-0.38  -0.5  0.62098399791
-0.38  -0.48  0.772992553007
-0.38  -0.46  0.962210763908
-0.38  -0.44  1.19774705536
-0.38  -0.42  1.49093947235
-0.38  -0.4  1.85590146121
-0.38  -0.38  2.31020125069
-0.38  -0.36  2.87570753633
-0.38  -0.34  3.57964217708
-0.38  -0.32  4.4558905779
-0.38  -0.3  5.54663283647
-0.38  -0.28  6.90437417275
-0.38  -0.26  8.5944723804
-0.38  -0.24  10.6982839645
-0.38  -0.22  13.3170804117
-0.38  -0.2  8.04945786845
-0.38  -0.18  7.47166557151
-0.38  -0.16  6.8676495312
-0.38  -0.14  6.24519175371
-0.38  -0.12  5.61429618592
-0.38  -0.1  4.98841961256
-0.38  -0.08  4.38653477384
-0.38  -0.06  3.8363516221
-0.38  -0.04  3.37822907121
-0.38  -0.02  3.06586643912
-0.38  6.17561557e-16  2.95356947386
-0.38  0.02  3.06586643912
-0.38  0.04  3.37822907121
-0.38  0.06  3.8363516221
-0.38  0.08  4.38653477384
-0.38  0.1  4.98841961256
-0.38  0.12  5.61429618592
-0.38  0.14  6.24519175371
-0.38  0.16  6.8676495312
-0.38  0.18  7.47166557151
-0.38  0.2  16.5769231102
-0.38  0.22  13.3170804117
-0.38  0.24  10.6982839645
-0.38  0.26  8.5944723804
-0.38  0.28  6.90437417275
-0.38  0.3  5.54663283647
-0.38  0.32  4.4558905779
-0.38  0.34  3.57964217708
-0.38  0.36  2.87570753633
-0.38  0.38  2.31020125069
-0.38  0.4  1.85590146121
-0.38  0.42  1.49093947235
-0.38  0.44  1.19774705536
-0.38  0.46  0.962210763908
-0.38  0.48  0.772992553007
-0.38  0.5  0.62098399791
-0.38  0.52  0.498867840524
-0.38  0.54  0.400765757487
-0.38  0.56  0.321955394449
-0.38  0.58  0.258643045416
-0.38  0.6  0.207781034564
-0.38  0.62  0.166921009823
-0.38  0.64  0.134096086194
-0.38  0.66  0.107726165517
-0.38  0.68  0.0865418750569
-0.38  0.7  0.069523463519
-0.38  0.72  0.0558517131331
-0.38  0.74  0.0448685048473
-0.38  0.76  0.0360451383547
-0.38  0.78  0.0289568819695
-0.38  0.8  0.0232625272553
-0.38  0.82  0.0186879642246
-0.38  0.84  0.0150129864665
-0.38  0.86  0.012060691038
-0.38  0.88  0.00968896286158
-0.38  0.9  0.00778363371029
-0.38  0.92  0.00625298647558
-0.38  0.94  0.00502334016723
-0.38  0.96  0.00403550312066
-0.38  0.98  0.00324192367921
-0.36  -1  0.00302842464351
-0.36  -0.98  0.00376974238411
-0.36  -0.96  0.0046925247663
-0.36  -0.94  0.00584119190085
-0.36  -0.92  0.00727103734595
-0.36  -0.9  0.00905088978134
-0.36  -0.88  0.0112664262245
-0.36  -0.86  0.0140242962779
-0.36  -0.84  0.0174572559366
-0.36  -0.82  0.0217305580825
-0.36  -0.8  0.0270499072875
-0.36  -0.78  0.0336713618436
-0.36  -0.76  0.0419136596794
-0.36  -0.74  0.0521735614935
-0.36  -0.72  0.0649449496832
-0.36  -0.7  0.0808426024333
-0.36  -0.68  0.100631787384
-0.36  -0.66  0.125265099432
-0.36  -0.64  0.155928315928
-0.36  -0.62  0.194097476619
-0.36  -0.6  0.241609935987
-0.36  -0.58  0.300752808252
-0.36  -0.56  0.374373062522
-0.36  -0.54  0.466014567766
-0.36  -0.52  0.580088684553
-0.36  -0.5  0.722086615359
-0.36  -0.48  0.898843735389
-0.36  -0.46  1.11886862803
-0.36  -0.44  1.3927526638
-0.36  -0.42  1.73367983864
-0.36  -0.4  2.15806141395
-0.36  -0.38  2.68632590779
-0.36  -0.36  3.34390246554
-0.36  -0.34  4.16244494632
-0.36  -0.32  5.18135564948
-0.36  -0.3  6.44968202886
-0.36  -0.28  8.02847769725
-0.36  -0.26  9.99374137312
-0.36  -0.24  12.440075242
-0.36  -0.22  15.485238836
-0.36  -0.2  9.35999286177
-0.36  -0.18  8.68813000301
-0.36  -0.16  7.98577390423
-0.36  -0.14  7.26197356273
-0.36  -0.12  6.52836167141
-0.36  -0.1  5.80058591872
-0.36  -0.08  5.1007080032
-0.36  -0.06  4.46094934403
-0.36  -0.04  3.92823970368
-0.36  -0.02  3.56502120445
-0.36  6.17561557e-16  3.43444113179
-0.36  0.02  3.56502120445
-0.36  0.04  3.92823970368
-0.36  0.06  4.46094934403
-0.36  0.08  5.1007080032
-0.36  0.1  5.80058591872
-0.36  0.12  6.52836167141
-0.36  0.14  7.26197356273
-0.36  0.16  7.98577390423
-0.36  0.18  8.68813000301
-0.36  0.2  19.2758176411
-0.36  0.22  15.485238836
-0.36  0.24  12.440075242
-0.36  0.26  9.99374137312
-0.36  0.28  8.02847769725
-0.36  0.3  6.44968202886
-0.36  0.32  5.18135564948
-0.36  0.34  4.16244494632
-0.36  0.36  3.34390246554
-0.36  0.38  2.68632590779
-0.36  0.4  2.15806141395
-0.36  0.42  1.73367983864
-0.36  0.44  1.3927526638
-0.36  0.46  1.11886862803
-0.36  0.48  0.898843735389
-0.36  0.5  0.722086615359
-0.36  0.52  0.580088684553
-0.36  0.54  0.466014567766
-0.36  0.56  0.374373062522
-0.36  0.58  0.300752808252
-0.36  0.6  0.241609935987
-0.36  0.62  0.194097476619
-0.36  0.64  0.155928315928
-0.36  0.66  0.125265099432
-0.36  0.68  0.100631787384
-0.36  0.7  0.0808426024333
-0.36  0.72  0.0649449496832
-0.36  0.74  0.0521735614935
-0.36  0.76  0.0419136596794
-0.36  0.78  0.0336713618436
-0.36  0.8  0.0270499072875
-0.36  0.82  0.0217305580825
-0.36  0.84  0.0174572559366
-0.36  0.86  0.0140242962779
-0.36  0.88  0.0112664262245
-0.36  0.9  0.00905088978134
-0.36  0.92  0.00727103734595
-0.36  0.94  0.00584119190085
-0.36  0.96  0.0046925247663
-0.36  0.98  0.00376974238411
-0.34  -1  0.00352148349725
-0.34  -0.98  0.00438349543318
-0.34  -0.96  0.00545651633116
-0.34  -0.94  0.00679219835542
-0.34  -0.92  0.00845483742731
-0.34  -0.9  0.0105244682475
-0.34  -0.88  0.013100716938
-0.34  -0.86  0.0163075967597
-0.34  -0.84  0.0202994777564
-0.34  -0.82  0.0252685176888
-0.34  -0.8  0.0314539119602
-0.34  -0.78  0.0391534078012
-0.34  -0.76  0.0487376369714
-0.34  -0.74  0.0606679569149
-0.34  -0.72  0.0755186591912
-0.34  -0.7  0.0940046142322
-0.34  -0.68  0.117015683165
-0.34  -0.66  0.145659553186
-0.34  -0.64  0.181315058466
-0.34  -0.62  0.225698553286
-0.34  -0.6  0.280946532441
-0.34  -0.58  0.349718476001
-0.34  -0.56  0.435324869091
-0.34  -0.54  0.541886559201
-0.34  -0.52  0.674533122024
-0.34  -0.5  0.839649784593
-0.34  -0.48  1.04518479189
-0.34  -0.46  1.30103201269
-0.34  -0.44  1.61950720215
-0.34  -0.42  2.01594084713
-0.34  -0.4  2.5094161321
-0.34  -0.38  3.12368754918
-0.34  -0.36  3.88832437158
-0.34  -0.34  4.84013403409
-0.34  -0.32  6.02493393791
-0.34  -0.3  7.49975696964
-0.34  -0.28  9.33559690171
-0.34  -0.26  11.6208258299
-0.34  -0.24  14.4654481542
-0.34  -0.22  18.0063958761
-0.34  -0.2  10.8838965063
-0.34  -0.18  10.1026474254
-0.34  -0.16  9.28594048951
-0.34  -0.14  8.44429796644
-0.34  -0.12  7.59124647175
-0.34  -0.1  6.74498129943
-0.34  -0.08  5.93115602071
-0.34  -0.06  5.18723803505
-0.34  -0.04  4.56779775565
-0.34  -0.02  4.14544352812
-0.34  6.17561557e-16  3.9936036691
-0.34  0.02  4.14544352812
-0.34  0.04  4.56779775565
-0.34  0.06  5.18723803505
-0.34  0.08  5.93115602071
-0.34  0.1  6.74498129943
-0.34  0.12  7.59124647175
-0.34  0.14  8.44429796644
-0.34  0.16  9.28594048951
-0.34  0.18  10.1026474254
-0.34  0.2  22.4141201151
-0.34  0.22  18.0063958761
-0.34  0.24  14.4654481542
-0.34  0.26  11.6208258299
-0.34  0.28  9.33559690171
-0.34  0.3  7.49975696964
-0.34  0.32  6.02493393791
-0.34  0.34  4.84013403409
-0.34  0.36  3.88832437158
-0.34  0.38  3.12368754918
-0.34  0.4  2.5094161321
-0.34  0.42  2.01594084713
-0.34  0.44  1.61950720215
-0.34  0.46  1.30103201269
-0.34  0.48  1.04518479189
-0.34  0.5  0.839649784593
-0.34  0.52  0.674533122023
-0.34  0.54  0.541886559201
-0.34  0.56  0.435324869091
-0.34  0.58  0.349718476001
-0.34  0.6  0.280946532441
-0.34  0.62  0.225698553286
-0.34  0.64  0.181315058466
-0.34  0.66  0.145659553186
-0.34  0.68  0.117015683165
-0.34  0.7  0.0940046142322
-0.34  0.72  0.0755186591912
-0.34  0.74  0.0606679569149
-0.34  0.76  0.0487376369714
-0.34  0.78  0.0391534078012
-0.34  0.8  0.0314539119602
-0.34  0.82  0.0252685176888
-0.34  0.84  0.0202994777564
-0.34  0.86  0.0163075967597
-0.34  0.88  0.013100716938
-0.34  0.9  0.0105244682475
-0.34  0.92  0.00845483742731
-0.34  0.94  0.00679219835542
-0.34  0.96  0.00545651633116
-0.34  0.98  0.00438349543318
-0.32  -1  0.00409481743191
-0.32  -0.98  0.00509717382644
-0.32  -0.96  0.00634489362444
-0.32  -0.94  0.00789803849668
-0.32  -0.92  0.00983137240548
-0.32  -0.9  0.0122379605285
-0.32  -0.88  0.015233649151
-0.32  -0.86  0.0189626421751
-0.32  -0.84  0.0236044426846
-0.32  -0.82  0.0293824937107
-0.32  -0.8  0.0365749341426
-0.32  -0.78  0.0455279875393
-0.32  -0.76  0.0566726283443
-0.32  -0.74  0.0705453277651
-0.32  -0.72  0.0878138779669
-0.32  -0.7  0.109309537681
-0.32  -0.68  0.13606704663
-0.32  -0.66  0.169374434943
-0.32  -0.64  0.210835025253
-0.32  -0.62  0.262444612071
-0.32  -0.6  0.326687533641
-0.32  -0.58  0.406656260893
-0.32  -0.56  0.506200260171
-0.32  -0.54  0.630111295555
-0.32  -0.52  0.784354090716
-0.32  -0.5  0.976353453687
-0.32  -0.48  1.21535168594
-0.32  -0.46  1.51285348041
-0.32  -0.44  1.88317972457
-0.32  -0.42  2.34415686711
-0.32  -0.4  2.9179750323
-0.32  -0.38  3.63225618924
-0.32  -0.36  4.52138379466
-0.32  -0.34  5.62815791441
-0.32  -0.32  7.00585549649
-0.32  -0.3  8.72079497129
-0.32  -0.28  10.8555286317
-0.32  -0.26  13.5128164646
-0.32  -0.24  16.820572724
-0.32  -0.22  20.9380233577
-0.32  -0.2  12.6559074254
-0.32  -0.18  11.7474629139
-0.32  -0.16  10.797787642
-0.32  -0.14  9.81911701138
-0.32  -0.12  8.82717991058
-0.32  -0.1  7.84313401563
-0.32  -0.08  6.89680956446
-0.32  -0.06  6.03177403669
-0.32  -0.04  5.31148247318
-0.32  -0.02  4.82036460917
-0.32  6.17561557e-16  4.64380365068
-0.32  0.02  4.82036460917
-0.32  0.04  5.31148247318
-0.32  0.06  6.03177403669
-0.32  0.08  6.89680956446
-0.32  0.1  7.84313401563
-0.32  0.12  8.82717991059
-0.32  0.14  9.81911701138
-0.32  0.16  10.797787642
-0.32  0.18  11.7474629139
-0.32  0.2  26.0633706901
-0.32  0.22  20.9380233577
-0.32  0.24  16.820572724
-0.32  0.26  13.5128164646
-0.32  0.28  10.8555286317
-0.32  0.3  8.72079497129
-0.32  0.32  7.00585549649
-0.32  0.34  5.62815791441
-0.32  0.36  4.52138379466
-0.32  0.38  3.63225618924
-0.32  0.4  2.9179750323
-0.32  0.42  2.34415686711
-0.32  0.44  1.88317972457
-0.32  0.46  1.51285348041
-0.32  0.48  1.21535168594
-0.32  0.5  0.976353453687
-0.32  0.52  0.784354090716
-0.32  0.54  0.630111295555
-0.32  0.56  0.506200260171
-0.32  0.58  0.406656260893
-0.32  0.6  0.326687533641
-0.32  0.62  0.262444612071
-0.32  0.64  0.210835025253
-0.32  0.66  0.169374434943
-0.32  0.68  0.13606704663
-0.32  0.7  0.109309537681
-0.32  0.72  0.0878138779669
-0.32  0.74  0.0705453277651
-0.32  0.76  0.0566726283443
-0.32  0.78  0.0455279875393
-0.32  0.8  0.0365749341426
-0.32  0.82  0.0293824937107
-0.32  0.84  0.0236044426846
-0.32  0.86  0.0189626421751
-0.32  0.88  0.015233649151
-0.32  0.9  0.0122379605285
-0.32  0.92  0.00983137240548
-0.32  0.94  0.00789803849668
-0.32  0.96  0.00634489362444
-0.32  0.98  0.00509717382644
-0.3  -1  0.00476149606088
-0.3  -0.98  0.00592704644342
-0.3  -0.96  0.00737790792921
-0.3  -0.94  0.0091839208502
-0.3  -0.92  0.0114320215151
-0.3  -0.9  0.0142304270749
-0.3  -0.88  0.0177138447883
-0.3  -0.86  0.0220499564443
-0.3  -0.84  0.027447490085
-0.3  -0.82  0.0341662675783
-0.3  -0.8  0.042529711701
-0.3  -0.78  0.0529404147885
-0.3  -0.76  0.0658995183811
-0.3  -0.74  0.0820308367474
-0.3  -0.72  0.102110885524
-0.3  -0.7  0.127106260961
-0.3  -0.68  0.158220169109
-0.3  -0.66  0.196950344724
-0.3  -0.64  0.245161147947
-0.3  -0.62  0.305173309276
-0.3  -0.6  0.379875642916
-0.3  -0.58  0.472864106049
-0.3  -0.56  0.588614897953
-0.3  -0.54  0.732699931461
-0.3  -0.52  0.912055048945
-0.3  -0.5  1.13531389398
-0.3  -0.48  1.41322351031
-0.3  -0.46  1.75916167386
-0.3  -0.44  2.18978086071
-0.3  -0.42  2.72580984976
-0.3  -0.4  3.39305154701
-0.3  -0.38  4.22362506382
-0.3  -0.36  5.2575118393
-0.3  -0.34  6.54448023267
-0.3  -0.32  8.14648123008
-0.3  -0.3  10.1406305883
-0.3  -0.28  12.6229209673
-0.3  -0.26  15.7128427427
-0.3  -0.24  19.559135932
-0.3  -0.22  24.3469501139
-0.3  -0.2  14.7164200492
-0.3  -0.18  13.6600713755
-0.3  -0.16  12.5557791473
-0.3  -0.14  11.417770816
-0.3  -0.12  10.264336096
-0.3  -0.1  9.12007735177
-0.3  -0.08  8.0196814925
-0.3  -0.06  7.01380923409
-0.3  -0.04  6.17624675435
-0.3  -0.02  5.60516982264
-0.3  6.17561557e-16  5.39986291402
-0.3  0.02  5.60516982264
-0.3  0.04  6.17624675435
-0.3  0.06  7.01380923409
-0.3  0.08  8.0196814925
-0.3  0.1  9.12007735177
-0.3  0.12  10.264336096
-0.3  0.14  11.417770816
-0.3  0.16  12.5557791473
-0.3  0.18  13.6600713755
-0.3  0.2  30.3067570015
-0.3  0.22  24.3469501139
-0.3  0.24  19.559135932
-0.3  0.26  15.7128427427
-0.3  0.28  12.6229209673
-0.3  0.3  10.1406305883
-0.3  0.32  8.14648123008
-0.3  0.34  6.54448023267
-0.3  0.36  5.2575118393
-0.3  0.38  4.22362506382
-0.3  0.4  3.39305154701
-0.3  0.42  2.72580984976
-0.3  0.44  2.18978086071
-0.3  0.46  1.75916167386
-0.3  0.48  1.41322351031
-0.3  0.5  1.13531389398
-0.3  0.52  0.912055048945
-0.3  0.54  0.732699931461
-0.3  0.56  0.588614897953
-0.3  0.58  0.472864106049
-0.3  0.6  0.379875642916
-0.3  0.62  0.305173309276
-0.3  0.64  0.245161147947
-0.3  0.66  0.196950344724
-0.3  0.68  0.158220169109
-0.3  0.7  0.127106260961
-0.3  0.72  0.102110885524
-0.3  0.74  0.0820308367474
-0.3  0.76  0.0658995183811
-0.3  0.78  0.0529404147885
-0.3  0.8  0.042529711701
-0.3  0.82  0.0341662675783
-0.3  0.84  0.027447490085
-0.3  0.86  0.0220499564443
-0.3  0.88  0.0177138447883
-0.3  0.9  0.0142304270749
-0.3  0.92  0.0114320215151
-0.3  0.94  0.0091839208502
-0.3  0.96  0.0073779079292
-0.3  0.98  0.00592704644342
-0.28  -1  0.00553671686584
-0.28  -0.98  0.00689203090548
-0.28  -0.96  0.00857910764683
-0.28  -0.94  0.0106791581502
-0.28  -0.92  0.0132932728545
-0.28  -0.9  0.0165472877823
-0.28  -0.88  0.0205978419271
-0.28  -0.86  0.0256399174073
-0.28  -0.84  0.0319162253492
-0.28  -0.82  0.0397288893081
-0.28  -0.8  0.0494539886337
-0.28  -0.78  0.0615596618577
-0.28  -0.76  0.0766286415459
-0.28  -0.74  0.0953863053821
-0.28  -0.72  0.118735593779
-0.28  -0.7  0.147800474855
-0.28  -0.68  0.183980049048
-0.28  -0.66  0.229015897824
-0.28  -0.64  0.285075918436
-0.28  -0.62  0.354858680311
-0.28  -0.6  0.441723326485
-0.28  -0.58  0.549851273159
-0.28  -0.56  0.684447491149
-0.28  -0.54  0.851991058326
-0.28  -0.52  1.06054704393
-0.28  -0.5  1.32015473802
-0.28  -0.48  1.64331091419
-0.28  -0.46  2.04557138867
-0.28  -0.44  2.54629983286
-0.28  -0.42  3.16959988526
-0.28  -0.4  3.94547543184
-0.28  -0.38  4.91127490748
-0.28  -0.36  6.11348914308
-0.28  -0.34  7.60998930149
-0.28  -0.32  9.47281263014
-0.28  -0.3  11.7916301286
-0.28  -0.28  14.6780630546
-0.28  -0.26  18.2710560529
-0.28  -0.24  22.743565554
-0.28  -0.22  28.3108854032
-0.28  -0.2  17.1124054393
-0.28  -0.18  15.8840722762
-0.28  -0.16  14.5999898519
-0.28  -0.14  13.2767019943
-0.28  -0.12  11.9354761724
-0.28  -0.1  10.60492027
-0.28  -0.08  9.32536858384
-0.28  -0.06  8.15572991843
-0.28  -0.04  7.18180360441
-0.28  -0.02  6.5177494418
-0.28  6.17561557e-16  6.27901644504
-0.28  0.02  6.5177494418
-0.28  0.04  7.18180360441
-0.28  0.06  8.15572991843
-0.28  0.08  9.32536858384
-0.28  0.1  10.60492027
-0.28  0.12  11.9354761724
-0.28  0.14  13.2767019943
-0.28  0.16  14.5999898519
-0.28  0.18  15.8840722762
-0.28  0.2  35.241010492
-0.28  0.22  28.3108854032
-0.28  0.24  22.743565554
-0.28  0.26  18.2710560529
-0.28  0.28  14.6780630546
-0.28  0.3  11.7916301286
-0.28  0.32  9.47281263014
-0.28  0.34  7.60998930149
-0.28  0.36  6.11348914308
-0.28  0.38  4.91127490748
-0.28  0.4  3.94547543184
-0.28  0.42  3.16959988526
-0.28  0.44  2.54629983286
-0.28  0.46  2.04557138867
-0.28  0.48  1.64331091419
-0.28  0.5  1.32015473802
-0.28  0.52  1.06054704393
-0.28  0.54  0.851991058326
-0.28  0.56  0.684447491149
-0.28  0.58  0.549851273159
-0.28  0.6  0.441723326485
-0.28  0.62  0.354858680311
-0.28  0.64  0.285075918436
-0.28  0.66  0.229015897824
-0.28  0.68  0.183980049048
-0.28  0.7  0.147800474855
-0.28  0.72  0.118735593779
-0.28  0.74  0.0953863053821
-0.28  0.76  0.0766286415459
-0.28  0.78  0.0615596618577
-0.28  0.8  0.0494539886337
-0.28  0.82  0.0397288893081
-0.28  0.84  0.0319162253492
-0.28  0.86  0.0256399174073
-0.28  0.88  0.0205978419271
-0.28  0.9  0.0165472877823
-0.28  0.92  0.0132932728545
-0.28  0.94  0.0106791581502
-0.28  0.96  0.00857910764683
-0.28  0.98  0.00689203090548
-0.26  -1  0.00643815163566
-0.26  -0.98  0.00801412481842
-0.26  -0.96  0.00997587510202
-0.26  -0.94  0.0124178355474
-0.26  -0.92  0.0154575551623
-0.26  -0.9  0.0192413573753
-0.26  -0.88  0.0239513836281
-0.26  -0.86  0.0298143611446
-0.26  -0.84  0.0371125169329
-0.26  -0.82  0.0461971633874
-0.26  -0.8  0.0575056094662
-0.26  -0.78  0.0715822114951
-0.26  -0.76  0.089104576929
-0.26  -0.74  0.110916182441
-0.26  -0.72  0.138066976481
-0.26  -0.7  0.171863920802
-0.26  -0.68  0.213933903865
-0.26  -0.66  0.26630205461
-0.26  -0.64  0.331489226384
-0.26  -0.62  0.412633343628
-0.26  -0.6  0.513640452604
-0.26  -0.58  0.639372747321
-0.26  -0.56  0.795882621675
-0.26  -0.54  0.990704014424
-0.26  -0.52  1.2332150715
-0.26  -0.5  1.5350895832
-0.26  -0.48  1.91085892713
-0.26  -0.46  2.37861156728
-0.26  -0.44  2.96086378101
-0.26  -0.42  3.68564352849
-0.26  -0.4  4.58783963862
-0.26  -0.38  5.71088125777
-0.26  -0.36  7.10882840496
-0.26  -0.34  8.84897426686
-0.26  -0.32  11.0150844998
-0.26  -0.3  13.7114294696
-0.26  -0.28  17.0678035292
-0.26  -0.26  21.2457729485
-0.26  -0.24  26.4464532538
-0.26  -0.22  32.9201903551
-0.26  -0.2  19.8984820316
-0.26  -0.18  18.4701635253
-0.26  -0.16  16.9770192016
-0.26  -0.14  15.4382863946
-0.26  -0.12  13.8786951371
-0.26  -0.1  12.3315109724
-0.26  -0.08  10.8436350378
-0.26  -0.06  9.48356710061
-0.26  -0.04  8.35107550974
-0.26  -0.02  7.57890646141
-0.26  6.17561557e-16  7.30130526366
-0.26  0.02  7.57890646141
-0.26  0.04  8.35107550974
-0.26  0.06  9.48356710061
-0.26  0.08  10.8436350378
-0.26  0.1  12.3315109724
-0.26  0.12  13.8786951371
-0.26  0.14  15.4382863946
-0.26  0.16  16.9770192016
-0.26  0.18  18.4701635253
-0.26  0.2  40.9786114838
-0.26  0.22  32.9201903551
-0.26  0.24  26.4464532538
-0.26  0.26  21.2457729485
-0.26  0.28  17.0678035292
-0.26  0.3  13.7114294696
-0.26  0.32  11.0150844998
-0.26  0.34  8.84897426686
-0.26  0.36  7.10882840496
-0.26  0.38  5.71088125777
-0.26  0.4  4.58783963862
-0.26  0.42  3.68564352849
-0.26  0.44  2.96086378101
-0.26  0.46  2.37861156728
-0.26  0.48  1.91085892713
-0.26  0.5  1.5350895832
-0.26  0.52  1.2332150715
-0.26  0.54  0.990704014424
-0.26  0.56  0.795882621675
-0.26  0.58  0.639372747321
-0.26  0.6  0.513640452604
-0.26  0.62  0.412633343628
-0.26  0.64  0.331489226384
-0.26  0.66  0.26630205461
-0.26  0.68  0.213933903865
-0.26  0.7  0.171863920802
-0.26  0.72  0.138066976481
-0.26  0.74  0.110916182441
-0.26  0.76  0.089104576929
-0.26  0.78  0.0715822114951
-0.26  0.8  0.0575056094662
-0.26  0.82  0.0461971633874
-0.26  0.84  0.0371125169328
-0.26  0.86  0.0298143611446
-0.26  0.88  0.0239513836281
-0.26  0.9  0.0192413573753
-0.26  0.92  0.0154575551623
-0.26  0.94  0.0124178355474
-0.26  0.96  0.00997587510202
-0.26  0.98  0.00801412481842
-0.24  -1  0.00748634930917
-0.24  -0.98  0.00931890722575
-0.24  -0.96  0.0116000507451
-0.24  -0.94  0.0144395876072
-0.24  -0.92  0.017974205014
-0.24  -0.9  0.0223740493617
-0.24  -0.88  0.0278509166023
-0.24  -0.86  0.034668447497
-0.24  -0.84  0.0431548185295
-0.24  -0.82  0.0537185393857
-0.24  -0.8  0.0668681174448
-0.24  -0.78  0.0832365358727
-0.24  -0.76  0.103611723626
-0.24  -0.74  0.128974484104
-0.24  -0.72  0.160545708224
-0.24  -0.7  0.199845144629
-0.24  -0.68  0.248764556047
-0.24  -0.66  0.309658783356
-0.24  -0.64  0.3854591009
-0.24  -0.62  0.479814319672
-0.24  -0.6  0.597266430666
-0.24  -0.58  0.743469243362
-0.24  -0.56  0.92546054398
-0.24  -0.54  1.15200087443
-0.24  -0.52  1.43399523979
-0.24  -0.5  1.78501804417
-0.24  -0.48  2.22196652372
-0.24  -0.46  2.76587413146
-0.24  -0.44  3.44292302759
-0.24  -0.42  4.28570441406
-0.24  -0.4  5.33478738198
-0.24  -0.38  6.6406717919
-0.24  -0.36  8.26621919306
-0.24  -0.34  10.2896787989
-0.24  -0.32  12.808454181
-0.24  -0.3  15.9437919991
-0.24  -0.28  19.8466184693
-0.24  -0.26  24.7048045211
-0.24  -0.24  30.7522093686
-0.24  -0.22  38.2799378253
-0.24  -0.2  23.1381607083
-0.24  -0.18  21.4772971768
-0.24  -0.16  19.7410535142
-0.24  -0.14  17.9517990917
-0.24  -0.12  16.1382902472
-0.24  -0.1  14.3392084986
-0.24  -0.08  12.6090909734
-0.24  -0.06  11.0275899093
-0.24  -0.04  9.71071697456
-0.24  -0.02  8.81283081893
-0.24  6.17561557e-16  8.49003327506
-0.24  0.02  8.81283081893
-0.24  0.04  9.71071697456
-0.24  0.06  11.0275899093
-0.24  0.08  12.6090909734
-0.24  0.1  14.3392084986
-0.24  0.12  16.1382902472
-0.24  0.14  17.9517990917
-0.24  0.16  19.7410535142
-0.24  0.18  21.4772971768
-0.24  0.2  47.6503532588
-0.24  0.22  38.2799378253
-0.24  0.24  30.7522093686
-0.24  0.26  24.7048045211
-0.24  0.28  19.8466184693
-0.24  0.3  15.9437919991
-0.24  0.32  12.808454181
-0.24  0.34  10.2896787989
-0.24  0.36  8.26621919306
-0.24  0.38  6.6406717919
-0.24  0.4  5.33478738198
-0.24  0.42  4.28570441406
-0.24  0.44  3.44292302759
-0.24  0.46  2.76587413146
-0.24  0.48  2.22196652372
-0.24  0.5  1.78501804417
-0.24  0.52  1.43399523979
-0.24  0.54  1.15200087443
-0.24  0.56  0.92546054398
-0.24  0.58  0.743469243362
-0.24  0.6  0.597266430666
-0.24  0.62  0.479814319672
-0.24  0.64  0.3854591009
-0.24  0.66  0.309658783356
-0.24  0.68  0.248764556047
-0.24  0.7  0.199845144629
-0.24  0.72  0.160545708224
-0.24  0.74  0.128974484104
-0.24  0.76  0.103611723626
-0.24  0.78  0.0832365358727
-0.24  0.8  0.0668681174448
-0.24  0.82  0.0537185393857
-0.24  0.84  0.0431548185295
-0.24  0.86  0.034668447497
-0.24  0.88  0.0278509166023
-0.24  0.9  0.0223740493617
-0.24  0.92  0.017974205014
-0.24  0.94  0.0144395876072
-0.24  0.96  0.0116000507451
-0.24  0.98  0.00931890722575
-0.22  -1  0.00870520440503
-0.22  -0.98  0.0108361217038
-0.22  -0.96  0.0134886589811
-0.22  -0.94  0.0167905018125
-0.22  -0.92  0.0209005914903
-0.22  -0.9  0.0260167760036
-0.22  -0.88  0.0323853338761
-0.22  -0.86  0.0403128293114
-0.22  -0.84  0.0501808693191
-0.22  -0.82  0.0624644731871
-0.22  -0.8  0.077754938555
-0.22  -0.78  0.096788304795
-0.22  -0.76  0.120480783847
-0.22  -0.74  0.149972864048
-0.22  -0.72  0.186684209983
-0.22  -0.7  0.232382001093
-0.22  -0.68  0.289265998644
-0.22  -0.66  0.360074435964
-0.22  -0.64  0.448215829176
-0.22  -0.62  0.557933053443
-0.22  -0.6  0.694507582867
-0.22  -0.58  0.864513725587
-0.22  -0.56  1.07613509221
-0.22  -0.54  1.33955853147
-0.22  -0.52  1.66746449607
-0.22  -0.5  2.07563744348
-0.22  -0.48  2.5837256547
-0.22  -0.46  3.21618704639
-0.22  -0.44  4.00346650526
-0.22  -0.42  4.983461418
-0.22  -0.4  6.20334594334
-0.22  -0.38  7.72184184144
-0.22  -0.36  9.61204517189
-0.22  -0.34  11.9649449294
-0.22  -0.32  14.8938029944
-0.22  -0.3  18.5396062369
-0.22  -0.28  23.0778532217
-0.22  -0.26  28.7270022091
-0.22  -0.24  35.7589871117
-0.22  -0.22  44.5123076173
-0.22  -0.2  26.9052925804
-0.22  -0.18  24.9740232883
-0.22  -0.16  22.9551012001
-0.22  -0.14  20.8745376521
-0.22  -0.12  18.7657708114
-0.22  -0.1  16.6737799468
-0.22  -0.08  14.6619813947
-0.22  -0.06  12.8229956005
-0.22  -0.04  11.2917221321
-0.22  -0.02  10.2476508238
-0.22  6.17561557e-16  9.87229850127
-0.22  0.02  10.2476508238
-0.22  0.04  11.2917221321
-0.22  0.06  12.8229956005
-0.22  0.08  14.6619813947
-0.22  0.1  16.6737799468
-0.22  0.12  18.7657708114
-0.22  0.14  20.8745376521
-0.22  0.16  22.9551012001
-0.22  0.18  24.9740232883
-0.22  0.2  55.4083235979
-0.22  0.22  44.5123076173
-0.22  0.24  35.7589871117
-0.22  0.26  28.7270022091
-0.22  0.28  23.0778532217
-0.22  0.3  18.5396062369
-0.22  0.32  14.8938029944
-0.22  0.34  11.9649449294
-0.22  0.36  9.61204517189
-0.22  0.38  7.72184184144
-0.22  0.4  6.20334594334
-0.22  0.42  4.983461418
-0.22  0.44  4.00346650526
-0.22  0.46  3.21618704639
-0.22  0.48  2.5837256547
-0.22  0.5  2.07563744348
-0.22  0.52  1.66746449607
-0.22  0.54  1.33955853147
-0.22  0.56  1.07613509221
-0.22  0.58  0.864513725587
-0.22  0.6  0.694507582867
-0.22  0.62  0.557933053443
-0.22  0.64  0.448215829176
-0.22  0.66  0.360074435964
-0.22  0.68  0.289265998644
-0.22  0.7  0.232382001093
-0.22  0.72  0.186684209983
-0.22  0.74  0.149972864048
-0.22  0.76  0.120480783847
-0.22  0.78  0.096788304795
-0.22  0.8  0.077754938555
-0.22  0.82  0.0624644731871
-0.22  0.84  0.0501808693191
-0.22  0.86  0.0403128293114
-0.22  0.88  0.0323853338761
-0.22  0.9  0.0260167760036
-0.22  0.92  0.0209005914903
-0.22  0.94  0.0167905018125
-0.22  0.96  0.0134886589811
-0.22  0.98  0.0108361217038
-0.2  -1  0.0101225017166
-0.2  -0.98  0.0126003543909
-0.2  -0.96  0.0156847521711
-0.2  -0.94  0.0195241691651
-0.2  -0.92  0.0243034239514
-0.2  -0.9  0.0302525762181
-0.2  -0.88  0.0376580011797
-0.2  -0.86  0.0468761748628
-0.2  -0.84  0.058350833845
-0.2  -0.82  0.0726343354671
-0.2  -0.8  0.0904142467401
-0.2  -0.78  0.112546441858
-0.2  -0.76  0.140096301542
-0.2  -0.74  0.174389997424
-0.2  -0.72  0.217078330168
-0.2  -0.7  0.270216194305
-0.2  -0.68  0.336361494986
-0.2  -0.66  0.418698278245
-0.2  -0.64  0.521190001883
-0.2  -0.62  0.648770325022
-0.2  -0.6  0.807580600372
-0.2  -0.58  1.00526550143
-0.2  -0.56  1.25134101526
-0.2  -0.54  1.55765251491
-0.2  -0.52  1.93894496195
-0.2  -0.5  2.41357268677
-0.2  -0.48  3.00438291372
-0.2  -0.46  3.73981556128
-0.2  -0.44  4.65527225857
-0.2  -0.42  5.7948204788
-0.2  -0.4  7.21331482164
-0.2  -0.38  8.97903755715
-0.2  -0.36  11.1769855394
-0.2  -0.34  13.9129617126
-0.2  -0.32  17.3186681626
-0.2  -0.3  21.55804588
-0.2  -0.28  26.8351664112
-0.2  -0.26  33.4040552806
-0.2  -0.24  41.5809200544
-0.2  -0.22  51.7593716704
-0.2  -0.2  31.2857524832
-0.2  -0.18  29.0400525759
-0.2  -0.16  26.692429091
-0.2  -0.14  24.2731282789
-0.2  -0.12  21.8210323863
-0.2  -0.1  19.3884437724
-0.2  -0.08  17.0491036087
-0.2  -0.06  14.9107119074
-0.2  -0.04  13.130131281
-0.2  -0.02  11.9160743653
-0.2  6.17561557e-16  11.4796108025
-0.2  0.02  11.9160743653
-0.2  0.04  13.130131281
-0.2  0.06  14.9107119074
-0.2  0.08  17.0491036087
-0.2  0.1  19.3884437724
-0.2  0.12  21.8210323863
-0.2  0.14  24.2731282789
-0.2  0.16  26.692429091
-0.2  0.18  29.0400525759
-0.2  0.2  64.4293717459
-0.2  0.22  51.7593716704
-0.2  0.24  41.5809200544
-0.2  0.26  33.4040552806
-0.2  0.28  26.8351664112
-0.2  0.3  21.55804588
-0.2  0.32  17.3186681626
-0.2  0.34  13.9129617126
-0.2  0.36  11.1769855394
-0.2  0.38  8.97903755715
-0.2  0.4  7.21331482164
-0.2  0.42  5.7948204788
-0.2  0.44  4.65527225857
-0.2  0.46  3.73981556128
-0.2  0.48  3.00438291372
-0.2  0.5  2.41357268677
-0.2  0.52  1.93894496195
-0.2  0.54  1.55765251491
-0.2  0.56  1.25134101526
-0.2  0.58  1.00526550143
-0.2  0.6  0.807580600372
-0.2  0.62  0.648770325022
-0.2  0.64  0.521190001883
-0.2  0.66  0.418698278245
-0.2  0.68  0.336361494986
-0.2  0.7  0.270216194305
-0.2  0.72  0.217078330168
-0.2  0.74  0.174389997424
-0.2  0.76  0.140096301542
-0.2  0.78  0.112546441858
-0.2  0.8  0.0904142467401
-0.2  0.82  0.0726343354671
-0.2  0.84  0.058350833845
-0.2  0.86  0.0468761748628
-0.2  0.88  0.0376580011797
-0.2  0.9  0.0302525762181
-0.2  0.92  0.0243034239514
-0.2  0.94  0.0195241691651
-0.2  0.96  0.0156847521711
-0.2  0.98  0.0126003543909
-0.18  -1  0.0117705496891
-0.18  -0.98  0.0146518224062
-0.18  -0.96  0.0182383920456
-0.18  -0.94  0.0227029058358
-0.18  -0.92  0.0282602727313
-0.18  -0.9  0.0351780085167
-0.18  -0.88  0.0437891132534
-0.18  -0.86  0.0545081009521
-0.18  -0.84  0.0678509530943
-0.18  -0.82  0.0844599565091
-0.18  -0.8  0.105134621228
-0.18  -0.78  0.130870166616
-0.18  -0.76  0.162905428393
-0.18  -0.74  0.202782492651
-0.18  -0.72  0.252420927474
-0.18  -0.7  0.314210185476
-0.18  -0.68  0.391124625223
-0.18  -0.66  0.486866688372
-0.18  -0.64  0.60604512465
-0.18  -0.62  0.754396843908
-0.18  -0.6  0.939063074597
-0.18  -0.58  1.16893312213
-0.18  -0.56  1.45507227466
-0.18  -0.54  1.81125445452
-0.18  -0.52  2.25462525549
-0.18  -0.5  2.8065272828
-0.18  -0.48  3.49352752521
-0.18  -0.46  4.34869621408
-0.18  -0.44  5.41319872989
-0.18  -0.42  6.73827718627
-0.18  -0.4  8.38771707904
