-0.14  -0.6  0.779719977157
-0.14  -0.58  0.993579844995
-0.14  -0.56  1.26609672357
-0.14  -0.54  1.61335892782
-0.14  -0.52  2.05586744009
-0.14  -0.5  2.61974620671
-0.14  -0.48  3.33828439215
-0.14  -0.46  4.25390163914
-0.14  -0.44  5.42065235605
-0.14  -0.42  6.90741687462
-0.14  -0.4  8.80196787136
-0.14  -0.38  11.216152118
-0.14  -0.36  14.2924934712
-0.14  -0.34  18.2126069149
-0.14  -0.32  23.2079203889
-0.14  -0.3  29.5733373751
-0.14  -0.28  37.6846468296
-0.14  -0.26  48.0207082703
-0.14  -0.24  61.1917217431
-0.14  -0.22  77.9752516103
-0.14  -0.2  42.6786094095
-0.14  -0.18  38.9490045409
-0.14  -0.16  35.2258715829
-0.14  -0.14  31.5310789747
-0.14  -0.12  27.8956600093
-0.14  -0.1  24.3660442833
-0.14  -0.08  21.0152803168
-0.14  -0.06  17.9627672256
-0.14  -0.04  15.4043101938
-0.14  -0.02  13.6352032706
-0.14  6.17561557e-16  12.9910952277
-0.14  0.02  13.6352032706
-0.14  0.04  15.4043101938
-0.14  0.06  17.9627672256
-0.14  0.08  21.0152803168
-0.14  0.1  24.3660442833
-0.14  0.12  27.8956600092
-0.14  0.14  31.5310789747
-0.14  0.16  35.2258715829
-0.14  0.18  38.9490045409
-0.14  0.2  99.362130865
-0.14  0.22  77.9752516103
-0.14  0.24  61.1917217431
-0.14  0.26  48.0207082703
-0.14  0.28  37.6846468296
-0.14  0.3  29.5733373751
-0.14  0.32  23.2079203889
-0.14  0.34  18.2126069149
-0.14  0.36  14.2924934712
-0.14  0.38  11.216152118
-0.14  0.4  8.80196787136
-0.14  0.42  6.90741687462
-0.14  0.44  5.42065235605
-0.14  0.46  4.25390163914
-0.14  0.48  3.33828439215
-0.14  0.5  2.61974620671
-0.14  0.52  2.05586744009
-0.14  0.54  1.61335892782
-0.14  0.56  1.26609672357
-0.14  0.58  0.993579844995
-0.14  0.6  0.779719977157
-0.14  0.62  0.611891682225
-0.14  0.64  0.48018704374
-0.14  0.66  0.376830742554
-0.14  0.68  0.295721032846
-0.14  0.7  0.232069519261
-0.14  0.72  0.182118469058
-0.14  0.74  0.142918970478
-0.14  0.76  0.112156840698
-0.14  0.78  0.0880160056667
-0.14  0.8  0.0690712862923
-0.14  0.82  0.0542042615311
-0.14  0.84  0.0425372412452
-0.14  0.86  0.0333814508608
-0.14  0.88  0.0261963688513
-0.14  0.9  0.0205578164908
-0.14  0.92  0.0161329160262
-0.14  0.94  0.0126604388956
-0.14  0.96  0.00993538383069
-0.14  0.98  0.0077968743957
-0.12  -1  0.00724253932743
-0.12  -0.98  0.00922900696805
-0.12  -0.96  0.0117603185521
-0.12  -0.94  0.0149859126691
-0.12  -0.92  0.0190962155941
-0.12  -0.9  0.024333883299
-0.12  -0.88  0.0310081268976
-0.12  -0.86  0.0395129672435
-0.12  -0.84  0.0503504963566
-0.12  -0.82  0.0641605189439
-0.12  -0.8  0.0817583239299
-0.12  -0.78  0.104182815879
-0.12  -0.76  0.132757847797
-0.12  -0.74  0.169170376161
-0.12  -0.72  0.215570052132
-0.12  -0.7  0.274696128428
-0.12  -0.68  0.350039173933
-0.12  -0.66  0.446047143036
-0.12  -0.64  0.568387965194
-0.12  -0.62  0.724284157003
-0.12  -0.6  0.922939210908
-0.12  -0.58  1.17608093287
-0.12  -0.56  1.49865380549
-0.12  -0.54  1.90970125094
-0.12  -0.52  2.43348987903
-0.12  -0.5  3.10094209157
-0.12  -0.48  3.9514616182
-0.12  -0.46  5.03525975623
-0.12  -0.44  6.41631964637
-0.12  -0.42  8.17617358339
-0.12  -0.4  10.4187163592
-0.12  -0.38  13.2763387992
-0.12  -0.36  16.9177435908
-0.12  -0.34  21.5579048211
-0.12  -0.32  27.4707591931
-0.12  -0.3  35.0053781621
-0.12  -0.28  44.6065757287
-0.12  -0.26  56.8411684921
-0.12  -0.24  72.4314382525
-0.12  -0.22  92.2977726619
-0.12  -0.2  50.5178310741
-0.12  -0.18  46.1031710995
-0.12  -0.16  41.6961717985
-0.12  -0.14  37.3227184124
-0.12  -0.12  33.0195444403
-0.12  -0.1  28.841607683
-0.12  -0.08  24.8753742379
-0.12  -0.06  21.2621744917
-0.12  -0.04  18.2337791917
-0.12  -0.02  16.1397221
-0.12  6.17561557e-16  15.3773040701
-0.12  0.02  16.1397221
-0.12  0.04  18.2337791917
-0.12  0.06  21.2621744917
-0.12  0.08  24.8753742379
-0.12  0.1  28.841607683
-0.12  0.12  33.0195444403
-0.12  0.14  37.3227184124
-0.12  0.16  41.6961717985
-0.12  0.18  46.1031710995
-0.12  0.2  117.613001259
-0.12  0.22  92.2977726619
-0.12  0.24  72.4314382525
-0.12  0.26  56.8411684921
-0.12  0.28  44.6065757287
-0.12  0.3  35.0053781621
-0.12  0.32  27.4707591931
-0.12  0.34  21.5579048211
-0.12  0.36  16.9177435908
-0.12  0.38  13.2763387992
-0.12  0.4  10.4187163592
-0.12  0.42  8.17617358339
-0.12  0.44  6.41631964637
-0.12  0.46  5.03525975623
-0.12  0.48  3.9514616182
-0.12  0.5  3.10094209157
-0.12  0.52  2.43348987903
-0.12  0.54  1.90970125094
-0.12  0.56  1.49865380549
-0.12  0.58  1.17608093287
-0.12  0.6  0.922939210908
-0.12  0.62  0.724284157003
-0.12  0.64  0.568387965194
-0.12  0.66  0.446047143036
-0.12  0.68  0.350039173933
-0.12  0.7  0.274696128428
-0.12  0.72  0.215570052132
-0.12  0.74  0.169170376161
-0.12  0.76  0.132757847797
-0.12  0.78  0.104182815879
-0.12  0.8  0.0817583239299
-0.12  0.82  0.0641605189439
-0.12  0.84  0.0503504963566
-0.12  0.86  0.0395129672434
-0.12  0.88  0.0310081268976
-0.12  0.9  0.024333883299
-0.12  0.92  0.0190962155941
-0.12  0.94  0.0149859126691
-0.12  0.96  0.011760318552
-0.12  0.98  0.00922900696805
-0.1  -1  0.00857285144367
-0.1  -0.98  0.0109241941442
-0.1  -0.96  0.0139204579111
-0.1  -0.94  0.0177385302657
-0.1  -0.92  0.0226038150466
-0.1  -0.9  0.028803539358
-0.1  -0.88  0.0367037103178
-0.1  -0.86  0.0467707226654
-0.1  -0.84  0.0595988928559
-0.1  -0.82  0.0759455451449
-0.1  -0.8  0.0967757210071
-0.1  -0.78  0.123319151355
-0.1  -0.76  0.15714285497
-0.1  -0.74  0.200243649076
-0.1  -0.72  0.255166033498
-0.1  -0.7  0.325152407836
-0.1  -0.68  0.41433448987
-0.1  -0.66  0.527977235779
-0.1  -0.64  0.672789662256
-0.1  -0.62  0.857320920229
-0.1  -0.6  1.0924650028
-0.1  -0.58  1.39210388338
-0.1  -0.56  1.77392705225
-0.1  -0.54  2.26047583395
-0.1  -0.52  2.88047413752
-0.1  -0.5  3.67052420216
-0.1  -0.48  4.67726744815
-0.1  -0.46  5.96013800118
-0.1  -0.44  7.59487144724
-0.1  -0.42  9.67797596108
-0.1  -0.4  12.3324297658
-0.1  -0.38  15.714941279
-0.1  -0.36  20.025200556
-0.1  -0.34  25.5176681979
-0.1  -0.32  32.5165976959
-0.1  -0.3  41.4351780703
-0.1  -0.28  52.7999269103
-0.1  -0.26  67.2817738831
-0.1  -0.24  85.7356697585
-0.1  -0.22  109.251059309
-0.1  -0.2  59.7969636718
-0.1  -0.18  54.5714174338
-0.1  -0.16  49.3549389845
-0.1  -0.14  44.1781681753
-0.1  -0.12  39.084585727
-0.1  -0.1  34.1392441082
-0.1  -0.08  29.444491539
-0.1  -0.06  25.1676180199
-0.1  -0.04  21.5829660289
-0.1  -0.02  19.1042718099
-0.1  6.17561557e-16  18.2018125739
-0.1  0.02  19.1042718099
-0.1  0.04  21.5829660289
-0.1  0.06  25.1676180198
-0.1  0.08  29.444491539
-0.1  0.1  34.1392441082
-0.1  0.12  39.084585727
-0.1  0.14  44.1781681753
-0.1  0.16  49.3549389845
-0.1  0.18  54.5714174338
-0.1  0.2  139.216197807
-0.1  0.22  109.251059309
-0.1  0.24  85.7356697585
-0.1  0.26  67.2817738831
-0.1  0.28  52.7999269102
-0.1  0.3  41.4351780703
-0.1  0.32  32.5165976959
-0.1  0.34  25.5176681979
-0.1  0.36  20.025200556
-0.1  0.38  15.714941279
-0.1  0.4  12.3324297658
-0.1  0.42  9.67797596108
-0.1  0.44  7.59487144724
-0.1  0.46  5.96013800118
-0.1  0.48  4.67726744815
-0.1  0.5  3.67052420216
-0.1  0.52  2.88047413752
-0.1  0.54  2.26047583395
-0.1  0.56  1.77392705225
-0.1  0.58  1.39210388338
-0.1  0.6  1.0924650028
-0.1  0.62  0.857320920229
-0.1  0.64  0.672789662256
-0.1  0.66  0.527977235779
-0.1  0.68  0.41433448987
-0.1  0.7  0.325152407836
-0.1  0.72  0.255166033498
-0.1  0.74  0.200243649076
-0.1  0.76  0.15714285497
-0.1  0.78  0.123319151355
-0.1  0.8  0.0967757210071
-0.1  0.82  0.0759455451449
-0.1  0.84  0.0595988928559
-0.1  0.86  0.0467707226654
-0.1  0.88  0.0367037103178
-0.1  0.9  0.028803539358
-0.1  0.92  0.0226038150466
-0.1  0.94  0.0177385302657
-0.1  0.96  0.0139204579111
-0.1  0.98  0.0109241941442
-0.08  -1  0.0101475157473
-0.08  -0.98  0.0129307538842
-0.08  -0.96  0.016477372411
-0.08  -0.94  0.0209967496097
-0.08  -0.92  0.0267556915736
-0.08  -0.9  0.0340941833802
-0.08  -0.88  0.0434454604609
-0.08  -0.86  0.0553615851011
-0.08  -0.84  0.070546038007
-0.08  -0.82  0.0898952490143
-0.08  -0.8  0.114551518748
-0.08  -0.78  0.145970455517
-0.08  -0.76  0.186006908653
-0.08  -0.74  0.237024471454
-0.08  -0.72  0.302035018348
-0.08  -0.7  0.384876514011
-0.08  -0.68  0.490439591566
-0.08  -0.66  0.624956276154
-0.08  -0.64  0.796367898964
-0.08  -0.62  1.01479392191
-0.08  -0.6  1.2931293505
-0.08  -0.58  1.64780600378
-0.08  -0.56  2.09976258372
-0.08  -0.54  2.67568081309
-0.08  -0.52  3.40956061843
-0.08  -0.5  4.34472735085
-0.08  -0.48  5.53638954275
-0.08  -0.46  7.05489820046
-0.08  -0.44  8.9899000485
-0.08  -0.42  11.4556299164
-0.08  -0.4  14.5976547095
-0.08  -0.38  18.6014671015
-0.08  -0.36  23.7034362859
-0.08  -0.34  30.2047622746
-0.08  -0.32  38.4892575515
-0.08  -0.3  49.0460058384
-0.08  -0.28  62.4982356566
-0.08  -0.26  79.6401132654
-0.08  -0.24  101.483627086
-0.08  -0.22  129.318331483
-0.08  -0.2  70.7804905387
-0.08  -0.18  64.5951141693
-0.08  -0.16  58.420471163
-0.08  -0.14  52.29282931
-0.08  -0.12  46.2636558846
-0.08  -0.1  40.4099522153
-0.08  -0.08  34.8528658784
-0.08  -0.06  29.7904147594
-0.08  -0.04  25.5473326571
-0.08  -0.02  22.6133510309
-0.08  6.17561557e-16  21.5451277717
-0.08  0.02  22.6133510309
-0.08  0.04  25.5473326571
-0.08  0.06  29.7904147594
-0.08  0.08  34.8528658784
-0.08  0.1  40.4099522153
-0.08  0.12  46.2636558846
-0.08  0.14  52.29282931
-0.08  0.16  58.420471163
-0.08  0.18  64.5951141692
-0.08  0.2  164.787476933
-0.08  0.22  129.318331483
-0.08  0.24  101.483627086
-0.08  0.26  79.6401132654
-0.08  0.28  62.4982356566
-0.08  0.3  49.0460058384
-0.08  0.32  38.4892575515
-0.08  0.34  30.2047622746
-0.08  0.36  23.7034362859
-0.08  0.38  18.6014671015
-0.08  0.4  14.5976547095
-0.08  0.42  11.4556299164
-0.08  0.44  8.9899000485
-0.08  0.46  7.05489820046
-0.08  0.48  5.53638954275
-0.08  0.5  4.34472735085
-0.08  0.52  3.40956061843
-0.08  0.54  2.67568081309
-0.08  0.56  2.09976258372
-0.08  0.58  1.64780600378
-0.08  0.6  1.2931293505
-0.08  0.62  1.01479392191
-0.08  0.64  0.796367898964
-0.08  0.66  0.624956276154
-0.08  0.68  0.490439591566
-0.08  0.7  0.384876514011
-0.08  0.72  0.302035018348
-0.08  0.74  0.237024471454
-0.08  0.76  0.186006908653
-0.08  0.78  0.145970455517
-0.08  0.8  0.114551518748
-0.08  0.82  0.0898952490143
-0.08  0.84  0.070546038007
-0.08  0.86  0.0553615851011
-0.08  0.88  0.0434454604609
-0.08  0.9  0.0340941833802
-0.08  0.92  0.0267556915736
-0.08  0.94  0.0209967496097
-0.08  0.96  0.016477372411
-0.08  0.98  0.0129307538842
-0.06  -1  0.0120114149321
-0.06  -0.98  0.0153058792079
-0.06  -0.96  0.0195039418463
-0.06  -0.94  0.0248534398042
-0.06  -0.92  0.03167018621
-0.06  -0.9  0.0403566147173
-0.06  -0.88  0.0514255375904
-0.06  -0.86  0.0655304201056
-0.06  -0.84  0.0835039585471
-0.06  -0.82  0.106407239291
-0.06  -0.8  0.135592381135
-0.06  -0.78  0.172782359023
-0.06  -0.76  0.22017272165
-0.06  -0.74  0.280561207944
-0.06  -0.72  0.357512914466
-0.06  -0.7  0.455570764563
-0.06  -0.68  0.580523704533
-0.06  -0.66  0.739748460041
-0.06  -0.64  0.942645028722
-0.06  -0.62  1.20119161874
-0.06  -0.6  1.53065179464
-0.06  -0.58  1.95047557766
-0.06  -0.56  2.48544769775
-0.06  -0.54  3.16715078569
-0.06  -0.52  4.03582988625
-0.06  -0.5  5.14276836593
-0.06  -0.48  6.55331547935
-0.06  -0.46  8.35074432992
-0.06  -0.44  10.6411679834
-0.06  -0.42  13.5598039619
-0.06  -0.4  17.2789569504
-0.06  -0.38  22.0181909806
-0.06  -0.36  28.0572916206
-0.06  -0.34  35.7527834044
-0.06  -0.32  45.558977625
-0.06  -0.3  58.0547930704
-0.06  -0.28  73.9779330913
-0.06  -0.26  94.2684366788
-0.06  -0.24  120.124174636
-0.06  -0.22  153.071567116
-0.06  -0.2  83.7814754004
-0.06  -0.18  76.4599669708
-0.06  -0.16  69.1511634121
-0.06  -0.14  61.8979941946
-0.06  -0.12  54.7613801194
-0.06  -0.1  47.8324661456
-0.06  -0.08  41.2546522779
-0.06  -0.06  35.262328395
-0.06  -0.04  30.2398755118
-0.06  -0.02  26.7669791308
-0.06  6.17561557e-16  25.5025442558
-0.06  0.02  26.7669791308
-0.06  0.04  30.2398755118
-0.06  0.06  35.262328395
-0.06  0.08  41.2546522779
-0.06  0.1  47.8324661456
-0.06  0.12  54.7613801194
-0.06  0.14  61.8979941946
-0.06  0.16  69.1511634121
-0.06  0.18  76.4599669708
-0.06  0.2  195.055697408
-0.06  0.22  153.071567116
-0.06  0.24  120.124174636
-0.06  0.26  94.2684366788
-0.06  0.28  73.9779330913
-0.06  0.3  58.0547930704
-0.06  0.32  45.558977625
-0.06  0.34  35.7527834044
-0.06  0.36  28.0572916206
-0.06  0.38  22.0181909806
-0.06  0.4  17.2789569504
-0.06  0.42  13.5598039619
-0.06  0.44  10.6411679834
-0.06  0.46  8.35074432992
-0.06  0.48  6.55331547935
-0.06  0.5  5.14276836593
-0.06  0.52  4.03582988625
-0.06  0.54  3.16715078569
-0.06  0.56  2.48544769775
-0.06  0.58  1.95047557766
-0.06  0.6  1.53065179464
-0.06  0.62  1.20119161874
-0.06  0.64  0.942645028722
-0.06  0.66  0.739748460041
-0.06  0.68  0.580523704533
-0.06  0.7  0.455570764562
-0.06  0.72  0.357512914466
-0.06  0.74  0.280561207944
-0.06  0.76  0.22017272165
-0.06  0.78  0.172782359023
-0.06  0.8  0.135592381135
-0.06  0.82  0.106407239291
-0.06  0.84  0.0835039585471
-0.06  0.86  0.0655304201056
-0.06  0.88  0.0514255375904
-0.06  0.9  0.0403566147173
-0.06  0.92  0.03167018621
-0.06  0.94  0.0248534398042
-0.06  0.96  0.0195039418463
-0.06  0.98  0.0153058792079
-0.04  -1  0.0142176757606
-0.04  -0.98  0.0181172683684
-0.04  -0.96  0.0230864325971
-0.04  -0.94  0.029418528181
-0.04  -0.92  0.0374873769126
-0.04  -0.9  0.0477693315976
-0.04  -0.88  0.0608713980335
-0.04  -0.86  0.0775670702234
-0.04  -0.84  0.0988419943916
-0.04  -0.82  0.125952157625
-0.04  -0.8  0.160498036367
-0.04  -0.78  0.204519082193
-0.04  -0.76  0.260614122937
-0.04  -0.74  0.332094787177
-0.04  -0.72  0.423181009635
-0.04  -0.7  0.539250159385
-0.04  -0.68  0.687154498374
-0.04  -0.66  0.875625711772
-0.04  -0.64  1.11579039202
-0.04  -0.62  1.42182690866
-0.04  -0.6  1.81180244306
-0.04  -0.58  2.30873960304
-0.04  -0.56  2.94197558626
-0.04  -0.54  3.74889413201
-0.04  -0.52  4.77713250872
-0.04  -0.5  6.08739382931
-0.04  -0.48  7.75703072197
-0.04  -0.46  9.88461192241
-0.04  -0.44  12.5957413808
-0.04  -0.42  16.0504734204
-0.04  -0.4  20.4527617097
-0.04  -0.38  26.0624998776
-0.04  -0.36  33.2108646016
-0.04  -0.34  42.3198669647
-0.04  -0.32  53.9272663146
-0.04  -0.3  68.7183174416
-0.04  -0.28  87.5662253015
-0.04  -0.26  111.583695571
-0.04  -0.24  142.188624375
-0.04  -0.22  181.187805244
-0.04  -0.2  99.170485636
-0.04  -0.18  90.5041600182
-0.04  -0.16  81.8528729065
-0.04  -0.14  73.2674390709
-0.04  -0.12  64.8199692663
-0.04  -0.1  56.6183499891
-0.04  -0.08  48.8323210064
-0.04  -0.06  41.7393250103
-0.04  -0.04  35.7943462531
-0.04  -0.02  31.6835470696
-0.04  6.17561557e-16  30.1868603616
-0.04  0.02  31.6835470696
-0.04  0.04  35.7943462531
-0.04  0.06  41.7393250103
-0.04  0.08  48.8323210064
-0.04  0.1  56.6183499891
-0.04  0.12  64.8199692663
-0.04  0.14  73.2674390709
-0.04  0.16  81.8528729065
-0.04  0.18  90.5041600182
-0.04  0.2  230.883595038
-0.04  0.22  181.187805244
-0.04  0.24  142.188624375
-0.04  0.26  111.583695571
-0.04  0.28  87.5662253015
-0.04  0.3  68.7183174416
-0.04  0.32  53.9272663146
-0.04  0.34  42.3198669647
-0.04  0.36  33.2108646016
-0.04  0.38  26.0624998776
-0.04  0.4  20.4527617097
-0.04  0.42  16.0504734204
-0.04  0.44  12.5957413808
-0.04  0.46  9.88461192241
-0.04  0.48  7.75703072197
-0.04  0.5  6.08739382931
-0.04  0.52  4.77713250872
-0.04  0.54  3.74889413201
-0.04  0.56  2.94197558626
-0.04  0.58  2.30873960303
-0.04  0.6  1.81180244306
-0.04  0.62  1.42182690866
-0.04  0.64  1.11579039202
-0.04  0.66  0.875625711772
-0.04  0.68  0.687154498374
-0.04  0.7  0.539250159385
-0.04  0.72  0.423181009635
-0.04  0.74  0.332094787177
-0.04  0.76  0.260614122937
-0.04  0.78  0.204519082193
-0.04  0.8  0.160498036367
-0.04  0.82  0.125952157625
-0.04  0.84  0.0988419943916
-0.04  0.86  0.0775670702234
-0.04  0.88  0.0608713980335
-0.04  0.9  0.0477693315976
-0.04  0.92  0.0374873769126
-0.04  0.94  0.029418528181
-0.04  0.96  0.0230864325971
-0.04  0.98  0.0181172683684
-0.02  -1  0.0168291833374
-0.02  -0.98  0.0214450544575
-0.02  -0.96  0.0273269564819
-0.02  -0.94  0.0348221335619
-0.02  -0.92  0.0443730712055
-0.02  -0.9  0.0565436188656
-0.02  -0.88  0.0720522773737
-0.02  -0.86  0.0918146163773
-0.02  -0.84  0.116997325939
-0.02  -0.82  0.149087093285
-0.02  -0.8  0.189978370924
-0.02  -0.78  0.242085217597
-0.02  -0.76  0.308483814731
-0.02  -0.74  0.393094071978
-0.02  -0.72  0.500911043126
-0.02  -0.7  0.638299814248
-0.02  -0.68  0.813371273124
-0.02  -0.66  1.03646094386
-0.02  -0.64  1.32073915523
-0.02  -0.62  1.68298856458
-0.02  -0.6  2.14459493935
-0.02  -0.58  2.73280968789
-0.02  -0.56  3.48235867445
-0.02  -0.54  4.43749229638
-0.02  -0.52  5.65459785201
-0.02  -0.5  7.2055284229
-0.02  -0.48  9.18184479462
-0.02  -0.46  11.7002208422
-0.02  -0.44  14.9093314925
-0.02  -0.42  18.9986299021
-0.02  -0.4  24.2095320195
-0.02  -0.38  30.8496688247
-0.02  -0.36  39.3110476414
-0.02  -0.34  50.0931946935
-0.02  -0.32  63.8326451508
-0.02  -0.3  81.3405216392
-0.02  -0.28  103.650419702
-0.02  -0.26  132.079427176
-0.02  -0.24  168.305879835
-0.02  -0.22  214.468443669
-0.02  -0.2  117.386154568
-0.02  -0.18  107.127995278
-0.02  -0.16  96.8876367722
-0.02  -0.14  86.725227495
-0.02  -0.12  76.7261235294
-0.02  -0.1  67.0180280008
-0.02  -0.08  57.8018585348
-0.02  -0.06  49.4060185932
-0.02  -0.04  42.3690640918
-0.02  -0.02  37.5031918995
-0.02  6.17561557e-16  35.7315932618
-0.02  0.02  37.5031918995
-0.02  0.04  42.3690640918
-0.02  0.06  49.4060185932
-0.02  0.08  57.8018585348
-0.02  0.1  67.0180280008
-0.02  0.12  76.7261235294
-0.02  0.14  86.725227495
-0.02  0.16  96.8876367722
-0.02  0.18  107.127995278
-0.02  0.2  273.292373235
-0.02  0.22  214.468443669
-0.02  0.24  168.305879835
-0.02  0.26  132.079427176
-0.02  0.28  103.650419702
-0.02  0.3  81.3405216392
-0.02  0.32  63.8326451508
-0.02  0.34  50.0931946935
-0.02  0.36  39.3110476414
-0.02  0.38  30.8496688247
-0.02  0.4  24.2095320195
-0.02  0.42  18.9986299021
-0.02  0.44  14.9093314925
-0.02  0.46  11.7002208422
-0.02  0.48  9.18184479462
-0.02  0.5  7.2055284229
-0.02  0.52  5.65459785201
-0.02  0.54  4.43749229638
-0.02  0.56  3.48235867445
-0.02  0.58  2.73280968789
-0.02  0.6  2.14459493935
-0.02  0.62  1.68298856458
-0.02  0.64  1.32073915523
-0.02  0.66  1.03646094386
-0.02  0.68  0.813371273124
-0.02  0.7  0.638299814248
-0.02  0.72  0.500911043126
-0.02  0.74  0.393094071978
-0.02  0.76  0.308483814731
-0.02  0.78  0.242085217597
-0.02  0.8  0.189978370924
-0.02  0.82  0.149087093285
-0.02  0.84  0.116997325939
-0.02  0.86  0.0918146163773
-0.02  0.88  0.0720522773737
-0.02  0.9  0.0565436188656
-0.02  0.92  0.0443730712055
-0.02  0.94  0.0348221335619
-0.02  0.96  0.0273269564819
-0.02  0.98  0.0214450544575
2.8449465e-16  -1  0.0189092087655
2.8449465e-16  -0.98  0.0240955846516
2.8449465e-16  -0.96  0.0307044682252
2.8449465e-16  -0.94  0.0391260217432
2.8449465e-16  -0.92  0.0498574203018
2.8449465e-16  -0.9  0.0635322030813
2.8449465e-16  -0.88  0.0809576749846
2.8449465e-16  -0.86  0.103162566715
2.8449465e-16  -0.84  0.131457766953
2.8449465e-16  -0.82  0.167513712023
2.8449465e-16  -0.8  0.213459001824
2.8449465e-16  -0.78  0.272006063919
2.8449465e-16  -0.76  0.346611284491
2.8449465e-16  -0.74  0.441679059671
2.8449465e-16  -0.72  0.562821813602
2.8449465e-16  -0.7  0.717191333685
2.8449465e-16  -0.68  0.913900983725
2.8449465e-16  -0.66  1.16456372076
2.8449465e-16  -0.64  1.48397767796
2.8449465e-16  -0.62  1.89099978766
2.8449465e-16  -0.6  2.40965901984
2.8449465e-16  -0.58  3.07057495712
2.8449465e-16  -0.56  3.91276545339
2.8449465e-16  -0.54  4.98595009307
2.8449465e-16  -0.52  6.35348543805
2.8449465e-16  -0.5  8.09610534762
2.8449465e-16  -0.48  10.3166871851
2.8449465e-16  -0.46  13.1463252893
2.8449465e-16  -0.44  16.7520702635
2.8449465e-16  -0.42  21.3467909805
2.8449465e-16  -0.4  27.2017415161
2.8449465e-16  -0.38  34.6625749127
2.8449465e-16  -0.36  44.1697491636
2.8449465e-16  -0.34  56.2845301045
2.8449465e-16  -0.32  71.7221263211
2.8449465e-16  -0.3  91.3939122256
2.8449465e-16  -0.28  116.461231984
2.8449465e-16  -0.26  148.403960669
2.8449465e-16  -0.24  189.107870207
2.8449465e-16  -0.22  240.975957872
2.8449465e-16  -0.2  94.6167507856
2.8449465e-16  -0.18  87.3656858506
2.8449465e-16  -0.16  80.2231636157
2.8449465e-16  -0.14  73.2574708483
2.8449465e-16  -0.12  66.5600738775
2.8449465e-16  -0.1  60.2552859826
2.8449465e-16  -0.08  54.5123647779
2.8449465e-16  -0.06  49.5568750657
2.8449465e-16  -0.04  45.6712358598
2.8449465e-16  -0.02  43.1646277866
2.8449465e-16  6.17561557e-16  42.2947846094
2.8449465e-16  0.02  43.1646277866
2.8449465e-16  0.04  45.6712358598
2.8449465e-16  0.06  49.5568750657
2.8449465e-16  0.08  54.5123647779
2.8449465e-16  0.1  60.2552859826
2.8449465e-16  0.12  66.5600738774
2.8449465e-16  0.14  73.2574708483
2.8449465e-16  0.16  80.2231636157
2.8449465e-16  0.18  87.3656858506
2.8449465e-16  0.2  307.070309706
2.8449465e-16  0.22  240.975957872
2.8449465e-16  0.24  189.107870207
2.8449465e-16  0.26  148.403960669
2.8449465e-16  0.28  116.461231984
2.8449465e-16  0.3  91.3939122256
2.8449465e-16  0.32  71.7221263211
2.8449465e-16  0.34  56.2845301045
2.8449465e-16  0.36  44.1697491636
2.8449465e-16  0.38  34.6625749127
2.8449465e-16  0.4  27.2017415161
2.8449465e-16  0.42  21.3467909805
2.8449465e-16  0.44  16.7520702635
2.8449465e-16  0.46  13.1463252893
2.8449465e-16  0.48  10.3166871851
2.8449465e-16  0.5  8.09610534762
2.8449465e-16  0.52  6.35348543805
2.8449465e-16  0.54  4.98595009307
2.8449465e-16  0.56  3.91276545339
2.8449465e-16  0.58  3.07057495712
2.8449465e-16  0.6  2.40965901984
2.8449465e-16  0.62  1.89099978766
2.8449465e-16  0.64  1.48397767796
2.8449465e-16  0.66  1.16456372076
2.8449465e-16  0.68  0.913900983724
2.8449465e-16  0.7  0.717191333685
2.8449465e-16  0.72  0.562821813602
2.8449465e-16  0.74  0.441679059671
2.8449465e-16  0.76  0.346611284491
2.8449465e-16  0.78  0.272006063919
2.8449465e-16  0.8  0.213459001824
2.8449465e-16  0.82  0.167513712023
2.8449465e-16  0.84  0.131457766953
2.8449465e-16  0.86  0.103162566715
2.8449465e-16  0.88  0.0809576749846
2.8449465e-16  0.9  0.0635322030813
2.8449465e-16  0.92  0.0498574203018
2.8449465e-16  0.94  0.0391260217432
2.8449465e-16  0.96  0.0307044682252
2.8449465e-16  0.98  0.0240955846516
0.02  -1  0.0179624031865
0.02  -0.98  0.0228890913361
0.02  -0.96  0.0291670605961
0.02  -0.94  0.0371669373558
0.02  -0.92  0.047361002589
0.02  -0.9  0.0603510734491
0.02  -0.88  0.0769040321648
0.02  -0.86  0.0979970997233
0.02  -0.84  0.124875527119
0.02  -0.82  0.159126110031
0.02  -0.8  0.202770866941
0.02  -0.78  0.25838641108
0.02  -0.76  0.329256063446
0.02  -0.74  0.419563687049
0.02  -0.72  0.534640685575
0.02  -0.7  0.681280748299
0.02  -0.68  0.86814092254
0.02  -0.66  1.10625269138
0.02  -0.64  1.40967322862
0.02  -0.62  1.79631527859
0.02  -0.6  2.2890046534
0.02  -0.58  2.91682777836
0.02  -0.56  3.71684883908
0.02  -0.54  4.73629790384
0.02  -0.52  6.03535919947
0.02  -0.5  7.69072414915
0.02  -0.48  9.8001189297
0.02  -0.46  12.4880738372
0.02  -0.44  15.9132750615
0.02  -0.42  20.277932889
0.02  -0.4  25.8397193952
0.02  -0.38  32.9269803821
0.02  -0.36  41.9581196105
0.02  -0.34  53.4662996975
0.02  -0.32  68.130917922
0.02  -0.3  86.8177151431
0.02  -0.28  110.629885705
0.02  -0.26  140.973205651
0.02  -0.24  179.639024166
0.02  -0.22  228.910017718
0.02  -0.2  94.4367940452
0.02  -0.18  87.0034041381
0.02  -0.16  79.6626845925
0.02  -0.14  72.4805348708
0.02  -0.12  65.5463875663
0.02  -0.1  58.9840912571
0.02  -0.08  52.9666108759
0.02  -0.06  47.7321241678
0.02  -0.04  43.5908223662
0.02  -0.02  40.8969945721
0.02  6.17561557e-16  39.9572995442
0.02  0.02  40.8969945721
0.02  0.04  43.5908223662
0.02  0.06  47.7321241678
0.02  0.08  52.9666108759
0.02  0.1  58.9840912571
0.02  0.12  65.5463875663
0.02  0.14  72.4805348708
0.02  0.16  79.6626845925
0.02  0.18  87.0034041381
0.02  0.2  291.694950219
0.02  0.22  228.910017718
0.02  0.24  179.639024166
0.02  0.26  140.973205651
0.02  0.28  110.629885705
0.02  0.3  86.8177151431
0.02  0.32  68.130917922
0.02  0.34  53.4662996975
0.02  0.36  41.9581196105
0.02  0.38  32.9269803821
0.02  0.4  25.8397193952
0.02  0.42  20.277932889
0.02  0.44  15.9132750615
0.02  0.46  12.4880738372
0.02  0.48  9.8001189297
0.02  0.5  7.69072414915
0.02  0.52  6.03535919947
0.02  0.54  4.73629790384
0.02  0.56  3.71684883908
0.02  0.58  2.91682777836
0.02  0.6  2.2890046534
0.02  0.62  1.79631527859
0.02  0.64  1.40967322862
0.02  0.66  1.10625269138
0.02  0.68  0.86814092254
0.02  0.7  0.681280748299
0.02  0.72  0.534640685575
0.02  0.74  0.419563687049
0.02  0.76  0.329256063446
0.02  0.78  0.25838641108
0.02  0.8  0.202770866941
0.02  0.82  0.159126110031
0.02  0.84  0.124875527119
0.02  0.86  0.0979970997233
0.02  0.88  0.0769040321648
0.02  0.9  0.0603510734491
0.02  0.92  0.047361002589
0.02  0.94  0.0371669373558
0.02  0.96  0.0291670605961
0.02  0.98  0.0228890913361
0.04  -1  0.0164393492754
0.04  -0.98  0.0209482975727
0.04  -0.96  0.0266939502192
0.04  -0.94  0.034015507744
0.04  -0.92  0.0433452058454
0.04  -0.9  0.0552338328718
0.04  -0.88  0.0703832461793
0.04  -0.86  0.0896878070048
0.04  -0.84  0.114287180003
0.04  -0.82  0.145633614527
0.04  -0.8  0.185577679664
0.04  -0.78  0.236477514488
0.04  -0.76  0.301338043237
0.04  -0.74  0.38398837411
0.04  -0.72  0.489307854621
0.04  -0.7  0.623514128908
0.04  -0.68  0.794530202767
0.04  -0.66  1.01245218647
0.04  -0.64  1.29014532905
0.04  -0.62  1.64400353154
0.04  -0.6  2.09491717782
0.04  -0.58  2.66950641999
0.04  -0.56  3.40169272648
0.04  -0.54  4.33470147093
0.04  -0.52  5.52361378668
0.04  -0.5  7.03861833833
0.04  -0.48  8.96915498186
0.04  -0.46  11.4291949388
0.04  -0.44  14.5639692048
0.04  -0.42  18.5585424113
0.04  -0.4  23.6487383068
0.04  -0.38  30.1350618549
0.04  -0.36  38.4004398552
0.04  -0.34  48.9328274211
0.04  -0.32  62.3540149137
0.04  -0.3  79.4563359766
0.04  -0.28  101.24944377
0.04  -0.26  129.019916885
0.04  -0.24  164.40721384
0.04  -0.22  209.500460202
0.04  -0.2  94.1660570534
0.04  -0.18  86.4568176071
0.04  -0.16  78.8139988145
0.04  -0.14  71.2985682974
0.04  -0.12  63.9948492242
0.04  -0.1  57.0230351367
0.04  -0.08  50.5580197016
0.04  -0.06  44.8543091284
0.04  -0.04  40.2671746631
0.04  -0.02  37.2352929947
0.04  6.17561557e-16  36.1666158425
0.04  0.02  37.2352929947
0.04  0.04  40.2671746631
0.04  0.06  44.8543091284
0.04  0.08  50.5580197016
0.04  0.1  57.0230351367
0.04  0.12  63.9948492242
0.04  0.14  71.2985682974
0.04  0.16  78.8139988145
0.04  0.18  86.4568176071
0.04  0.2  266.961782271
0.04  0.22  209.500460202
0.04  0.24  164.40721384
0.04  0.26  129.019916885
0.04  0.28  101.24944377
0.04  0.3  79.4563359766
0.04  0.32  62.3540149137
0.04  0.34  48.9328274211
0.04  0.36  38.4004398552
0.04  0.38  30.1350618549
0.04  0.4  23.6487383068
0.04  0.42  18.5585424113
0.04  0.44  14.5639692048
0.04  0.46  11.4291949388
0.04  0.48  8.96915498185
0.04  0.5  7.03861833833
0.04  0.52  5.52361378668
0.04  0.54  4.33470147093
0.04  0.56  3.40169272648
0.04  0.58  2.66950641999
0.04  0.6  2.09491717782
0.04  0.62  1.64400353154
0.04  0.64  1.29014532905
0.04  0.66  1.01245218647
0.04  0.68  0.794530202767
0.04  0.7  0.623514128908
0.04  0.72  0.489307854621
0.04  0.74  0.38398837411
0.04  0.76  0.301338043237
0.04  0.78  0.236477514488
0.04  0.8  0.185577679663
0.04  0.82  0.145633614527
0.04  0.84  0.114287180003
0.04  0.86  0.0896878070048
0.04  0.88  0.0703832461793
0.04  0.9  0.0552338328718
0.04  0.92  0.0433452058454
0.04  0.94  0.034015507744
0.04  0.96  0.0266939502192
0.04  0.98  0.0209482975727
0.06  -1  0.0144195692818
0.06  -0.98  0.0183745367974
0.06  -0.96  0.0234142640407
0.06  -0.94  0.0298362765067
0.06  -0.92  0.0380197043236
0.06  -0.9  0.0484476645914
0.06  -0.88  0.061735782698
0.06  -0.86  0.0786685363986
0.06  -0.84  0.100245568269
0.06  -0.82  0.127740700636
0.06  -0.8  0.162777136993
0.06  -0.78  0.207423289488
0.06  -0.76  0.264314889775
0.06  -0.74  0.336810592144
0.06  -0.72  0.429190255141
0.06  -0.7  0.546907607435
0.06  -0.68  0.696912214308
0.06  -0.66  0.888059752415
0.06  -0.64  1.13163481378
0.06  -0.62  1.44201710332
0.06  -0.6  1.83753035958
0.06  -0.58  2.34152411549
0.06  -0.56  2.98375216216
0.06  -0.54  3.80212909459
0.06  -0.52  4.8449686389
0.06  -0.5  6.17383590297
0.06  -0.48  7.86718193608
0.06  -0.46  10.0249751675
0.06  -0.44  12.7746031457
0.06  -0.42  16.278392994
0.06  -0.4  20.743194559
0.06  -0.38  26.4325920053
0.06  -0.36  33.6824647782
0.06  -0.34  42.9208165928
0.06  -0.32  54.6930430753
0.06  -0.3  69.6941297555
0.06  -0.28  88.809681255
0.06  -0.26  113.168203869
0.06  -0.24  144.207728097
0.06  -0.22  183.760704263
0.06  -0.2  93.8429800446
0.06  -0.18  85.8020818189
0.06  -0.16  77.792373148
0.06  -0.14  69.8665036064
0.06  -0.12  62.0987261736
0.06  -0.1  54.5985733669
0.06  -0.08  47.5341622751
0.06  -0.06  41.1698058764
0.06  -0.04  35.9151199703
0.06  -0.02  32.3440154739
0.06  6.17561557e-16  31.0605960839
0.06  0.02  32.3440154739
0.06  0.04  35.9151199703
0.06  0.06  41.1698058764
0.06  0.08  47.5341622751
0.06  0.1  54.5985733669
0.06  0.12  62.0987261736
0.06  0.14  69.8665036063
0.06  0.16  77.792373148
0.06  0.18  85.8020818189
0.06  0.2  234.162183099
0.06  0.22  183.760704263
0.06  0.24  144.207728097
0.06  0.26  113.168203869
0.06  0.28  88.809681255
0.06  0.3  69.6941297555
0.06  0.32  54.6930430753
0.06  0.34  42.9208165928
0.06  0.36  33.6824647782
0.06  0.38  26.4325920053
0.06  0.4  20.743194559
0.06  0.42  16.278392994
0.06  0.44  12.7746031457
0.06  0.46  10.0249751675
0.06  0.48  7.86718193608
0.06  0.5  6.17383590297
0.06  0.52  4.8449686389
0.06  0.54  3.80212909459
0.06  0.56  2.98375216216
0.06  0.58  2.34152411549
0.06  0.6  1.83753035958
0.06  0.62  1.44201710332
0.06  0.64  1.13163481378
0.06  0.66  0.888059752415
0.06  0.68  0.696912214308
0.06  0.7  0.546907607435
0.06  0.72  0.429190255141
0.06  0.74  0.336810592144
0.06  0.76  0.264314889775
0.06  0.78  0.207423289488
0.06  0.8  0.162777136993
0.06  0.82  0.127740700636
0.06  0.84  0.100245568269
0.06  0.86  0.0786685363986
0.06  0.88  0.061735782698
0.06  0.9  0.0484476645914
0.06  0.92  0.0380197043236
0.06  0.94  0.0298362765067
0.06  0.96  0.0234142640407
0.06  0.98  0.0183745367974
0.08  -1  0.0120269704043
0.08  -0.98  0.0153257012006
0.08  -0.96  0.0195292005712
0.08  -0.94  0.0248856264362
0.08  -0.92  0.0317112009202
0.08  -0.9  0.0404088788513
0.08  -0.88  0.0514921366153
0.08  -0.86  0.0656152857634
0.08  -0.84  0.0836121009696
0.08  -0.82  0.106545042778
0.08  -0.8  0.135767981057
0.08  -0.78  0.173006122102
0.08  -0.76  0.220457857971
0.08  -0.74  0.280924550823
0.08  -0.72  0.357975914224
0.08  -0.7  0.456160754869
0.08  -0.68  0.581275516073
0.08  -0.66  0.740706476785
0.08  -0.64  0.943865808176
0.08  -0.62  1.20274723087
0.08  -0.6  1.53263407663
0.08  -0.58  1.95300155556
0.08  -0.56  2.48866649527
0.08  -0.54  3.17125242787
0.08  -0.52  4.04105651776
0.08  -0.5  5.14942854634
0.08  -0.48  6.56180239929
0.08  -0.46  8.36155902346
0.08  -0.44  10.6549489071
0.08  -0.42  13.5773646869
0.08  -0.4  17.3013341921
0.08  -0.38  22.0467058025
0.08  -0.36  28.0936274248
0.08  -0.34  35.7990853124
0.08  -0.32  45.6179791177
0.08  -0.3  58.1299773619
0.08  -0.28  74.0737387636
0.08  -0.26  94.3905197187
0.08  -0.24  120.279742341
0.08  -0.22  153.269803587
0.08  -0.2  93.5138487075
0.08  -0.18  85.1322396899
0.08  -0.16  76.7413021016
0.08  -0.14  68.3819924781
0.08  -0.12  60.1126224618
0.08  -0.1  52.0217928416
0.08  -0.08  44.2534698033
0.08  -0.06  37.056406905
0.08  -0.04  30.8756366337
0.08  -0.02  26.469391746
0.08  6.17561557e-16  24.8249400287
0.08  0.02  26.469391746
0.08  0.04  30.8756366337
0.08  0.06  37.056406905
0.08  0.08  44.2534698033
0.08  0.1  52.0217928416
0.08  0.12  60.1126224618
0.08  0.14  68.3819924781
0.08  0.16  76.7413021016
0.08  0.18  85.1322396899
0.08  0.2  195.30830574
0.08  0.22  153.269803587
0.08  0.24  120.279742341
0.08  0.26  94.3905197186
0.08  0.28  74.0737387636
0.08  0.3  58.1299773619
0.08  0.32  45.6179791177
0.08  0.34  35.7990853124
0.08  0.36  28.0936274248
0.08  0.38  22.0467058025
0.08  0.4  17.3013341921
0.08  0.42  13.5773646869
0.08  0.44  10.6549489071
0.08  0.46  8.36155902346
0.08  0.48  6.56180239929
0.08  0.5  5.14942854634
0.08  0.52  4.04105651776
0.08  0.54  3.17125242787
0.08  0.56  2.48866649527
0.08  0.58  1.95300155556
0.08  0.6  1.53263407663
0.08  0.62  1.20274723087
0.08  0.64  0.943865808176
0.08  0.66  0.740706476785
0.08  0.68  0.581275516073
0.08  0.7  0.456160754869
0.08  0.72  0.357975914224
0.08  0.74  0.280924550823
0.08  0.76  0.220457857971
0.08  0.78  0.173006122102
0.08  0.8  0.135767981057
0.08  0.82  0.106545042778
0.08  0.84  0.0836121009696
0.08  0.86  0.0656152857634
0.08  0.88  0.0514921366153
0.08  0.9  0.0404088788513
0.08  0.92  0.0317112009202
0.08  0.94  0.0248856264362
0.08  0.96  0.0195292005712
0.08  0.98  0.0153257012006
0.1  -1  0.0094628593596
0.1  -0.98  0.0120583114594
0.1  -0.96  0.0153656384109
0.1  -0.94  0.0195800916711
0.1  -0.92  0.0249504758343
0.1  -0.9  0.0317938370675
0.1  -0.88  0.0405141802579
0.1  -0.86  0.0516263198585
0.1  -0.84  0.0657862724893
0.1  -0.82  0.0838299855558
0.1  -0.8  0.106822688266
0.1  -0.78  0.136121778534
0.1  -0.76  0.173456958367
0.1  -0.74  0.221032348608
0.1  -0.72  0.281656611479
0.1  -0.7  0.358908762855
0.1  -0.68  0.457349463156
0.1  -0.66  0.582790260636
0.1  -0.64  0.74263668213
0.1  -0.62  0.946325425967
0.1  -0.6  1.20588146718
0.1  -0.58  1.53662796433
0.1  -0.56  1.95809087793
0.1  -0.54  2.49515170571
0.1  -0.52  3.17951638745
0.1  -0.5  4.05158709787
0.1  -0.48  5.16284743063
0.1  -0.46  6.57890178543
0.1  -0.44  8.38334839134
0.1  -0.42  10.6827146145
0.1  -0.4  13.612745911
0.1  -0.38  17.3464197
0.1  -0.36  22.1041572637
0.1  -0.34  28.1668365454
0.1  -0.32  35.8923740684
0.1  -0.3  45.7368549071
0.1  -0.28  58.2814581394
0.1  -0.26  74.2667673531
0.1  -0.24  94.6364917621
0.1  -0.22  120.593179052
0.1  -0.2  93.2262862766
0.1  -0.18  84.5446012259
0.1  -0.16  75.8141338055
0.1  -0.14  67.0624795729
0.1  -0.12  58.3280105246
0.1  -0.1  49.6690924495
0.1  -0.08  41.1842272686
0.1  -0.06  33.0600503486
0.1  -0.04  25.6942221374
0.1  -0.02  19.9938182268
0.1  6.17561557e-16  17.6864309427
0.1  0.02  19.9938182268
0.1  0.04  25.6942221374
0.1  0.06  33.0600503486
0.1  0.08  41.1842272686
0.1  0.1  49.6690924495
0.1  0.12  58.3280105246
0.1  0.14  67.0624795729
0.1  0.16  75.8141338055
0.1  0.18  84.5446012259
0.1  0.2  153.669209024
0.1  0.22  120.593179052
0.1  0.24  94.6364917621
0.1  0.26  74.2667673531
0.1  0.28  58.2814581394
0.1  0.3  45.7368549071
0.1  0.32  35.8923740684
0.1  0.34  28.1668365454
0.1  0.36  22.1041572637
0.1  0.38  17.3464197
0.1  0.4  13.612745911
0.1  0.42  10.6827146145
0.1  0.44  8.38334839134
0.1  0.46  6.57890178543
0.1  0.48  5.16284743063
0.1  0.5  4.05158709786
0.1  0.52  3.17951638745
0.1  0.54  2.49515170571
0.1  0.56  1.95809087793
0.1  0.58  1.53662796433
0.1  0.6  1.20588146718
0.1  0.62  0.946325425967
0.1  0.64  0.74263668213
0.1  0.66  0.582790260636
0.1  0.68  0.457349463156
0.1  0.7  0.358908762855
0.1  0.72  0.281656611479
0.1  0.74  0.221032348608
0.1  0.76  0.173456958367
0.1  0.78  0.136121778534
0.1  0.8  0.106822688266
0.1  0.82  0.0838299855558
0.1  0.84  0.0657862724893
0.1  0.86  0.0516263198585
0.1  0.88  0.0405141802579
0.1  0.9  0.0317938370675
0.1  0.92  0.0249504758343
0.1  0.94  0.0195800916711
0.1  0.96  0.0153656384109
0.1  0.98  0.0120583114594
0.12  -1  0.00711056839271
0.12  -0.98  0.00906083933774
0.12  -0.96  0.0115460262767
0.12  -0.94  0.0147128447832
0.12  -0.92  0.0187482512535
0.12  -0.9  0.0238904800699
0.12  -0.88  0.0304431080132
0.12  -0.86  0.0387929762313
0.12  -0.84  0.0494330278048
0.12  -0.82  0.0629914091505
0.12  -0.8  0.0802685532925
0.12  -0.78  0.102284434252
0.12  -0.76  0.130338782263
0.12  -0.74  0.166087814692
0.12  -0.72  0.211642012533
0.12  -0.7  0.26969071483
0.12  -0.68  0.343660886584
0.12  -0.66  0.437919433163
0.12  -0.64  0.558031005064
0.12  -0.62  0.711086512795
0.12  -0.6  0.906121746087
0.12  -0.58  1.15465081106
0.12  -0.56  1.47134587735
0.12  -0.54  1.87490336476
0.12  -0.52  2.38914770573
0.12  -0.5  3.04443784522
0.12  -0.48  3.87945951235
0.12  -0.46  4.94350907231
0.12  -0.44  6.29940378814
0.12  -0.42  8.0271903026
0.12  -0.4  10.2288702743
0.12  -0.38  13.0344221507
0.12  -0.36  16.6094745799
0.12  -0.34  21.1650844688
0.12  -0.32  26.9701969449
0.12  -0.3  34.3675228095
0.12  -0.28  43.7937708232
0.12  -0.26  55.8054292579
0.12  -0.24  71.1116187558
0.12  -0.22  90.6159559978
0.12  -0.2  93.0222955543
0.12  -0.18  84.1263607708
0.12  -0.16  75.1512422563
0.12  -0.14  66.1130030665
0.12  -0.12  57.031655066
0.12  -0.1  47.9348294438
0.12  -0.08  38.8665730648
0.12  -0.06  29.9117843214
0.12  -0.04  21.2794028659
0.12  -0.02  13.6703895244
0.12  6.17561557e-16  9.90468776365
0.12  0.02  13.6703895244
0.12  0.04  21.2794028659
0.12  0.06  29.9117843214
0.12  0.08  38.8665730648
0.12  0.1  47.9348294438
0.12  0.12  57.031655066
0.12  0.14  66.1130030665
0.12  0.16  75.1512422563
0.12  0.18  84.1263607708
0.12  0.2  115.469899646
0.12  0.22  90.6159559978
0.12  0.24  71.1116187558
0.12  0.26  55.8054292579
0.12  0.28  43.7937708232
0.12  0.3  34.3675228095
0.12  0.32  26.9701969449
0.12  0.34  21.1650844688
0.12  0.36  16.6094745799
0.12  0.38  13.0344221507
0.12  0.4  10.2288702743
0.12  0.42  8.0271903026
0.12  0.44  6.29940378814
0.12  0.46  4.94350907231
0.12  0.48  3.87945951235
0.12  0.5  3.04443784522
0.12  0.52  2.38914770573
0.12  0.54  1.87490336476
0.12  0.56  1.47134587735
0.12  0.58  1.15465081106
0.12  0.6  0.906121746087
0.12  0.62  0.711086512795
0.12  0.64  0.558031005064
0.12  0.66  0.437919433163
0.12  0.68  0.343660886584
0.12  0.7  0.26969071483
0.12  0.72  0.211642012533
0.12  0.74  0.166087814692
0.12  0.76  0.130338782263
0.12  0.78  0.102284434252
0.12  0.8  0.0802685532925
0.12  0.82  0.0629914091505
0.12  0.84  0.0494330278048
0.12  0.86  0.0387929762313
0.12  0.88  0.0304431080132
0.12  0.9  0.0238904800699
0.12  0.92  0.0187482512535
0.12  0.94  0.0147128447832
0.12  0.96  0.0115460262767
0.12  0.98  0.00906083933774
0.14  -1  0.00577159454646
0.14  -0.98  0.00735461471149
0.14  -0.96  0.00937182214014
0.14  -0.94  0.0119423047531
0.14  -0.92  0.0152178136422
0.14  -0.9  0.0193917218524
0.14  -0.88  0.024710440359
0.14  -0.86  0.0314879651938
0.14  -0.84  0.0401244145244
0.14  -0.82  0.0511296500431
0.14  -0.8  0.0651533771773
0.14  -0.78  0.0830235011199
0.14  -0.76  0.105795003065
0.14  -0.74  0.134812222114
0.14  -0.72  0.171788219714
0.14  -0.7  0.218905912014
0.14  -0.68  0.278946940567
0.14  -0.66  0.355455889409
0.14  -0.64  0.45294954323
0.14  -0.62  0.577183540421
0.14  -0.6  0.735492163117
0.14  -0.58  0.937221324108
0.14  -0.56  1.19428031244
0.14  -0.54  1.52184487056
0.14  -0.52  1.93925310996
0.14  -0.5  2.47114715647
0.14  -0.48  3.14892792363
0.14  -0.46  4.01260889796
0.14  -0.44  5.11317837641
0.14  -0.42  6.51560961306
0.14  -0.4  8.30269658217
0.14  -0.38  10.5799418058
0.14  -0.36  13.4817848041
0.14  -0.34  17.1795388707
0.14  -0.32  21.8915047303
0.14  -0.3  27.8958581463
0.14  -0.28  35.5470723144
0.14  -0.26  45.296844553
0.14  -0.24  57.7207627202
0.14  -0.22  73.5522856367
0.14  -0.2  92.9318983676
0.14  -0.18  83.9406481618
0.14  -0.16  74.8560772369
0.14  -0.14  65.6885345067
0.14  -0.12  56.4485922883
0.14  -0.1  47.1471646224
0.14  -0.08  37.7958196963
0.14  -0.06  28.4077376394
0.14  -0.04  19.001554979
0.14  -0.02  9.62783709574
0.14  6.17561557e-16  1.76272307525
0.14  0.02  9.62783709573
0.14  0.04  19.001554979
0.14  0.06  28.4077376394
0.14  0.08  37.7958196963
0.14  0.1  47.1471646224
0.14  0.12  56.4485922883
0.14  0.14  65.6885345067
0.14  0.16  74.8560772369
0.14  0.18  83.9406481618
0.14  0.2  93.7260435833
0.14  0.22  73.5522856367
0.14  0.24  57.7207627202
0.14  0.26  45.296844553
0.14  0.28  35.5470723144
0.14  0.3  27.8958581463
0.14  0.32  21.8915047303
0.14  0.34  17.1795388707
0.14  0.36  13.4817848041
0.14  0.38  10.5799418058
0.14  0.4  8.30269658217
0.14  0.42  6.51560961306
0.14  0.44  5.11317837641
0.14  0.46  4.01260889796
0.14  0.48  3.14892792363
0.14  0.5  2.47114715647
0.14  0.52  1.93925310996
0.14  0.54  1.52184487056
0.14  0.56  1.19428031244
0.14  0.58  0.937221324108
0.14  0.6  0.735492163117
0.14  0.62  0.577183540421
0.14  0.64  0.45294954323
0.14  0.66  0.355455889409
0.14  0.68  0.278946940567
0.14  0.7  0.218905912014
0.14  0.72  0.171788219714
0.14  0.74  0.134812222114
0.14  0.76  0.105795003065
0.14  0.78  0.0830235011199
0.14  0.8  0.0651533771773
0.14  0.82  0.0511296500431
0.14  0.84  0.0401244145244
0.14  0.86  0.0314879651938
0.14  0.88  0.024710440359
0.14  0.9  0.0193917218524
0.14  0.92  0.0152178136422
0.14  0.94  0.0119423047531
0.14  0.96  0.00937182214014
0.14  0.98  0.00735461471149
0.16  -1  0.00634708894324
0.16  -0.98  0.00808795443639
0.16  -0.96  0.0103063006601
0.16  -0.94  0.0131330899711
0.16  -0.92  0.0167352047916
0.16  -0.9  0.0213252996843
0.16  -0.88  0.0271743556348
0.16  -0.86  0.0346276776925
0.16  -0.84  0.0441252804112
0.16  -0.82  0.0562278645612
0.16  -0.8  0.0716499186782
0.16  -0.78  0.0913018996302
0.16  -0.76  0.116343982378
0.16  -0.74  0.148254552101
0.16  -0.72  0.188917482187
0.16  -0.7  0.240733350648
0.16  -0.68  0.306761160711
0.16  -0.66  0.39089893223
0.16  -0.64  0.498113825311
0.16  -0.62  0.634735381729
0.16  -0.6  0.80882919595
0.16  -0.58  1.03067307582
0.16  -0.56  1.31336380357
0.16  -0.54  1.67359031781
0.16  -0.52  2.13261896228
0.16  -0.5  2.71754896635
0.16  -0.48  3.46291227602
0.16  -0.46  4.41271218288
0.16  -0.44  5.62302110387
0.16  -0.42  7.16529087424
0.16  -0.4  9.13057098027
0.16  -0.38  11.6348837596
0.16  -0.36  14.8260738997
0.16  -0.34  18.8925366012
0.16  -0.32  24.0743396831
0.16  -0.3  30.6773962338
0.16  -0.28  39.091524506
0.16  -0.26  49.8134612388
0.16  -0.24  63.4761870238
0.16  -0.22  80.8862949669
0.16  -0.2  92.9684592213
0.16  -0.18  84.0157867231
0.16  -0.16  74.9755611589
0.16  -0.14  65.8604892006
0.16  -0.12  56.6850641268
0.16  -0.1  47.4672149272
0.16  -0.08  38.2323685363
0.16  -0.06  29.025255441
0.16  -0.04  19.953894802
0.16  -0.02  11.4357666742
0.16  6.17561557e-16  6.44334971852
0.16  0.02  11.4357666742
0.16  0.04  19.953894802
0.16  0.06  29.025255441
0.16  0.08  38.2323685363
0.16  0.1  47.4672149272
0.16  0.12  56.6850641268
0.16  0.14  65.8604892006
0.16  0.16  74.9755611589
0.16  0.18  84.0157867231
0.16  0.2  103.071608744
0.16  0.22  80.8862949669
0.16  0.24  63.4761870238
0.16  0.26  49.8134612388
0.16  0.28  39.091524506
0.16  0.3  30.6773962338
0.16  0.32  24.0743396831
0.16  0.34  18.8925366012
0.16  0.36  14.8260738997
0.16  0.38  11.6348837596
0.16  0.4  9.13057098027
0.16  0.42  7.16529087424
0.16  0.44  5.62302110387
0.16  0.46  4.41271218288
0.16  0.48  3.46291227602
0.16  0.5  2.71754896635
0.16  0.52  2.13261896228
0.16  0.54  1.67359031781
0.16  0.56  1.31336380357
0.16  0.58  1.03067307582
0.16  0.6  0.80882919595
0.16  0.62  0.634735381729
0.16  0.64  0.498113825311
0.16  0.66  0.39089893223
0.16  0.68  0.306761160711
0.16  0.7  0.240733350648
0.16  0.72  0.188917482187
0.16  0.74  0.148254552101
0.16  0.76  0.116343982378
0.16  0.78  0.0913018996302
0.16  0.8  0.0716499186782
0.16  0.82  0.0562278645612
0.16  0.84  0.0441252804112
0.16  0.86  0.0346276776925
0.16  0.88  0.0271743556348
0.16  0.9  0.0213252996843
0.16  0.92  0.0167352047916
0.16  0.94  0.0131330899711
0.16  0.96  0.0103063006601
0.16  0.98  0.00808795443639
0.18  -1  0.00839508981917
0.18  -0.98  0.0106976764551
0.18  -0.96  0.0136318114522
0.18  -0.94  0.0173707144955
0.18  -0.92  0.0221351155819
0.18  -0.9  0.0282062860425
0.18  -0.88  0.0359426436863
0.18  -0.86  0.0458009123643
0.18  -0.84  0.058363085134
0.18  -0.82  0.074370782819
0.18  -0.8  0.0947690363595
0.18  -0.78  0.120762077688
0.18  -0.76  0.153884432803
0.18  -0.74  0.196091514096
0.18  -0.72  0.249875060135
0.18  -0.7  0.318410238021
0.18  -0.68  0.405743092657
0.18  -0.66  0.517029409172
0.18  -0.64  0.658839090022
0.18  -0.62  0.839544015952
0.18  -0.6  1.06981228861
0.18  -0.58  1.36323803292
0.18  -0.56  1.73714394028
0.18  -0.54  2.21360393152
0.18  -0.52  2.82074631354
0.18  -0.5  3.59441436295
0.18  -0.48  4.58028237087
0.18  -0.46  5.83655207177
0.18  -0.44  7.43738864292
0.18  -0.42  9.4772991221
0.18  -0.4  12.076711728
0.18  -0.38  15.3890854644
0.18  -0.36  19.6099697305
0.18  -0.34  24.9885487816
0.18  -0.32  31.8423525783
0.18  -0.3  40.5760024956
0.18  -0.28  51.7050985626
0.18  -0.26  65.8866584418
0.18  -0.24  83.9579051449
0.18  -0.22  106.985693356
0.18  -0.2  93.1265683888
0.18  -0.18  84.3402951516
0.18  -0.16  75.4906347997
0.18  -0.14  66.5997732266
0.18  -0.12  57.6975905102
0.18  -0.1  48.8285451743
0.18  -0.08  40.0673948605
0.18  -0.06  31.5594681781
0.18  -0.04  23.6381381949
0.18  -0.02  17.1940263611
0.18  6.17561557e-16  14.4150856794
0.18  0.02  17.1940263611
0.18  0.04  23.6381381949
0.18  0.06  31.5594681781
0.18  0.08  40.0673948605
0.18  0.1  48.8285451743
0.18  0.12  57.6975905102
0.18  0.14  66.5997732266
0.18  0.16  75.4906347997
0.18  0.18  84.3402951516
0.18  0.2  136.329492299
0.18  0.22  106.985693356
0.18  0.24  83.9579051449
0.18  0.26  65.8866584418
0.18  0.28  51.7050985626
0.18  0.3  40.5760024956
0.18  0.32  31.8423525783
0.18  0.34  24.9885487816
0.18  0.36  19.6099697305
0.18  0.38  15.3890854644
0.18  0.4  12.076711728
0.18  0.42  9.4772991221
0.18  0.44  7.43738864292
0.18  0.46  5.83655207177
0.18  0.48  4.58028237087
0.18  0.5  3.59441436295
0.18  0.52  2.82074631354
0.18  0.54  2.21360393152
0.18  0.56  1.73714394028
0.18  0.58  1.36323803292
0.18  0.6  1.06981228861
0.18  0.62  0.839544015952
0.18  0.64  0.658839090022
0.18  0.66  0.517029409172
0.18  0.68  0.405743092657
0.18  0.7  0.318410238021
0.18  0.72  0.249875060135
0.18  0.74  0.196091514096
0.18  0.76  0.153884432803
0.18  0.78  0.120762077688
0.18  0.8  0.0947690363595
0.18  0.82  0.074370782819
0.18  0.84  0.058363085134
0.18  0.86  0.0458009123643
0.18  0.88  0.0359426436863
0.18  0.9  0.0282062860425
0.18  0.92  0.0221351155819
0.18  0.94  0.0173707144955
0.18  0.96  0.0136318114522
0.18  0.98  0.0106976764551
0.2  -1  0.0109332080367
0.2  -0.98  0.0139319441141
0.2  -0.96  0.0177531668789
0.2  -0.94  0.0226224661577
0.2  -0.92  0.0288273060546
0.2  -0.9  0.0367339956913
0.2  -0.88  0.046809314644
0.2  -0.86  0.0596480697568
0.2  -0.84  0.0760082101773
0.2  -0.82  0.0968555736657
0.2  -0.8  0.123420905824
0.2  -0.78  0.15727251843
0.2  -0.76  0.200408876342
0.2  -0.74  0.255376578932
0.2  -0.72  0.325420701205
0.2  -0.7  0.41467637015
0.2  -0.68  0.528412886224
0.2  -0.66  0.67334480194
0.2  -0.64  0.858028322397
0.2  -0.62  1.09336642967
0.2  -0.6  1.39325255161
0.2  -0.58  1.77539077466
0.2  -0.56  2.26234102289
0.2  -0.54  2.88285090636
0.2  -0.52  3.67355286589
0.2  -0.5  4.68112680706
0.2  -0.48  5.96505589649
0.2  -0.46  7.60113821199
0.2  -0.44  9.68596156018
0.2  -0.42  12.3426056373
0.2  -0.4  15.727908166
0.2  -0.38  20.041723972
0.2  -0.36  25.5387236199
0.2  -0.34  32.5434281525
0.2  -0.32  41.469367525
0.2  -0.3  52.8434937728
0.2  -0.28  67.3372901682
0.2  -0.26  85.8064129273
0.2  -0.24  109.341205758
0.2  -0.22  139.331069424
0.2  -0.2  93.3829014232
0.2  -0.18  84.8649270267
0.2  -0.16  76.3201403829
0.2  -0.14  67.783807758
0.2  -0.12  59.3059428225
0.2  -0.1  50.963017272
0.2  -0.08  42.8819103339
0.2  -0.06  35.2912298415
0.2  -0.04  28.6307292234
0.2  -0.02  23.7382379202
0.2  6.17561557e-16  21.8625624163
0.2  0.02  23.7382379202
0.2  0.04  28.6307292234
0.2  0.06  35.2912298415
0.2  0.08  42.8819103339
0.2  0.1  50.963017272
0.2  0.12  59.3059428225
