-0.22  -0.36  11.42177616
-0.22  -0.34  14.036305133
-0.22  -0.32  17.2493191101
-0.22  -0.3  21.1978157315
-0.22  -0.28  26.0501524101
-0.22  -0.26  32.0132248145
-0.22  -0.24  39.341288561
-0.22  -0.22  48.3468002554
-0.22  -0.2  30.7875204785
-0.22  -0.18  28.816253674
-0.22  -0.16  26.7029477862
-0.22  -0.14  24.4829038602
-0.22  -0.12  22.2011079917
-0.22  -0.1  19.9168432608
-0.22  -0.08  17.7110169698
-0.22  -0.06  15.6966119073
-0.22  -0.04  14.0290734457
-0.22  -0.02  12.9021155814
-0.22  6.17561557e-16  12.4998150805
-0.22  0.02  12.9021155814
-0.22  0.04  14.0290734457
-0.22  0.06  15.6966119073
-0.22  0.08  17.7110169698
-0.22  0.1  19.9168432608
-0.22  0.12  22.2011079917
-0.22  0.14  24.4829038602
-0.22  0.16  26.7029477862
-0.22  0.18  28.816253674
-0.22  0.2  59.4137401299
-0.22  0.22  48.3468002554
-0.22  0.24  39.341288561
-0.22  0.26  32.0132248145
-0.22  0.28  26.0501524101
-0.22  0.3  21.1978157315
-0.22  0.32  17.2493191101
-0.22  0.34  14.036305133
-0.22  0.36  11.42177616
-0.22  0.38  9.29425296842
-0.22  0.4  7.5630214628
-0.22  0.42  6.15426477427
-0.22  0.44  5.00791583075
-0.22  0.46  4.07509619553
-0.22  0.48  3.31603197099
-0.22  0.5  2.69835790495
-0.22  0.52  2.19573738941
-0.22  0.54  1.78673951088
-0.22  0.56  1.45392527136
-0.22  0.58  1.18310401815
-0.22  0.6  0.962728377673
-0.22  0.62  0.783401894474
-0.22  0.64  0.637478381752
-0.22  0.66  0.518735900523
-0.22  0.68  0.422111466356
-0.22  0.7  0.343485172029
-0.22  0.72  0.279504521454
-0.22  0.74  0.227441484742
-0.22  0.76  0.185076179493
-0.22  0.78  0.150602218652
-0.22  0.8  0.122549689134
-0.22  0.82  0.09972247714
-0.22  0.84  0.0811472678327
-0.22  0.86  0.0660320447863
-0.22  0.88  0.0537323197086
-0.22  0.9  0.0437236525176
-0.22  0.92  0.0355792900781
-0.22  0.94  0.0289519701482
-0.22  0.96  0.0235591146879
-0.22  0.98  0.019170781195
-0.2  -1  0.0179514155911
-0.2  -0.98  0.0220606272857
-0.2  -0.96  0.0271104679055
-0.2  -0.94  0.0333162543628
-0.2  -0.92  0.0409425912026
-0.2  -0.9  0.0503146529058
-0.2  -0.88  0.0618320487949
-0.2  -0.86  0.0759858617198
-0.2  -0.84  0.0933795870236
-0.2  -0.82  0.114754864594
-0.2  -0.8  0.141023101169
-0.2  -0.78  0.173304331226
-0.2  -0.76  0.21297497341
-0.2  -0.74  0.261726518766
-0.2  -0.72  0.321637653142
-0.2  -0.7  0.395262888936
-0.2  -0.68  0.485741485314
-0.2  -0.66  0.596931301064
-0.2  -0.64  0.733573287363
-0.2  -0.62  0.901493634146
-0.2  -0.6  1.10785218929
-0.2  -0.58  1.36144774274
-0.2  -0.56  1.67309319253
-0.2  -0.54  2.05607658891
-0.2  -0.52  2.52672771508
-0.2  -0.5  3.10511436226
-0.2  -0.48  3.81589798743
-0.2  -0.46  4.68938523727
-0.2  -0.44  5.76282017392
-0.2  -0.42  7.08197230054
-0.2  -0.4  8.70308809784
-0.2  -0.38  10.6952892816
-0.2  -0.36  13.1435200393
-0.2  -0.34  16.1521689105
-0.2  -0.32  19.849519743
-0.2  -0.3  24.3932215055
-0.2  -0.28  29.9770101807
-0.2  -0.26  36.8389693493
-0.2  -0.24  45.2716816834
-0.2  -0.22  55.6347041908
-0.2  -0.2  35.4284996223
-0.2  -0.18  33.1600796861
-0.2  -0.16  30.7282093801
-0.2  -0.14  28.1735111072
-0.2  -0.12  25.547752267
-0.2  -0.1  22.9191524025
-0.2  -0.08  20.3808149625
-0.2  -0.06  18.0627540116
-0.2  -0.04  16.1438471026
-0.2  -0.02  14.8470091094
-0.2  6.17561557e-16  14.3840649386
-0.2  0.02  14.8470091094
-0.2  0.04  16.1438471026
-0.2  0.06  18.0627540116
-0.2  0.08  20.3808149625
-0.2  0.1  22.9191524025
-0.2  0.12  25.547752267
-0.2  0.14  28.1735111072
-0.2  0.16  30.7282093801
-0.2  0.18  33.1600796861
-0.2  0.2  68.3698991357
-0.2  0.22  55.6347041908
-0.2  0.24  45.2716816834
-0.2  0.26  36.8389693493
-0.2  0.28  29.9770101807
-0.2  0.3  24.3932215055
-0.2  0.32  19.849519743
-0.2  0.34  16.1521689105
-0.2  0.36  13.1435200393
-0.2  0.38  10.6952892816
-0.2  0.4  8.70308809784
-0.2  0.42  7.08197230054
-0.2  0.44  5.76282017392
-0.2  0.46  4.68938523727
-0.2  0.48  3.81589798743
-0.2  0.5  3.10511436226
-0.2  0.52  2.52672771508
-0.2  0.54  2.05607658891
-0.2  0.56  1.67309319253
-0.2  0.58  1.36144774274
-0.2  0.6  1.10785218929
-0.2  0.62  0.901493634146
-0.2  0.64  0.733573287363
-0.2  0.66  0.596931301064
-0.2  0.68  0.485741485314
-0.2  0.7  0.395262888936
-0.2  0.72  0.321637653142
-0.2  0.74  0.261726518766
-0.2  0.76  0.21297497341
-0.2  0.78  0.173304331226
-0.2  0.8  0.141023101169
-0.2  0.82  0.114754864594
-0.2  0.84  0.0933795870236
-0.2  0.86  0.0759858617198
-0.2  0.88  0.0618320487949
-0.2  0.9  0.0503146529058
-0.2  0.92  0.0409425912026
-0.2  0.94  0.0333162543628
-0.2  0.96  0.0271104679055
-0.2  0.98  0.0220606272857
-0.18  -1  0.0206574518053
-0.18  -0.98  0.0253860951877
-0.18  -0.96  0.0311971599863
-0.18  -0.94  0.0383384204627
-0.18  -0.92  0.047114368238
-0.18  -0.9  0.0578991953157
-0.18  -0.88  0.0711527490143
-0.18  -0.86  0.0874401391018
-0.18  -0.84  0.107455833149
-0.18  -0.82  0.132053267484
-0.18  -0.8  0.162281236321
-0.18  -0.78  0.199428610617
-0.18  -0.76  0.24507929342
-0.18  -0.74  0.301179754886
-0.18  -0.72  0.37012202658
-0.18  -0.7  0.454845693767
-0.18  -0.68  0.558963234503
-0.18  -0.66  0.686914049772
-0.18  -0.64  0.844153752246
-0.18  -0.62  1.03738678466
-0.18  -0.6  1.27485228624
-0.18  -0.58  1.56667539607
-0.18  -0.56  1.92529897238
-0.18  -0.54  2.36601413565
-0.18  -0.52  2.90761225679
-0.18  -0.5  3.57318619041
-0.18  -0.48  4.39111491621
-0.18  -0.46  5.39627357207
-0.18  -0.44  6.63152047265
-0.18  -0.42  8.14952451758
-0.18  -0.4  10.0150109069
-0.18  -0.38  12.3075209171
-0.18  -0.36  15.124803411
-0.18  -0.34  18.5869826881
-0.18  -0.32  22.8416803883
-0.18  -0.3  28.0703098354
-0.18  -0.28  34.495811204
-0.18  -0.26  42.392157322
-0.18  -0.24  52.0960354226
-0.18  -0.22  64.0212029348
-0.18  -0.2  40.769070259
-0.18  -0.18  38.1587036688
-0.18  -0.16  35.3602478374
-0.18  -0.14  32.4204486788
-0.18  -0.12  29.3988771254
-0.18  -0.1  26.3740362854
-0.18  -0.08  23.4530642279
-0.18  -0.06  20.7855736264
-0.18  -0.04  18.5774064325
-0.18  -0.02  17.085080203
-0.18  6.17561557e-16  16.5523508007
-0.18  0.02  17.085080203
-0.18  0.04  18.5774064325
-0.18  0.06  20.7855736264
-0.18  0.08  23.4530642279
-0.18  0.1  26.3740362854
-0.18  0.12  29.3988771254
-0.18  0.14  32.4204486788
-0.18  0.16  35.3602478374
-0.18  0.18  38.1587036688
-0.18  0.2  78.6761294207
-0.18  0.22  64.0212029348
-0.18  0.24  52.0960354226
-0.18  0.26  42.392157322
-0.18  0.28  34.495811204
-0.18  0.3  28.0703098354
-0.18  0.32  22.8416803883
-0.18  0.34  18.5869826881
-0.18  0.36  15.124803411
-0.18  0.38  12.3075209171
-0.18  0.4  10.0150109069
-0.18  0.42  8.14952451758
-0.18  0.44  6.63152047265
-0.18  0.46  5.39627357207
-0.18  0.48  4.39111491621
-0.18  0.5  3.57318619041
-0.18  0.52  2.90761225679
-0.18  0.54  2.36601413565
-0.18  0.56  1.92529897238
-0.18  0.58  1.56667539607
-0.18  0.6  1.27485228624
-0.18  0.62  1.03738678466
-0.18  0.64  0.844153752246
-0.18  0.66  0.686914049771
-0.18  0.68  0.558963234503
-0.18  0.7  0.454845693767
-0.18  0.72  0.37012202658
-0.18  0.74  0.301179754886
-0.18  0.76  0.24507929342
-0.18  0.78  0.199428610617
-0.18  0.8  0.162281236321
-0.18  0.82  0.132053267484
-0.18  0.84  0.107455833149
-0.18  0.86  0.0874401391018
-0.18  0.88  0.0711527490143
-0.18  0.9  0.0578991953157
-0.18  0.92  0.047114368238
-0.18  0.94  0.0383384204627
-0.18  0.96  0.0311971599863
-0.18  0.98  0.0253860951877
-0.16  -1  0.0237714019222
-0.16  -0.98  0.0292128514993
-0.16  -0.96  0.0358998890984
-0.16  -0.94  0.044117639023
-0.16  -0.92  0.0542164926368
-0.16  -0.9  0.0666270484759
-0.16  -0.88  0.0818784722641
-0.16  -0.86  0.10062105967
-0.16  -0.84  0.123653963845
-0.16  -0.82  0.151959270006
-0.16  -0.8  0.18674386993
-0.16  -0.78  0.229490921845
-0.16  -0.76  0.282023089856
-0.16  -0.74  0.346580259352
-0.16  -0.72  0.42591504204
-0.16  -0.7  0.523410142791
-0.16  -0.68  0.643222592619
-0.16  -0.66  0.79046099766
-0.16  -0.64  0.971403361746
-0.16  -0.62  1.19376477019
-0.16  -0.6  1.46702634833
-0.16  -0.58  1.80283952118
-0.16  -0.56  2.21552281106
-0.16  -0.54  2.72267235583
-0.16  -0.52  3.34591217936
-0.16  -0.5  4.11181620442
-0.16  -0.48  5.05304132106
-0.16  -0.46  6.2097198228
-0.16  -0.44  7.63117058176
-0.16  -0.42  9.37800192435
-0.16  -0.4  11.5246958708
-0.16  -0.38  14.1627839263
-0.16  -0.36  17.4047498338
-0.16  -0.34  21.3888256967
-0.16  -0.32  26.2848859679
-0.16  -0.3  32.3016906184
-0.16  -0.28  39.6957863192
-0.16  -0.26  48.7824451704
-0.16  -0.24  59.9491073854
-0.16  -0.22  73.6719011062
-0.16  -0.2  46.9146903623
-0.16  -0.18  43.9108313209
-0.16  -0.16  40.6905300486
-0.16  -0.14  37.3075790424
-0.16  -0.12  33.8305290892
-0.16  -0.1  30.3497170299
-0.16  -0.08  26.9884311639
-0.16  -0.06  23.9188371108
-0.16  -0.04  21.377805895
-0.16  -0.02  19.6605230987
-0.16  6.17561557e-16  19.0474888843
-0.16  0.02  19.6605230987
-0.16  0.04  21.377805895
-0.16  0.06  23.9188371108
-0.16  0.08  26.9884311639
-0.16  0.1  30.3497170299
-0.16  0.12  33.8305290892
-0.16  0.14  37.3075790424
-0.16  0.16  40.6905300486
-0.16  0.18  43.9108313209
-0.16  0.2  90.5359437248
-0.16  0.22  73.6719011062
-0.16  0.24  59.9491073854
-0.16  0.26  48.7824451704
-0.16  0.28  39.6957863192
-0.16  0.3  32.3016906184
-0.16  0.32  26.2848859679
-0.16  0.34  21.3888256967
-0.16  0.36  17.4047498338
-0.16  0.38  14.1627839263
-0.16  0.4  11.5246958708
-0.16  0.42  9.37800192435
-0.16  0.44  7.63117058176
-0.16  0.46  6.2097198228
-0.16  0.48  5.05304132106
-0.16  0.5  4.11181620442
-0.16  0.52  3.34591217936
-0.16  0.54  2.72267235583
-0.16  0.56  2.21552281106
-0.16  0.58  1.80283952118
-0.16  0.6  1.46702634833
-0.16  0.62  1.19376477018
-0.16  0.64  0.971403361746
-0.16  0.66  0.79046099766
-0.16  0.68  0.643222592619
-0.16  0.7  0.523410142791
-0.16  0.72  0.42591504204
-0.16  0.74  0.346580259352
-0.16  0.76  0.282023089856
-0.16  0.78  0.229490921845
-0.16  0.8  0.18674386993
-0.16  0.82  0.151959270006
-0.16  0.84  0.123653963845
-0.16  0.86  0.10062105967
-0.16  0.88  0.0818784722641
-0.16  0.9  0.0666270484759
-0.16  0.92  0.0542164926368
-0.16  0.94  0.044117639023
-0.16  0.96  0.0358998890984
-0.16  0.98  0.0292128514993
-0.14  -1  0.0273547557885
-0.14  -0.98  0.0336164615476
-0.14  -0.96  0.0413115180306
-0.14  -0.94  0.0507680298112
-0.14  -0.92  0.0623892070245
-0.14  -0.9  0.0766705575857
-0.14  -0.88  0.0942210148333
-0.14  -0.86  0.115788901448
-0.14  -0.84  0.142293836701
-0.14  -0.82  0.174865947511
-0.14  -0.8  0.214894055204
-0.14  -0.78  0.264084892566
-0.14  -0.76  0.324535876133
-0.14  -0.74  0.398824536588
-0.14  -0.72  0.490118420436
-0.14  -0.7  0.602310148982
-0.14  -0.68  0.74018339332
-0.14  -0.66  0.909616842207
-0.14  -0.64  1.1178348597
-0.14  -0.62  1.3737155202
-0.14  -0.6  1.6881691549
-0.14  -0.58  2.07460355049
-0.14  -0.56  2.54949563508
-0.14  -0.54  3.13309402741
-0.14  -0.52  3.85028240471
-0.14  -0.5  4.73164050178
-0.14  -0.48  5.81474798075
-0.14  -0.46  7.14578676611
-0.14  -0.44  8.78151016619
-0.14  -0.42  10.791662741
-0.14  -0.4  13.2619540957
-0.14  -0.38  16.2977133977
-0.14  -0.36  20.0283804389
-0.14  -0.34  24.6130247366
-0.14  -0.32  30.2471279958
-0.14  -0.3  37.1709191285
-0.14  -0.28  45.6796172202
-0.14  -0.26  56.1360191868
-0.14  -0.24  68.9859688391
-0.14  -0.22  84.7773669315
-0.14  -0.2  53.9867148751
-0.14  -0.18  50.5300474572
-0.14  -0.16  46.8243108264
-0.14  -0.14  42.9314062799
-0.14  -0.12  38.9302181024
-0.14  -0.1  34.9247007106
-0.14  -0.08  31.0567271556
-0.14  -0.06  27.5244156846
-0.14  -0.04  24.6003437856
-0.14  -0.02  22.6241939705
-0.14  6.17561557e-16  21.9187496186
-0.14  0.02  22.6241939705
-0.14  0.04  24.6003437856
-0.14  0.06  27.5244156846
-0.14  0.08  31.0567271556
-0.14  0.1  34.9247007106
-0.14  0.12  38.9302181025
-0.14  0.14  42.9314062799
-0.14  0.16  46.8243108264
-0.14  0.18  50.5300474572
-0.14  0.2  104.18353275
-0.14  0.22  84.7773669315
-0.14  0.24  68.9859688391
-0.14  0.26  56.1360191868
-0.14  0.28  45.6796172202
-0.14  0.3  37.1709191285
-0.14  0.32  30.2471279958
-0.14  0.34  24.6130247366
-0.14  0.36  20.0283804389
-0.14  0.38  16.2977133977
-0.14  0.4  13.2619540957
-0.14  0.42  10.791662741
-0.14  0.44  8.78151016619
-0.14  0.46  7.14578676611
-0.14  0.48  5.81474798075
-0.14  0.5  4.73164050178
-0.14  0.52  3.85028240471
-0.14  0.54  3.13309402741
-0.14  0.56  2.54949563508
-0.14  0.58  2.07460355049
-0.14  0.6  1.6881691549
-0.14  0.62  1.3737155202
-0.14  0.64  1.1178348597
-0.14  0.66  0.909616842207
-0.14  0.68  0.74018339332
-0.14  0.7  0.602310148982
-0.14  0.72  0.490118420435
-0.14  0.74  0.398824536588
-0.14  0.76  0.324535876133
-0.14  0.78  0.264084892566
-0.14  0.8  0.214894055204
-0.14  0.82  0.174865947511
-0.14  0.84  0.142293836701
-0.14  0.86  0.115788901448
-0.14  0.88  0.0942210148333
-0.14  0.9  0.0766705575857
-0.14  0.92  0.0623892070245
-0.14  0.94  0.0507680298112
-0.14  0.96  0.0413115180306
-0.14  0.98  0.0336164615476
-0.12  -1  0.0314782723668
-0.12  -0.98  0.0386838815446
-0.12  -0.96  0.0475389079146
-0.12  -0.94  0.0584209152617
-0.12  -0.92  0.0717938945116
-0.12  -0.9  0.0882280475417
-0.12  -0.88  0.108424099653
-0.12  -0.86  0.133243177348
-0.12  -0.84  0.163743525346
-0.12  -0.82  0.201225628407
-0.12  -0.8  0.247287661861
-0.12  -0.78  0.303893635184
-0.12  -0.76  0.373457134135
-0.12  -0.74  0.458944232088
-0.12  -0.72  0.563999958536
-0.12  -0.7  0.693103717158
-0.12  -0.68  0.851760280241
-0.12  -0.66  1.04673450313
-0.12  -0.64  1.28633976655
-0.12  -0.62  1.58079244551
-0.12  -0.6  1.94264751878
-0.12  -0.58  2.38733389252
-0.12  -0.56  2.93381226356
-0.12  -0.54  3.60538357236
-0.12  -0.52  4.43068251684
-0.12  -0.5  5.4448984889
-0.12  -0.48  6.69127599229
-0.12  -0.46  8.22295851728
-0.12  -0.44  10.1052544918
-0.12  -0.42  12.4184219255
-0.12  -0.4  15.2610904798
-0.12  -0.38  18.7544668743
-0.12  -0.36  23.0475029424
-0.12  -0.34  28.3232466932
-0.12  -0.32  34.8066471778
-0.12  -0.3  42.7741459474
-0.12  -0.28  52.5654640674
-0.12  -0.26  64.5980872655
-0.12  -0.24  79.385066838
-0.12  -0.22  97.5568953145
-0.12  -0.2  62.1247920533
-0.12  -0.18  58.1470589196
-0.12  -0.16  53.8827113274
-0.12  -0.14  49.4029817126
-0.12  -0.12  44.798645552
-0.12  -0.1  40.1893275816
-0.12  -0.08  35.7382871112
-0.12  -0.06  31.6735071721
-0.12  -0.04  28.3086541875
-0.12  -0.02  26.0346151649
-0.12  6.17561557e-16  25.2228305662
-0.12  0.02  26.0346151649
-0.12  0.04  28.3086541875
-0.12  0.06  31.6735071721
-0.12  0.08  35.7382871112
-0.12  0.1  40.1893275816
-0.12  0.12  44.798645552
-0.12  0.14  49.4029817126
-0.12  0.16  53.8827113274
-0.12  0.18  58.1470589196
-0.12  0.2  119.888389624
-0.12  0.22  97.5568953145
-0.12  0.24  79.385066838
-0.12  0.26  64.5980872655
-0.12  0.28  52.5654640674
-0.12  0.3  42.7741459474
-0.12  0.32  34.8066471778
-0.12  0.34  28.3232466932
-0.12  0.36  23.0475029424
-0.12  0.38  18.7544668743
-0.12  0.4  15.2610904798
-0.12  0.42  12.4184219255
-0.12  0.44  10.1052544918
-0.12  0.46  8.22295851728
-0.12  0.48  6.69127599229
-0.12  0.5  5.4448984889
-0.12  0.52  4.43068251684
-0.12  0.54  3.60538357236
-0.12  0.56  2.93381226356
-0.12  0.58  2.38733389252
-0.12  0.6  1.94264751878
-0.12  0.62  1.58079244551
-0.12  0.64  1.28633976655
-0.12  0.66  1.04673450313
-0.12  0.68  0.851760280241
-0.12  0.7  0.693103717158
-0.12  0.72  0.563999958536
-0.12  0.74  0.458944232088
-0.12  0.76  0.373457134135
-0.12  0.78  0.303893635184
-0.12  0.8  0.247287661861
-0.12  0.82  0.201225628407
-0.12  0.84  0.163743525346
-0.12  0.86  0.133243177348
-0.12  0.88  0.108424099653
-0.12  0.9  0.0882280475417
-0.12  0.92  0.0717938945116
-0.12  0.94  0.0584209152617
-0.12  0.96  0.0475389079146
-0.12  0.98  0.0386838815446
-0.1  -1  0.0362233769828
-0.1  -0.98  0.0445151756748
-0.1  -0.96  0.0547050283661
-0.1  -0.94  0.0672274136441
-0.1  -0.92  0.0826162654562
-0.1  -0.9  0.101527739176
-0.1  -0.88  0.124768188991
-0.1  -0.86  0.153328549522
-0.1  -0.84  0.188426587647
-0.1  -0.82  0.231558826083
-0.1  -0.8  0.284564352656
-0.1  -0.78  0.349703235987
-0.1  -0.76  0.429752891107
-0.1  -0.74  0.528126503872
-0.1  -0.72  0.649018563607
-0.1  -0.7  0.797583709241
-0.1  -0.68  0.980156514647
-0.1  -0.66  1.20452158447
-0.1  -0.64  1.4802454769
-0.1  -0.62  1.81908460598
-0.1  -0.6  2.23548651582
-0.1  -0.58  2.74720590015
-0.1  -0.56  3.37606163329
-0.1  -0.54  4.14886709116
-0.1  -0.52  5.09857342959
-0.1  -0.5  6.26567456747
-0.1  -0.48  7.699933781
-0.1  -0.46  9.46250552808
-0.1  -0.44  11.628542974
-0.1  -0.42  14.2904023988
-0.1  -0.4  17.5615811178
-0.1  -0.38  21.5815568206
-0.1  -0.36  26.5217346704
-0.1  -0.34  32.5927557393
-0.1  -0.32  40.0534783973
-0.1  -0.3  49.2220156086
-0.1  -0.28  60.4892987455
-0.1  -0.26  74.3357462608
-0.1  -0.24  91.3517479413
-0.1  -0.22  112.262838159
-0.1  -0.2  71.4896210409
-0.1  -0.18  66.9122755895
-0.1  -0.16  62.00511078
-0.1  -0.14  56.8500967841
-0.1  -0.12  51.5516927752
-0.1  -0.1  46.2475559875
-0.1  -0.08  41.1255558013
-0.1  -0.06  36.4480419158
-0.1  -0.04  32.5759635269
-0.1  -0.02  29.9591308167
-0.1  6.17561557e-16  29.0249760066
-0.1  0.02  29.9591308167
-0.1  0.04  32.5759635269
-0.1  0.06  36.4480419158
-0.1  0.08  41.1255558013
-0.1  0.1  46.2475559875
-0.1  0.12  51.5516927752
-0.1  0.14  56.8500967841
-0.1  0.16  62.00511078
-0.1  0.18  66.9122755895
-0.1  0.2  137.960631467
-0.1  0.22  112.262838159
-0.1  0.24  91.3517479413
-0.1  0.26  74.3357462608
-0.1  0.28  60.4892987455
-0.1  0.3  49.2220156086
-0.1  0.32  40.0534783973
-0.1  0.34  32.5927557393
-0.1  0.36  26.5217346704
-0.1  0.38  21.5815568206
-0.1  0.4  17.5615811178
-0.1  0.42  14.2904023988
-0.1  0.44  11.628542974
-0.1  0.46  9.46250552808
-0.1  0.48  7.699933781
-0.1  0.5  6.26567456747
-0.1  0.52  5.09857342959
-0.1  0.54  4.14886709116
-0.1  0.56  3.37606163329
-0.1  0.58  2.74720590015
-0.1  0.6  2.23548651582
-0.1  0.62  1.81908460598
-0.1  0.64  1.4802454769
-0.1  0.66  1.20452158447
-0.1  0.68  0.980156514647
-0.1  0.7  0.797583709241
-0.1  0.72  0.649018563607
-0.1  0.74  0.528126503872
-0.1  0.76  0.429752891107
-0.1  0.78  0.349703235987
-0.1  0.8  0.284564352656
-0.1  0.82  0.231558826083
-0.1  0.84  0.188426587647
-0.1  0.86  0.153328549522
-0.1  0.88  0.124768188991
-0.1  0.9  0.101527739176
-0.1  0.92  0.0826162654561
-0.1  0.94  0.0672274136441
-0.1  0.96  0.0547050283661
-0.1  0.98  0.0445151756748
-0.08  -1  0.0416837691964
-0.08  -0.98  0.0512254920199
-0.08  -0.96  0.0629513857136
-0.08  -0.94  0.0773614231313
-0.08  -0.92  0.095070024608
-0.08  -0.9  0.116832255834
-0.08  -0.88  0.143576022617
-0.08  -0.86  0.17644163526
-0.08  -0.84  0.216830429522
-0.08  -0.82  0.266464517276
-0.08  -0.8  0.327460214526
-0.08  -0.78  0.402418277651
-0.08  -0.76  0.494534795386
-0.08  -0.74  0.607737464797
-0.08  -0.72  0.746853061834
-0.08  -0.7  0.917813247135
-0.08  -0.68  1.12790748229
-0.08  -0.66  1.38609384053
-0.08  -0.64  1.70338096424
-0.08  -0.62  2.09329745541
-0.08  -0.6  2.57246871299
-0.08  -0.58  3.16132581264
-0.08  -0.56  3.88497665421
-0.08  -0.54  4.77427652139
-0.08  -0.52  5.86714370034
-0.08  -0.5  7.21017625314
-0.08  -0.48  8.86063888265
-0.08  -0.46  10.8889046054
-0.08  -0.44  13.3814553416
-0.08  -0.42  16.4445693619
-0.08  -0.4  20.2088528186
-0.08  -0.38  24.8348085778
-0.08  -0.36  30.5196797972
-0.08  -0.34  37.5058600515
-0.08  -0.32  46.0912285958
-0.08  -0.3  56.6418514481
-0.08  -0.28  69.6075898433
-0.08  -0.26  85.5412815775
-0.08  -0.24  105.122313104
-0.08  -0.22  129.185587456
-0.08  -0.2  82.2661251274
-0.08  -0.18  76.9987804671
-0.08  -0.16  71.351898747
-0.08  -0.14  65.4198065041
-0.08  -0.12  59.3227093196
-0.08  -0.1  53.2190151845
-0.08  -0.08  47.3249133262
-0.08  -0.06  41.9423006198
-0.08  -0.04  37.4865365437
-0.08  -0.02  34.4752366651
-0.08  6.17561557e-16  33.4002652862
-0.08  0.02  34.4752366651
-0.08  0.04  37.4865365437
-0.08  0.06  41.9423006198
-0.08  0.08  47.3249133262
-0.08  0.1  53.2190151845
-0.08  0.12  59.3227093196
-0.08  0.14  65.4198065041
-0.08  0.16  71.351898747
-0.08  0.18  76.9987804671
-0.08  0.2  158.757123141
-0.08  0.22  129.185587456
-0.08  0.24  105.122313104
-0.08  0.26  85.5412815775
-0.08  0.28  69.6075898433
-0.08  0.3  56.6418514481
-0.08  0.32  46.0912285958
-0.08  0.34  37.5058600515
-0.08  0.36  30.5196797972
-0.08  0.38  24.8348085778
-0.08  0.4  20.2088528186
-0.08  0.42  16.4445693619
-0.08  0.44  13.3814553416
-0.08  0.46  10.8889046054
-0.08  0.48  8.86063888265
-0.08  0.5  7.21017625314
-0.08  0.52  5.86714370034
-0.08  0.54  4.77427652139
-0.08  0.56  3.88497665421
-0.08  0.58  3.16132581264
-0.08  0.6  2.57246871299
-0.08  0.62  2.09329745541
-0.08  0.64  1.70338096424
-0.08  0.66  1.38609384053
-0.08  0.68  1.12790748229
-0.08  0.7  0.917813247135
-0.08  0.72  0.746853061834
-0.08  0.74  0.607737464797
-0.08  0.76  0.494534795386
-0.08  0.78  0.402418277651
-0.08  0.8  0.327460214526
-0.08  0.82  0.266464517276
-0.08  0.84  0.216830429522
-0.08  0.86  0.17644163526
-0.08  0.88  0.143576022617
-0.08  0.9  0.116832255834
-0.08  0.92  0.095070024608
-0.08  0.94  0.0773614231313
-0.08  0.96  0.0629513857136
-0.08  0.98  0.0512254920199
-0.06  -1  0.047967273047
-0.06  -0.98  0.0589473363387
-0.06  -0.96  0.0724408172635
-0.06  -0.94  0.0890230556925
-0.06  -0.92  0.109401091045
-0.06  -0.9  0.134443809289
-0.06  -0.88  0.165218990812
-0.06  -0.86  0.203038838822
-0.06  -0.84  0.249515929541
-0.06  -0.82  0.306631969803
-0.06  -0.8  0.376822293785
-0.06  -0.78  0.463079701652
-0.06  -0.76  0.569082067645
-0.06  -0.74  0.6993491586
-0.06  -0.72  0.859435349384
-0.06  -0.7  1.05616645232
-0.06  -0.68  1.29793075861
-0.06  -0.66  1.59503670132
-0.06  -0.64  1.96015239001
-0.06  -0.62  2.40884575814
-0.06  -0.6  2.96024835421
-0.06  -0.58  3.63787107953
-0.06  -0.56  4.47060665449
-0.06  -0.54  5.4939615567
-0.06  -0.52  6.7515699589
-0.06  -0.5  8.29705421844
-0.06  -0.48  10.1963112465
-0.06  -0.46  12.5303222444
-0.06  -0.44  15.3986056086
-0.06  -0.42  18.9234602323
-0.06  -0.4  23.255180129
-0.06  -0.38  28.5784627226
-0.06  -0.36  35.1202840425
-0.06  -0.34  43.1595766083
-0.06  -0.32  53.0391226549
-0.06  -0.3  65.1801698042
-0.06  -0.28  80.1003923716
-0.06  -0.26  98.4359641491
-0.06  -0.24  120.968683811
-0.06  -0.22  148.659309527
-0.06  -0.2  94.6671033493
-0.06  -0.18  88.6057474685
-0.06  -0.16  82.1076422694
-0.06  -0.14  75.2813332806
-0.06  -0.12  68.2651461391
-0.06  -0.1  61.241367608
-0.06  -0.08  54.4587757587
-0.06  -0.06  48.2647760708
-0.06  -0.04  43.1373402321
-0.06  -0.02  39.6721103286
-0.06  6.17561557e-16  38.4350953791
-0.06  0.02  39.6721103286
-0.06  0.04  43.1373402321
-0.06  0.06  48.2647760708
-0.06  0.08  54.4587757587
-0.06  0.1  61.241367608
-0.06  0.12  68.2651461391
-0.06  0.14  75.2813332806
-0.06  0.16  82.1076422694
-0.06  0.18  88.6057474685
-0.06  0.2  182.688524111
-0.06  0.22  148.659309527
-0.06  0.24  120.968683811
-0.06  0.26  98.4359641491
-0.06  0.28  80.1003923716
-0.06  0.3  65.1801698042
-0.06  0.32  53.0391226549
-0.06  0.34  43.1595766083
-0.06  0.36  35.1202840425
-0.06  0.38  28.5784627226
-0.06  0.4  23.255180129
-0.06  0.42  18.9234602323
-0.06  0.44  15.3986056086
-0.06  0.46  12.5303222444
-0.06  0.48  10.1963112465
-0.06  0.5  8.29705421844
-0.06  0.52  6.7515699589
-0.06  0.54  5.4939615567
-0.06  0.56  4.47060665449
-0.06  0.58  3.63787107953
-0.06  0.6  2.96024835421
-0.06  0.62  2.40884575814
-0.06  0.64  1.96015239001
-0.06  0.66  1.59503670132
-0.06  0.68  1.29793075861
-0.06  0.7  1.05616645232
-0.06  0.72  0.859435349384
-0.06  0.74  0.6993491586
-0.06  0.76  0.569082067645
-0.06  0.78  0.463079701652
-0.06  0.8  0.376822293785
-0.06  0.82  0.306631969803
-0.06  0.84  0.249515929541
-0.06  0.86  0.203038838822
-0.06  0.88  0.165218990812
-0.06  0.9  0.134443809289
-0.06  0.92  0.109401091045
-0.06  0.94  0.0890230556925
-0.06  0.96  0.0724408172635
-0.06  0.98  0.0589473363387
-0.04  -1  0.055197966209
-0.04  -0.98  0.0678331886022
-0.04  -0.96  0.083360706779
-0.04  -0.94  0.102442588619
-0.04  -0.92  0.125892454233
-0.04  -0.9  0.154710167386
-0.04  -0.88  0.190124468051
-0.04  -0.86  0.233645363859
-0.04  -0.84  0.287128514349
-0.04  -0.82  0.352854353242
-0.04  -0.8  0.433625322389
-0.04  -0.78  0.532885363293
-0.04  -0.76  0.654866761118
-0.04  -0.74  0.804770602382
-0.04  -0.72  0.988988540741
-0.04  -0.7  1.21537532661
-0.04  -0.68  1.49358372083
-0.04  -0.66  1.83547607252
-0.04  -0.64  2.25563011018
-0.04  -0.62  2.77196051212
-0.04  -0.6  3.40648275889
-0.04  -0.58  4.18625183724
-0.04  -0.56  5.14451582032
-0.04  -0.54  6.32213351097
-0.04  -0.52  7.76931659392
-0.04  -0.5  9.54777057963
-0.04  -0.48  11.7333258259
-0.04  -0.46  14.41917082
-0.04  -0.44  17.7198255822
-0.04  -0.42  21.7760246124
-0.04  -0.4  26.7607175769
-0.04  -0.38  32.8864435992
-0.04  -0.36  40.4143935789
-0.04  -0.34  49.6655469424
-0.04  -0.32  61.0343576795
-0.04  -0.3  75.0055732128
-0.04  -0.28  92.1749032328
-0.04  -0.26  113.27441978
-0.04  -0.24  139.203771597
-0.04  -0.22  171.068543669
-0.04  -0.2  108.937432542
-0.04  -0.18  101.962374427
-0.04  -0.16  94.4847304336
-0.04  -0.14  86.6294084826
-0.04  -0.12  78.5555857249
-0.04  -0.1  70.4730272348
-0.04  -0.08  62.6680124418
-0.04  -0.06  55.5403154986
-0.04  -0.04  49.6399586055
-0.04  -0.02  45.6523722583
-0.04  6.17561557e-16  44.2288869308
-0.04  0.02  45.6523722583
-0.04  0.04  49.6399586055
-0.04  0.06  55.5403154986
-0.04  0.08  62.6680124418
-0.04  0.1  70.4730272348
-0.04  0.12  78.5555857249
-0.04  0.14  86.6294084826
-0.04  0.16  94.4847304336
-0.04  0.18  101.962374427
-0.04  0.2  210.227397558
-0.04  0.22  171.068543669
-0.04  0.24  139.203771597
-0.04  0.26  113.27441978
-0.04  0.28  92.1749032328
-0.04  0.3  75.0055732128
-0.04  0.32  61.0343576795
-0.04  0.34  49.6655469424
-0.04  0.36  40.4143935789
-0.04  0.38  32.8864435992
-0.04  0.4  26.7607175769
-0.04  0.42  21.7760246124
-0.04  0.44  17.7198255822
-0.04  0.46  14.41917082
-0.04  0.48  11.7333258259
-0.04  0.5  9.54777057963
-0.04  0.52  7.76931659392
-0.04  0.54  6.32213351097
-0.04  0.56  5.14451582032
-0.04  0.58  4.18625183724
-0.04  0.6  3.40648275889
-0.04  0.62  2.77196051212
-0.04  0.64  2.25563011018
-0.04  0.66  1.83547607252
-0.04  0.68  1.49358372083
-0.04  0.7  1.21537532661
-0.04  0.72  0.988988540741
-0.04  0.74  0.804770602382
-0.04  0.76  0.654866761118
-0.04  0.78  0.532885363293
-0.04  0.8  0.433625322389
-0.04  0.82  0.352854353242
-0.04  0.84  0.287128514349
-0.04  0.86  0.233645363859
-0.04  0.88  0.190124468051
-0.04  0.9  0.154710167386
-0.04  0.92  0.125892454233
-0.04  0.94  0.102442588619
-0.04  0.96  0.083360706779
-0.04  0.98  0.0678331886022
-0.02  -1  0.0635186301006
-0.02  -0.98  0.0780585139506
-0.02  -0.96  0.0959266846675
-0.02  -0.94  0.117885011712
-0.02  -0.92  0.144869762096
-0.02  -0.9  0.178031521266
-0.02  -0.88  0.218784252185
-0.02  -0.86  0.268865584386
-0.02  -0.84  0.330410903642
-0.02  -0.82  0.406044401312
-0.02  -0.8  0.498990965551
-0.02  -0.78  0.613213685245
-0.02  -0.76  0.753582829613
-0.02  -0.74  0.926083508494
-0.02  -0.72  1.1380708676
-0.02  -0.7  1.39858369984
-0.02  -0.68  1.71872984465
-0.02  -0.66  2.11215980798
-0.02  -0.64  2.59564879746
-0.02  -0.62  3.18981198975
-0.02  -0.6  3.91998352778
-0.02  -0.58  4.81729672703
-0.02  -0.56  5.92001154899
-0.02  -0.54  7.27514594305
-0.02  -0.52  8.94048061472
-0.02  -0.5  10.9870227
-0.02  -0.48  13.5020333931
-0.02  -0.46  16.5927486205
-0.02  -0.44  20.3909514047
-0.02  -0.42  25.0585908759
-0.02  -0.4  30.7946875172
-0.02  -0.38  37.8438190711
-0.02  -0.36  46.5065489325
-0.02  -0.34  57.1522416793
-0.02  -0.32  70.2348121703
-0.02  -0.3  86.3120797304
-0.02  -0.28  106.069552651
-0.02  -0.26  130.349657135
-0.02  -0.24  160.187656973
-0.02  -0.22  196.855795484
-0.02  -0.2  125.358902818
-0.02  -0.18  117.332408968
-0.02  -0.16  108.727568328
-0.02  -0.14  99.6881177181
-0.02  -0.12  90.3972290049
-0.02  -0.1  81.0962877155
-0.02  -0.08  72.1147276761
-0.02  -0.06  63.9125858817
-0.02  -0.04  57.1227960997
-0.02  -0.02  52.5341121394
-0.02  6.17561557e-16  50.8960474754
-0.02  0.02  52.5341121394
-0.02  0.04  57.1227960997
-0.02  0.06  63.9125858817
-0.02  0.08  72.1147276761
-0.02  0.1  81.0962877155
-0.02  0.12  90.3972290049
-0.02  0.14  99.6881177181
-0.02  0.16  108.727568328
-0.02  0.18  117.332408968
-0.02  0.2  241.917541889
-0.02  0.22  196.855795484
-0.02  0.24  160.187656973
-0.02  0.26  130.349657135
-0.02  0.28  106.069552651
-0.02  0.3  86.3120797304
-0.02  0.32  70.2348121703
-0.02  0.34  57.1522416793
-0.02  0.36  46.5065489325
-0.02  0.38  37.8438190711
-0.02  0.4  30.7946875172
-0.02  0.42  25.0585908759
-0.02  0.44  20.3909514047
-0.02  0.46  16.5927486205
-0.02  0.48  13.5020333931
-0.02  0.5  10.9870227
-0.02  0.52  8.94048061472
-0.02  0.54  7.27514594305
-0.02  0.56  5.92001154899
-0.02  0.58  4.81729672703
-0.02  0.6  3.91998352778
-0.02  0.62  3.18981198975
-0.02  0.64  2.59564879746
-0.02  0.66  2.11215980798
-0.02  0.68  1.71872984465
-0.02  0.7  1.39858369984
-0.02  0.72  1.1380708676
-0.02  0.74  0.926083508494
-0.02  0.76  0.753582829613
-0.02  0.78  0.613213685245
-0.02  0.8  0.498990965551
-0.02  0.82  0.406044401312
-0.02  0.84  0.330410903642
-0.02  0.86  0.268865584386
-0.02  0.88  0.218784252185
-0.02  0.9  0.178031521266
-0.02  0.92  0.144869762096
-0.02  0.94  0.117885011712
-0.02  0.96  0.0959266846675
-0.02  0.98  0.0780585139506
2.8449465e-16  -1  0.0668320571943
2.8449465e-16  -0.98  0.0821304089932
2.8449465e-16  -0.96  0.100930666578
2.8449465e-16  -0.94  0.124034442063
2.8449465e-16  -0.92  0.152426842499
2.8449465e-16  -0.9  0.187318473223
2.8449465e-16  -0.88  0.230197056078
2.8449465e-16  -0.86  0.282890863433
2.8449465e-16  -0.84  0.347646672714
2.8449465e-16  -0.82  0.427225565302
2.8449465e-16  -0.8  0.525020654513
2.8449465e-16  -0.78  0.645201762376
2.8449465e-16  -0.76  0.792893214001
2.8449465e-16  -0.74  0.974392330382
2.8449465e-16  -0.72  1.19743793583
2.8449465e-16  -0.7  1.47154032874
2.8449465e-16  -0.68  1.80838678507
2.8449465e-16  -0.66  2.22233988464
2.8449465e-16  -0.64  2.73104990793
2.8449465e-16  -0.62  3.35620741506
2.8449465e-16  -0.6  4.12446809565
2.8449465e-16  -0.58  5.06858932369
2.8449465e-16  -0.56  6.22882687814
2.8449465e-16  -0.54  7.65465138327
2.8449465e-16  -0.52  9.40685765486
2.8449465e-16  -0.5  11.5601568913
2.8449465e-16  -0.48  14.2063622364
2.8449465e-16  -0.46  17.4583035412
2.8449465e-16  -0.44  21.4546382434
2.8449465e-16  -0.42  26.365763493
2.8449465e-16  -0.4  32.4010816067
2.8449465e-16  -0.38  39.8179286393
2.8449465e-16  -0.36  48.9325467701
2.8449465e-16  -0.34  60.1335683507
2.8449465e-16  -0.32  73.8985865496
2.8449465e-16  -0.3  90.8145191414
2.8449465e-16  -0.28  111.602633717
2.8449465e-16  -0.26  137.149301349
2.8449465e-16  -0.24  168.543789998
2.8449465e-16  -0.22  207.124709113
2.8449465e-16  -0.2  90.0044519309
2.8449465e-16  -0.18  86.067332081
2.8449465e-16  -0.16  81.9472309312
2.8449465e-16  -0.14  77.7490025632
2.8449465e-16  -0.12  73.5963548685
2.8449465e-16  -0.1  69.6333011987
2.8449465e-16  -0.08  66.0234555546
2.8449465e-16  -0.06  62.9448162664
2.8449465e-16  -0.04  60.5771928858
2.8449465e-16  -0.02  59.0807124562
2.8449465e-16  6.17561557e-16  58.5682305927
2.8449465e-16  0.02  59.0807124562
2.8449465e-16  0.04  60.5771928858
2.8449465e-16  0.06  62.9448162664
2.8449465e-16  0.08  66.0234555546
2.8449465e-16  0.1  69.6333011987
2.8449465e-16  0.12  73.5963548685
2.8449465e-16  0.14  77.7490025632
2.8449465e-16  0.16  81.9472309312
2.8449465e-16  0.18  86.067332081
2.8449465e-16  0.2  254.537085737
2.8449465e-16  0.22  207.124709113
2.8449465e-16  0.24  168.543789998
2.8449465e-16  0.26  137.149301349
2.8449465e-16  0.28  111.602633717
2.8449465e-16  0.3  90.8145191414
2.8449465e-16  0.32  73.8985865496
2.8449465e-16  0.34  60.1335683506
2.8449465e-16  0.36  48.9325467701
2.8449465e-16  0.38  39.8179286393
2.8449465e-16  0.4  32.4010816067
2.8449465e-16  0.42  26.365763493
2.8449465e-16  0.44  21.4546382434
2.8449465e-16  0.46  17.4583035412
2.8449465e-16  0.48  14.2063622364
2.8449465e-16  0.5  11.5601568913
2.8449465e-16  0.52  9.40685765486
2.8449465e-16  0.54  7.65465138327
2.8449465e-16  0.56  6.22882687814
2.8449465e-16  0.58  5.06858932369
2.8449465e-16  0.6  4.12446809565
2.8449465e-16  0.62  3.35620741506
2.8449465e-16  0.64  2.73104990793
2.8449465e-16  0.66  2.22233988464
2.8449465e-16  0.68  1.80838678507
2.8449465e-16  0.7  1.47154032874
2.8449465e-16  0.72  1.19743793583
2.8449465e-16  0.74  0.974392330382
2.8449465e-16  0.76  0.792893214001
2.8449465e-16  0.78  0.645201762376
2.8449465e-16  0.8  0.525020654513
2.8449465e-16  0.82  0.427225565302
2.8449465e-16  0.84  0.347646672714
2.8449465e-16  0.86  0.282890863433
2.8449465e-16  0.88  0.230197056078
2.8449465e-16  0.9  0.187318473223
2.8449465e-16  0.92  0.152426842499
2.8449465e-16  0.94  0.124034442063
2.8449465e-16  0.96  0.100930666578
2.8449465e-16  0.98  0.0821304089932
0.02  -1  0.0632672450232
0.02  -0.98  0.0777495849712
0.02  -0.96  0.0955470395617
0.02  -0.94  0.117418463036
0.02  -0.92  0.144296416979
0.02  -0.9  0.177326933216
0.02  -0.88  0.217918378723
0.02  -0.86  0.267801506089
0.02  -0.84  0.329103249959
0.02  -0.82  0.404437416037
0.02  -0.8  0.497016129471
0.02  -0.78  0.610786794591
0.02  -0.76  0.750600405754
0.02  -0.74  0.922418385772
0.02  -0.72  1.1335667712
0.02  -0.7  1.39304858249
0.02  -0.68  1.71192769803
0.02  -0.66  2.10380059973
0.02  -0.64  2.58537610466
0.02  -0.62  3.17718780165
0.02  -0.6  3.90446956973
0.02  -0.58  4.79823150934
0.02  -0.56  5.89658216207
0.02  -0.54  7.24635339631
0.02  -0.52  8.90509724125
0.02  -0.5  10.9435398109
0.02  -0.48  13.4485969493
0.02  -0.46  16.5270801798
0.02  -0.44  20.3102509726
0.02  -0.42  24.9594175185
0.02  -0.4  30.6728126454
0.02  -0.38  37.6940461403
0.02  -0.36  46.3224918711
0.02  -0.34  56.9260525963
0.02  -0.32  69.9568467346
0.02  -0.3  85.9704859523
0.02  -0.28  105.649765532
0.02  -0.26  129.833777643
0.02  -0.24  159.553688852
0.02  -0.22  196.076707376
0.02  -0.2  89.7515556619
0.02  -0.18  85.4918855478
0.02  -0.16  81.0150428463
0.02  -0.14  76.4295902237
0.02  -0.12  71.8659061889
0.02  -0.1  67.4793879877
0.02  -0.08  63.4518836619
0.02  -0.06  59.9882279089
0.02  -0.04  57.3032554962
0.02  -0.02  55.5953126107
0.02  6.17561557e-16  55.0083011871
0.02  0.02  55.5953126107
0.02  0.04  57.3032554962
0.02  0.06  59.9882279089
0.02  0.08  63.4518836619
0.02  0.1  67.4793879877
0.02  0.12  71.8659061889
0.02  0.14  76.4295902237
0.02  0.16  81.0150428463
0.02  0.18  85.4918855478
0.02  0.2  240.960114754
0.02  0.22  196.076707376
0.02  0.24  159.553688852
0.02  0.26  129.833777643
0.02  0.28  105.649765532
0.02  0.3  85.9704859523
0.02  0.32  69.9568467346
0.02  0.34  56.9260525963
0.02  0.36  46.3224918711
0.02  0.38  37.6940461403
0.02  0.4  30.6728126454
0.02  0.42  24.9594175185
0.02  0.44  20.3102509726
0.02  0.46  16.5270801798
0.02  0.48  13.4485969493
0.02  0.5  10.9435398109
0.02  0.52  8.90509724125
0.02  0.54  7.24635339631
0.02  0.56  5.89658216207
0.02  0.58  4.79823150934
0.02  0.6  3.90446956973
0.02  0.62  3.17718780165
0.02  0.64  2.58537610466
0.02  0.66  2.10380059973
0.02  0.68  1.71192769803
0.02  0.7  1.39304858249
0.02  0.72  1.1335667712
0.02  0.74  0.922418385772
0.02  0.76  0.750600405754
0.02  0.78  0.610786794591
0.02  0.8  0.497016129471
0.02  0.82  0.404437416037
0.02  0.84  0.329103249959
0.02  0.86  0.267801506089
0.02  0.88  0.217918378723
0.02  0.9  0.177326933216
0.02  0.92  0.144296416979
0.02  0.94  0.117418463036
0.02  0.96  0.0955470395617
0.02  0.98  0.0777495849712
0.04  -1  0.0578274969357
0.04  -0.98  0.0710646383452
0.04  -0.96  0.0873318592494
0.04  -0.94  0.107322767238
0.04  -0.92  0.131889741803
0.04  -0.9  0.162080278403
0.04  -0.88  0.199181651947
0.04  -0.86  0.244775804084
0.04  -0.84  0.300806794599
0.04  -0.82  0.369663692926
0.04  -0.8  0.454282444153
0.04  -0.78  0.55827105289
0.04  -0.76  0.686063422672
0.04  -0.74  0.843108410317
0.04  -0.72  1.03610215624
0.04  -0.7  1.27327359688
0.04  -0.68  1.56473533304
0.04  -0.66  1.9229148146
0.04  -0.64  2.36308422652
0.04  -0.62  2.90401166981
0.04  -0.6  3.56876140247
0.04  -0.58  4.38567726161
0.04  -0.56  5.38959119814
0.04  -0.54  6.62330845394
0.04  -0.52  8.1394327071
0.04  -0.5  10.0026090064
0.04  -0.48  12.2922801299
0.04  -0.46  15.106073895
0.04  -0.44  18.5639658476
0.04  -0.42  22.8133948228
0.04  -0.4  28.035549495
0.04  -0.38  34.4530939647
0.04  -0.36  42.339661791
0.04  -0.34  52.0315232766
0.04  -0.32  63.9419234817
0.04  -0.3  78.5787023149
0.04  -0.28  96.5659479928
0.04  -0.26  118.670607137
0.04  -0.24  145.835186119
0.04  -0.22  179.217937983
0.04  -0.2  89.3911270848
0.04  -0.18  84.6678333334
0.04  -0.16  79.6722733056
0.04  -0.14  74.5154300147
0.04  -0.12  69.3338842719
0.04  -0.1  64.2961920848
0.04  -0.08  59.6089916281
0.04  -0.06  55.5188898416
0.04  -0.04  52.3020701834
0.04  -0.02  50.2308705252
0.04  6.17561557e-16  49.5139864054
0.04  0.02  50.2308705252
0.04  0.04  52.3020701834
0.04  0.06  55.5188898416
0.04  0.08  59.6089916281
0.04  0.1  64.2961920848
0.04  0.12  69.3338842719
0.04  0.14  74.5154300147
0.04  0.16  79.6722733056
0.04  0.18  84.6678333334
0.04  0.2  220.242248457
0.04  0.22  179.217937983
0.04  0.24  145.835186119
0.04  0.26  118.670607137
0.04  0.28  96.5659479928
0.04  0.3  78.5787023149
0.04  0.32  63.9419234817
0.04  0.34  52.0315232766
0.04  0.36  42.339661791
0.04  0.38  34.4530939647
0.04  0.4  28.035549495
0.04  0.42  22.8133948228
0.04  0.44  18.5639658476
0.04  0.46  15.106073895
0.04  0.48  12.2922801299
0.04  0.5  10.0026090064
0.04  0.52  8.1394327071
0.04  0.54  6.62330845394
0.04  0.56  5.38959119814
0.04  0.58  4.38567726161
0.04  0.6  3.56876140247
0.04  0.62  2.90401166981
0.04  0.64  2.36308422652
0.04  0.66  1.9229148146
0.04  0.68  1.56473533304
0.04  0.7  1.27327359688
0.04  0.72  1.03610215624
0.04  0.74  0.843108410317
0.04  0.76  0.686063422672
0.04  0.78  0.55827105289
0.04  0.8  0.454282444153
0.04  0.82  0.369663692926
0.04  0.84  0.300806794599
0.04  0.86  0.244775804084
0.04  0.88  0.199181651947
0.04  0.9  0.162080278403
0.04  0.92  0.131889741803
0.04  0.94  0.107322767238
0.04  0.96  0.0873318592494
0.04  0.98  0.0710646383452
0.06  -1  0.0508152707733
0.06  -0.98  0.0624472617919
0.06  -0.96  0.0767419015184
0.06  -0.94  0.0943086899195
0.06  -0.92  0.115896646009
0.06  -0.9  0.142426244788
0.06  -0.88  0.175028664789
0.06  -0.86  0.215094019669
0.06  -0.84  0.264330630374
0.06  -0.82  0.324837865142
0.06  -0.8  0.399195653113
0.06  -0.78  0.490574488276
0.06  -0.76  0.602870614121
0.06  -0.74  0.740872153071
0.06  -0.72  0.910463264156
0.06  -0.7  1.11887503389
0.06  -0.68  1.37499379794
0.06  -0.66  1.68974003987
0.06  -0.64  2.07653402264
0.06  -0.62  2.55186800657
0.06  -0.6  3.13600945227
0.06  -0.58  3.85386519186
0.06  -0.56  4.73604341539
0.06  -0.54  5.82015875382
0.06  -0.52  7.15243610513
0.06  -0.5  8.78968158805
0.06  -0.48  10.8017046617
0.06  -0.46  13.2742946863
0.06  -0.44  16.3128788406
0.06  -0.42  20.0470173639
0.06  -0.4  24.6359277914
0.06  -0.38  30.2752737291
0.06  -0.36  37.2055076282
0.06  -0.34  45.7221232831
0.06  -0.32  56.1882552015
0.06  -0.3  69.0501620636
0.06  -0.28  84.8562544595
0.06  -0.26  104.280478216
0.06  -0.24  128.151050341
0.06  -0.22  157.485772835
0.06  -0.2  88.9724639269
0.06  -0.18  83.7046855212
0.06  -0.16  78.0905479538
0.06  -0.14  72.2384450781
0.06  -0.12  66.28504979
0.06  -0.1  60.4059460821
0.06  -0.08  54.8297639818
0.06  -0.06  49.8528384178
0.06  -0.04  45.8427011393
0.06  -0.02  43.2040102281
0.06  6.17561557e-16  42.2784956713
0.06  0.02  43.2040102281
0.06  0.04  45.8427011393
0.06  0.06  49.8528384178
0.06  0.08  54.8297639818
0.06  0.1  60.4059460821
0.06  0.12  66.28504979
0.06  0.14  72.2384450781
0.06  0.16  78.0905479538
0.06  0.18  83.7046855212
0.06  0.2  193.5354301
0.06  0.22  157.485772835
0.06  0.24  128.151050341
0.06  0.26  104.280478216
0.06  0.28  84.8562544595
0.06  0.3  69.0501620636
0.06  0.32  56.1882552015
0.06  0.34  45.7221232831
0.06  0.36  37.2055076282
0.06  0.38  30.2752737291
0.06  0.4  24.6359277914
0.06  0.42  20.0470173639
0.06  0.44  16.3128788406
0.06  0.46  13.2742946863
0.06  0.48  10.8017046617
0.06  0.5  8.78968158805
0.06  0.52  7.15243610513
0.06  0.54  5.82015875382
0.06  0.56  4.73604341539
0.06  0.58  3.85386519186
0.06  0.6  3.13600945227
0.06  0.62  2.55186800657
0.06  0.64  2.07653402264
0.06  0.66  1.68974003987
0.06  0.68  1.37499379794
0.06  0.7  1.11887503389
0.06  0.72  0.910463264156
0.06  0.74  0.740872153071
0.06  0.76  0.602870614121
0.06  0.78  0.490574488276
0.06  0.8  0.399195653113
0.06  0.82  0.324837865142
0.06  0.84  0.264330630374
0.06  0.86  0.215094019669
0.06  0.88  0.175028664789
0.06  0.9  0.142426244788
0.06  0.92  0.115896646009
0.06  0.94  0.0943086899195
0.06  0.96  0.0767419015184
0.06  0.98  0.0624472617919
0.08  -1  0.0427022123917
0.08  -0.98  0.0524770643891
0.08  -0.96  0.0644894522475
0.08  -0.94  0.0792515644616
0.08  -0.92  0.0973928332575
0.08  -0.9  0.11968677255
0.08  -0.88  0.147083959304
0.08  -0.86  0.180752564579
0.08  -0.84  0.222128162422
0.08  -0.82  0.272974940388
0.08  -0.8  0.335460921602
0.08  -0.78  0.412250405705
0.08  -0.76  0.506617570213
0.08  -0.74  0.622586076077
0.08  -0.72  0.765100629972
0.08  -0.7  0.940237818474
0.08  -0.68  1.15546520374
0.08  -0.66  1.41995972807
0.08  -0.64  1.74499900372
0.08  -0.62  2.14444217169
0.08  -0.6  2.6353208328
0.08  -0.58  3.23856524717
0.08  -0.56  3.97989676612
0.08  -0.54  4.89092454841
0.08  -0.52  6.0104933228
0.08  -0.5  7.38633966358
0.08  -0.48  9.07712739963
0.08  -0.46  11.1549489438
0.08  -0.44  13.7083991952
0.08  -0.42  16.8463530798
0.08  -0.4  20.7026077989
0.08  -0.38  25.441587722
0.08  -0.36  31.2653551718
0.08  -0.34  38.4222260301
0.08  -0.32  47.2173575191
0.08  -0.3  58.0257596044
0.08  -0.28  71.308284804
0.08  -0.26  87.6312781832
0.08  -0.24  107.690725378
0.08  -0.22  132.341928281
0.08  -0.2  88.5535453324
0.08  -0.18  82.7343326798
0.08  -0.16  76.4827856489
0.08  -0.14  69.897087475
0.08  -0.12  63.1024462495
0.08  -0.1  56.2649076111
0.08  -0.08  49.6146184319
0.08  -0.06  43.4822374093
0.08  -0.04  38.3430824553
0.08  -0.02  34.8240875559
0.08  6.17561557e-16  33.5562674452
0.08  0.02  34.8240875559
0.08  0.04  38.3430824553
0.08  0.06  43.4822374093
0.08  0.08  49.6146184319
0.08  0.1  56.2649076111
0.08  0.12  63.1024462495
0.08  0.14  69.897087475
0.08  0.16  76.4827856489
0.08  0.18  82.7343326798
0.08  0.2  162.635973708
0.08  0.22  132.341928281
0.08  0.24  107.690725378
0.08  0.26  87.6312781832
0.08  0.28  71.308284804
0.08  0.3  58.0257596044
0.08  0.32  47.2173575191
0.08  0.34  38.4222260301
0.08  0.36  31.2653551718
0.08  0.38  25.441587722
0.08  0.4  20.7026077989
0.08  0.42  16.8463530798
0.08  0.44  13.7083991952
0.08  0.46  11.1549489438
0.08  0.48  9.07712739963
0.08  0.5  7.38633966358
0.08  0.52  6.0104933228
0.08  0.54  4.89092454841
0.08  0.56  3.97989676612
0.08  0.58  3.23856524717
0.08  0.6  2.6353208328
0.08  0.62  2.14444217169
0.08  0.64  1.74499900372
0.08  0.66  1.41995972807
0.08  0.68  1.15546520374
0.08  0.7  0.940237818474
0.08  0.72  0.765100629972
0.08  0.74  0.622586076077
0.08  0.76  0.506617570213
0.08  0.78  0.412250405705
0.08  0.8  0.335460921602
0.08  0.82  0.272974940388
0.08  0.84  0.222128162422
0.08  0.86  0.180752564579
0.08  0.88  0.147083959304
0.08  0.9  0.11968677255
0.08  0.92  0.0973928332575
0.08  0.94  0.0792515644616
0.08  0.96  0.0644894522475
0.08  0.98  0.0524770643891
0.1  -1  0.0342587848057
0.1  -0.98  0.0421008738295
0.1  -0.96  0.051738074986
0.1  -0.94  0.0635813027087
0.1  -0.92  0.0781355327819
0.1  -0.9  0.0960213336785
0.1  -0.88  0.118001326581
0.1  -0.86  0.145012702298
0.1  -0.84  0.178207181537
0.1  -0.82  0.21900012239
0.1  -0.8  0.269130868876
0.1  -0.78  0.330736913712
0.1  -0.76  0.406445037497
0.1  -0.74  0.49948331032
0.1  -0.72  0.613818731369
0.1  -0.7  0.754326375267
0.1  -0.68  0.926997257244
0.1  -0.66  1.13919378019
0.1  -0.64  1.39996365543
0.1  -0.62  1.72042568227
0.1  -0.6  2.11424383535
0.1  -0.58  2.5982098741
0.1  -0.56  3.19295931576
0.1  -0.54  3.92385129998
0.1  -0.52  4.82204986087
0.1  -0.5  5.92585271029
0.1  -0.48  7.28232418934
0.1  -0.46  8.94930201463
0.1  -0.44  10.9978633836
0.1  -0.42  13.5153555893
0.1  -0.4  16.6091203658
0.1  -0.38  20.4110707635
0.1  -0.36  25.0833157046
0.1  -0.34  30.8250720419
0.1  -0.32  37.881158838
0.1  -0.3  46.5524360481
0.1  -0.28  57.2086326946
0.1  -0.26  70.3041115058
0.1  -0.24  86.397242196
0.1  -0.22  106.174209434
0.1  -0.2  88.1931722628
0.1  -0.18  81.8941146376
0.1  -0.16  75.0784192688
0.1  -0.14  67.8275619198
0.1  -0.12  60.2431223347
0.1  -0.1  52.4589963263
0.1  -0.08  44.6665148342
0.1  -0.06  37.16782977
0.1  -0.04  30.4868840916
0.1  -0.02  25.547948108
0.1  6.17561557e-16  23.6540218104
0.1  0.02  25.547948108
0.1  0.04  30.4868840916
0.1  0.06  37.16782977
0.1  0.08  44.6665148342
0.1  0.1  52.4589963263
0.1  0.12  60.2431223348
0.1  0.14  67.8275619198
0.1  0.16  75.0784192688
0.1  0.18  81.8941146376
0.1  0.2  130.47827063
0.1  0.22  106.174209434
0.1  0.24  86.397242196
0.1  0.26  70.3041115058
0.1  0.28  57.2086326946
0.1  0.3  46.5524360481
0.1  0.32  37.881158838
0.1  0.34  30.8250720419
0.1  0.36  25.0833157046
0.1  0.38  20.4110707635
0.1  0.4  16.6091203658
0.1  0.42  13.5153555893
0.1  0.44  10.9978633836
0.1  0.46  8.94930201463
0.1  0.48  7.28232418934
0.1  0.5  5.92585271029
0.1  0.52  4.82204986087
0.1  0.54  3.92385129998
0.1  0.56  3.19295931576
0.1  0.58  2.5982098741
0.1  0.6  2.11424383535
0.1  0.62  1.72042568227
0.1  0.64  1.39996365543
0.1  0.66  1.13919378019
0.1  0.68  0.926997257243
0.1  0.7  0.754326375267
0.1  0.72  0.613818731369
0.1  0.74  0.49948331032
0.1  0.76  0.406445037497
0.1  0.78  0.330736913712
0.1  0.8  0.269130868876
0.1  0.82  0.21900012239
0.1  0.84  0.178207181537
0.1  0.86  0.145012702298
0.1  0.88  0.118001326581
0.1  0.9  0.0960213336785
0.1  0.92  0.0781355327819
0.1  0.94  0.0635813027087
0.1  0.96  0.051738074986
0.1  0.98  0.0421008738295
0.12  -1  0.0268951325937
0.12  -0.98  0.0330516272067
0.12  -0.96  0.0406173889348
0.12  -0.94  0.0499150094356
0.12  -0.92  0.0613409239809
0.12  -0.9  0.0753823148063
0.12  -0.88  0.0926378837613
0.12  -0.86  0.113843379973
0.12  -0.84  0.139902970983
0.12  -0.82  0.171927794962
0.12  -0.8  0.211283337822
0.12  -0.78  0.259647655291
0.12  -0.76  0.319082922454
0.12  -0.74  0.392123361513
0.12  -0.72  0.481883296862
0.12  -0.7  0.592189944762
0.12  -0.68  0.727746599564
0.12  -0.66  0.894333174449
0.12  -0.64  1.09905264745
0.12  -0.62  1.35063392075
0.12  -0.6  1.65980400676
0.12  -0.58  2.03974541031
0.12  -0.56  2.506658209
0.12  -0.54  3.08045079793
0.12  -0.52  3.78558875094
0.12  -0.5  4.65213799256
0.12  -0.48  5.71704675963
0.12  -0.46  7.02572101344
0.12  -0.44  8.63396047541
0.12  -0.42  10.6103378355
0.12  -0.4  13.0391225794
0.12  -0.38  16.0238741005
0.12  -0.36  19.6918573029
0.12  -0.34  24.1994689677
0.12  -0.32  29.7389062551
0.12  -0.3  36.5463616755
0.12  -0.28  44.9120939505
0.12  -0.26  55.1928041684
0.12  -0.24  67.8268449324
0.12  -0.22  83.3529109963
0.12  -0.2  87.9425704129
0.12  -0.18  81.3067571734
0.12  -0.16  74.0895910359
0.12  -0.14  66.3555453254
0.12  -0.12  58.1792577252
0.12  -0.1  49.6506876069
0.12  -0.08  40.8877488122
0.12  -0.06  32.0708025933
0.12  -0.04  23.5525037265
0.12  -0.02  16.2668004957
0.12  6.17561557e-16  12.9199745586
0.12  0.02  16.2668004957
0.12  0.04  23.5525037265
0.12  0.06  32.0708025933
0.12  0.08  40.8877488122
0.12  0.1  49.650687607
0.12  0.12  58.1792577252
0.12  0.14  66.3555453254
0.12  0.16  74.0895910359
0.12  0.18  81.3067571734
0.12  0.2  102.433008324
0.12  0.22  83.3529109963
0.12  0.24  67.8268449324
0.12  0.26  55.1928041684
0.12  0.28  44.9120939505
0.12  0.3  36.5463616755
0.12  0.32  29.7389062551
