-0.12  -0.8  0.490898655032
-0.12  -0.78  0.590919796272
-0.12  -0.76  0.711320355123
-0.12  -0.74  0.856252660351
-0.12  -0.72  1.03071508228
-0.12  -0.7  1.24072441469
-0.12  -0.68  1.49352337971
-0.12  -0.66  1.79783041208
-0.12  -0.64  2.16414033722
-0.12  -0.62  2.60508631275
-0.12  -0.6  3.13587551611
-0.12  -0.58  3.77481360383
-0.12  -0.56  4.54393603013
-0.12  -0.54  5.46976799727
-0.12  -0.52  6.58423924669
-0.12  -0.5  7.92578523975
-0.12  -0.48  9.54067270538
-0.12  -0.46  11.4845952695
-0.12  -0.44  13.8245941954
-0.12  -0.42  16.641370478
-0.12  -0.4  20.0320680282
-0.12  -0.38  24.113623936
-0.12  -0.36  29.0268013522
-0.12  -0.34  34.9410440743
-0.12  -0.32  42.0603202601
-0.12  -0.3  50.6301568043
-0.12  -0.28  60.9461069762
-0.12  -0.26  73.3639433492
-0.12  -0.24  88.3119275502
-0.12  -0.22  106.305579984
-0.12  -0.2  72.8479141835
-0.12  -0.18  68.9918395557
-0.12  -0.16  64.7020852294
-0.12  -0.14  60.0766619396
-0.12  -0.12  55.2402469673
-0.12  -0.1  50.3537100564
-0.12  -0.08  45.6274932266
-0.12  -0.06  41.3368710893
-0.12  -0.04  37.828827007
-0.12  -0.02  35.4939561869
-0.12  6.17561557e-16  34.6696372002
-0.12  0.02  35.4939561869
-0.12  0.04  37.828827007
-0.12  0.06  41.3368710893
-0.12  0.08  45.6274932266
-0.12  0.1  50.3537100564
-0.12  0.12  55.2402469673
-0.12  0.14  60.0766619396
-0.12  0.16  64.7020852294
-0.12  0.18  68.9918395557
-0.12  0.2  127.965458904
-0.12  0.22  106.305579984
-0.12  0.24  88.3119275502
-0.12  0.26  73.3639433492
-0.12  0.28  60.9461069762
-0.12  0.3  50.6301568043
-0.12  0.32  42.0603202601
-0.12  0.34  34.9410440743
-0.12  0.36  29.0268013522
-0.12  0.38  24.113623936
-0.12  0.4  20.0320680282
-0.12  0.42  16.641370478
-0.12  0.44  13.8245941954
-0.12  0.46  11.4845952695
-0.12  0.48  9.54067270538
-0.12  0.5  7.92578523975
-0.12  0.52  6.58423924669
-0.12  0.54  5.46976799727
-0.12  0.56  4.54393603013
-0.12  0.58  3.77481360383
-0.12  0.6  3.13587551611
-0.12  0.62  2.60508631275
-0.12  0.64  2.16414033722
-0.12  0.66  1.79783041208
-0.12  0.68  1.49352337971
-0.12  0.7  1.24072441469
-0.12  0.72  1.03071508228
-0.12  0.74  0.856252660351
-0.12  0.76  0.711320355123
-0.12  0.78  0.590919796272
-0.12  0.8  0.490898655032
-0.12  0.82  0.407807440252
-0.12  0.84  0.33878053366
-0.12  0.86  0.281437361506
-0.12  0.88  0.233800294237
-0.12  0.9  0.194226442761
-0.12  0.92  0.161350999111
-0.12  0.94  0.134040167467
-0.12  0.96  0.111352062234
-0.12  0.98  0.0925042246516
-0.1  -1  0.0868913331691
-0.1  -0.98  0.104595537934
-0.1  -0.96  0.125906993905
-0.1  -0.94  0.151560682485
-0.1  -0.92  0.182441338347
-0.1  -0.9  0.219613961828
-0.1  -0.88  0.264360548256
-0.1  -0.86  0.318224300915
-0.1  -0.84  0.383062852461
-0.1  -0.82  0.461112330245
-0.1  -0.8  0.555064475028
-0.1  -0.78  0.668159472713
-0.1  -0.76  0.804297700647
-0.1  -0.74  0.968174242356
-0.1  -0.72  1.1654408098
-0.1  -0.7  1.40290065747
-0.1  -0.68  1.68874321044
-0.1  -0.66  2.03282649818
-0.1  -0.64  2.4470171345
-0.1  -0.62  2.94559956881
-0.1  -0.6  3.54576872285
-0.1  -0.58  4.26822300257
-0.1  -0.56  5.1378781369
-0.1  -0.54  6.18472646199
-0.1  -0.52  7.44487128547
-0.1  -0.5  8.96177200363
-0.1  -0.48  10.7877429126
-0.1  -0.46  12.9857574039
-0.1  -0.44  15.631619767
-0.1  -0.42  18.8165794985
-0.1  -0.4  22.6504782806
-0.1  -0.38  27.2655381592
-0.1  -0.36  32.8209215673
-0.1  -0.34  39.508220459
-0.1  -0.32  47.5580638598
-0.1  -0.3  57.2480717131
-0.1  -0.28  68.9124293313
-0.1  -0.26  82.9534126519
-0.1  -0.24  99.8552617774
-0.1  -0.22  120.200881264
-0.1  -0.2  82.3699328337
-0.1  -0.18  78.0098271031
-0.1  -0.16  73.1593549971
-0.1  -0.14  67.929338325
-0.1  -0.12  62.4607510512
-0.1  -0.1  56.9354903536
-0.1  -0.08  51.5915053241
-0.1  -0.06  46.7400519747
-0.1  -0.04  42.773468186
-0.1  -0.02  40.1334042283
-0.1  6.17561557e-16  39.2013377398
-0.1  0.02  40.1334042283
-0.1  0.04  42.773468186
-0.1  0.06  46.7400519747
-0.1  0.08  51.5915053241
-0.1  0.1  56.9354903536
-0.1  0.12  62.4607510512
-0.1  0.14  67.929338325
-0.1  0.16  73.1593549971
-0.1  0.18  78.0098271031
-0.1  0.2  144.691943114
-0.1  0.22  120.200881264
-0.1  0.24  99.8552617774
-0.1  0.26  82.9534126519
-0.1  0.28  68.9124293313
-0.1  0.3  57.2480717131
-0.1  0.32  47.5580638598
-0.1  0.34  39.508220459
-0.1  0.36  32.8209215673
-0.1  0.38  27.2655381592
-0.1  0.4  22.6504782806
-0.1  0.42  18.8165794985
-0.1  0.44  15.631619767
-0.1  0.46  12.9857574039
-0.1  0.48  10.7877429126
-0.1  0.5  8.96177200363
-0.1  0.52  7.44487128547
-0.1  0.54  6.18472646199
-0.1  0.56  5.1378781369
-0.1  0.58  4.26822300257
-0.1  0.6  3.54576872285
-0.1  0.62  2.94559956881
-0.1  0.64  2.4470171345
-0.1  0.66  2.03282649818
-0.1  0.68  1.68874321044
-0.1  0.7  1.40290065747
-0.1  0.72  1.1654408098
-0.1  0.74  0.968174242356
-0.1  0.76  0.804297700647
-0.1  0.78  0.668159472713
-0.1  0.8  0.555064475028
-0.1  0.82  0.461112330245
-0.1  0.84  0.383062852461
-0.1  0.86  0.318224300915
-0.1  0.88  0.264360548256
-0.1  0.9  0.219613961828
-0.1  0.92  0.182441338347
-0.1  0.94  0.151560682485
-0.1  0.96  0.125906993905
-0.1  0.98  0.104595537934
-0.08  -1  0.0982489801828
-0.08  -0.98  0.118267318027
-0.08  -0.96  0.142364414239
-0.08  -0.94  0.171371320324
-0.08  -0.92  0.20628841545
-0.08  -0.9  0.248319907137
-0.08  -0.88  0.298915361514
-0.08  -0.86  0.359819695406
-0.08  -0.84  0.433133354359
-0.08  -0.82  0.521384752011
-0.08  -0.8  0.627617469064
-0.08  -0.78  0.755495219135
-0.08  -0.76  0.909428201524
-0.08  -0.74  1.09472519849
-0.08  -0.72  1.31777666253
-0.08  -0.7  1.58627510785
-0.08  -0.68  1.90948040691
-0.08  -0.66  2.29853914137
-0.08  -0.64  2.76686902117
-0.08  -0.62  3.33062162943
-0.08  -0.6  4.00923945207
-0.08  -0.58  4.82612640295
-0.08  -0.56  5.80945496914
-0.08  -0.54  6.99313781293
-0.08  -0.52  8.41799733889
-0.08  -0.5  10.1331735614
-0.08  -0.48  12.1978188271
-0.08  -0.46  14.6831378379
-0.08  -0.44  17.6748433324
-0.08  -0.42  21.2761121142
-0.08  -0.4  25.6111433737
-0.08  -0.38  30.8294420234
-0.08  -0.36  37.1109747663
-0.08  -0.34  44.6723767188
-0.08  -0.32  53.7744226412
-0.08  -0.3  64.7310204379
-0.08  -0.28  77.9200370945
-0.08  -0.26  93.7963304104
-0.08  -0.24  112.907435963
-0.08  -0.22  135.912450305
-0.08  -0.2  93.1365834023
-0.08  -0.18  88.2065641944
-0.08  -0.16  82.7220823659
-0.08  -0.14  76.8084453479
-0.08  -0.12  70.6250539428
-0.08  -0.1  64.377581278
-0.08  -0.08  58.3350789925
-0.08  -0.06  52.8494876614
-0.08  -0.04  48.3644280147
-0.08  -0.02  45.3792788404
-0.08  6.17561557e-16  44.3253810739
-0.08  0.02  45.3792788404
-0.08  0.04  48.3644280147
-0.08  0.06  52.8494876614
-0.08  0.08  58.3350789925
-0.08  0.1  64.377581278
-0.08  0.12  70.6250539428
-0.08  0.14  76.8084453479
-0.08  0.16  82.7220823659
-0.08  0.18  88.2065641944
-0.08  0.2  163.604761638
-0.08  0.22  135.912450305
-0.08  0.24  112.907435963
-0.08  0.26  93.7963304104
-0.08  0.28  77.9200370945
-0.08  0.3  64.7310204379
-0.08  0.32  53.7744226412
-0.08  0.34  44.6723767188
-0.08  0.36  37.1109747663
-0.08  0.38  30.8294420234
-0.08  0.4  25.6111433737
-0.08  0.42  21.2761121142
-0.08  0.44  17.6748433324
-0.08  0.46  14.6831378379
-0.08  0.48  12.1978188271
-0.08  0.5  10.1331735614
-0.08  0.52  8.41799733889
-0.08  0.54  6.99313781293
-0.08  0.56  5.80945496914
-0.08  0.58  4.82612640295
-0.08  0.6  4.00923945207
-0.08  0.62  3.33062162943
-0.08  0.64  2.76686902117
-0.08  0.66  2.29853914137
-0.08  0.68  1.90948040691
-0.08  0.7  1.58627510785
-0.08  0.72  1.31777666253
-0.08  0.74  1.09472519849
-0.08  0.76  0.909428201524
-0.08  0.78  0.755495219135
-0.08  0.8  0.627617469064
-0.08  0.82  0.521384752011
-0.08  0.84  0.433133354359
-0.08  0.86  0.359819695406
-0.08  0.88  0.298915361514
-0.08  0.9  0.248319907137
-0.08  0.92  0.20628841545
-0.08  0.94  0.171371320324
-0.08  0.96  0.142364414239
-0.08  0.98  0.118267318027
-0.06  -1  0.111091195806
-0.06  -0.98  0.133726149218
-0.06  -0.96  0.160972999298
-0.06  -0.94  0.193771425071
-0.06  -0.92  0.233252566192
-0.06  -0.9  0.280778033268
-0.06  -0.88  0.337986866568
-0.06  -0.86  0.406852062616
-0.06  -0.84  0.489748618151
-0.06  -0.82  0.589535438112
-0.06  -0.8  0.709653932464
-0.06  -0.78  0.854246702241
-0.06  -0.76  1.028300408
-0.06  -0.74  1.23781774786
-0.06  -0.72  1.49002447632
-0.06  -0.7  1.79361860328
-0.06  -0.68  2.15907036773
-0.06  -0.66  2.59898333141
-0.06  -0.64  3.12852904559
-0.06  -0.62  3.76597028186
-0.06  -0.6  4.53329087157
-0.06  -0.58  5.45695387595
-0.06  -0.56  6.56881423404
-0.06  -0.54  7.9072173638
-0.06  -0.52  9.51832160427
-0.06  -0.5  11.4576901069
-0.06  -0.48  13.7922070764
-0.06  -0.46  16.6023844478
-0.06  -0.44  19.9851385514
-0.06  -0.42  24.0571325267
-0.06  -0.4  28.958799756
-0.06  -0.38  34.8591870781
-0.06  -0.36  41.9617848109
-0.06  -0.34  50.5115446488
-0.06  -0.32  60.8033274635
-0.06  -0.3  73.1920723537
-0.06  -0.28  88.1050376502
-0.06  -0.26  106.056536039
-0.06  -0.24  127.665671982
-0.06  -0.22  153.677693155
-0.06  -0.2  105.310552885
-0.06  -0.18  99.7361262793
-0.06  -0.16  93.5347627275
-0.06  -0.14  86.848148712
-0.06  -0.12  79.8565204626
-0.06  -0.1  72.7924348323
-0.06  -0.08  65.9601114503
-0.06  -0.06  59.7574933718
-0.06  -0.04  54.6861874052
-0.06  -0.02  51.3108466045
-0.06  6.17561557e-16  50.1191928803
-0.06  0.02  51.3108466045
-0.06  0.04  54.6861874052
-0.06  0.06  59.7574933718
-0.06  0.08  65.9601114503
-0.06  0.1  72.7924348323
-0.06  0.12  79.8565204626
-0.06  0.14  86.848148712
-0.06  0.16  93.5347627275
-0.06  0.18  99.7361262793
-0.06  0.2  184.989692272
-0.06  0.22  153.677693155
-0.06  0.24  127.665671982
-0.06  0.26  106.056536039
-0.06  0.28  88.1050376502
-0.06  0.3  73.1920723537
-0.06  0.32  60.8033274635
-0.06  0.34  50.5115446488
-0.06  0.36  41.9617848109
-0.06  0.38  34.8591870781
-0.06  0.4  28.958799756
-0.06  0.42  24.0571325267
-0.06  0.44  19.9851385514
-0.06  0.46  16.6023844478
-0.06  0.48  13.7922070764
-0.06  0.5  11.4576901069
-0.06  0.52  9.51832160427
-0.06  0.54  7.9072173638
-0.06  0.56  6.56881423404
-0.06  0.58  5.45695387595
-0.06  0.6  4.53329087157
-0.06  0.62  3.76597028186
-0.06  0.64  3.12852904559
-0.06  0.66  2.59898333141
-0.06  0.68  2.15907036773
-0.06  0.7  1.79361860328
-0.06  0.72  1.49002447632
-0.06  0.74  1.23781774786
-0.06  0.76  1.028300408
-0.06  0.78  0.854246702241
-0.06  0.8  0.709653932464
-0.06  0.82  0.589535438112
-0.06  0.84  0.489748618151
-0.06  0.86  0.406852062616
-0.06  0.88  0.337986866568
-0.06  0.9  0.280778033268
-0.06  0.92  0.233252566192
-0.06  0.94  0.193771425071
-0.06  0.96  0.160972999298
-0.06  0.98  0.133726149218
-0.04  -1  0.125612029384
-0.04  -0.98  0.151205618618
-0.04  -0.96  0.182013929827
-0.04  -0.94  0.219099468352
-0.04  -0.92  0.263741226167
-0.04  -0.9  0.31747879127
-0.04  -0.88  0.382165444405
-0.04  -0.86  0.46003207431
-0.04  -0.84  0.553764115757
-0.04  -0.82  0.666594163809
-0.04  -0.8  0.802413458332
-0.04  -0.78  0.965906083595
-0.04  -0.76  1.16271051119
-0.04  -0.74  1.39961405752
-0.04  -0.72  1.68478696214
-0.04  -0.7  2.02806415993
-0.04  -0.68  2.44128446458
-0.04  -0.66  2.93869886109
-0.04  -0.64  3.53746198834
-0.04  -0.62  4.25822376176
-0.04  -0.6  5.12584153977
-0.04  -0.58  6.17023739495
-0.04  -0.56  7.42743005507
-0.04  -0.54  8.94077710334
-0.04  -0.52  10.7624702783
-0.04  -0.5  12.9553354425
-0.04  -0.48  15.5949992974
-0.04  -0.46  18.772497568
-0.04  -0.44  22.5974146083
-0.04  -0.42  27.2016627052
-0.04  -0.4  32.7440314193
-0.04  -0.38  39.4156638587
-0.04  -0.36  47.4466487503
-0.04  -0.34  57.1139556525
-0.04  -0.32  68.7509869757
-0.04  -0.3  82.7590762386
-0.04  -0.28  99.621329106
-0.04  -0.26  119.919284554
-0.04  -0.24  144.352970763
-0.04  -0.22  173.76504743
-0.04  -0.2  119.075793248
-0.04  -0.18  112.772728153
-0.04  -0.16  105.760778601
-0.04  -0.14  98.2001510452
-0.04  -0.12  90.2946405613
-0.04  -0.1  82.3072017249
-0.04  -0.08  74.581818996
-0.04  -0.06  67.5684509367
-0.04  -0.04  61.8342698482
-0.04  -0.02  58.0177351106
-0.04  6.17561557e-16  56.6703192192
-0.04  0.02  58.0177351106
-0.04  0.04  61.8342698482
-0.04  0.06  67.5684509367
-0.04  0.08  74.581818996
-0.04  0.1  82.3072017249
-0.04  0.12  90.2946405613
-0.04  0.14  98.2001510452
-0.04  0.16  105.760778601
-0.04  0.18  112.772728153
-0.04  0.2  209.169867087
-0.04  0.22  173.76504743
-0.04  0.24  144.352970763
-0.04  0.26  119.919284554
-0.04  0.28  99.621329106
-0.04  0.3  82.7590762386
-0.04  0.32  68.7509869757
-0.04  0.34  57.1139556525
-0.04  0.36  47.4466487503
-0.04  0.38  39.4156638587
-0.04  0.4  32.7440314193
-0.04  0.42  27.2016627052
-0.04  0.44  22.5974146083
-0.04  0.46  18.772497568
-0.04  0.48  15.5949992974
-0.04  0.5  12.9553354425
-0.04  0.52  10.7624702783
-0.04  0.54  8.94077710334
-0.04  0.56  7.42743005507
-0.04  0.58  6.17023739495
-0.04  0.6  5.12584153977
-0.04  0.62  4.25822376176
-0.04  0.64  3.53746198834
-0.04  0.66  2.93869886109
-0.04  0.68  2.44128446458
-0.04  0.7  2.02806415993
-0.04  0.72  1.68478696214
-0.04  0.74  1.39961405752
-0.04  0.76  1.16271051119
-0.04  0.78  0.965906083595
-0.04  0.8  0.802413458332
-0.04  0.82  0.666594163809
-0.04  0.84  0.553764115757
-0.04  0.86  0.46003207431
-0.04  0.88  0.382165444405
-0.04  0.9  0.31747879127
-0.04  0.92  0.263741226167
-0.04  0.94  0.219099468352
-0.04  0.96  0.182013929827
-0.04  0.98  0.151205618618
-0.02  -1  0.142030894631
-0.02  -0.98  0.17096984573
-0.02  -0.96  0.205805139965
-0.02  -0.94  0.24773816374
-0.02  -0.92  0.298215087259
-0.02  -0.9  0.358976739501
-0.02  -0.88  0.43211864526
-0.02  -0.86  0.520163294817
-0.02  -0.84  0.626147138623
-0.02  -0.82  0.753725307248
-0.02  -0.8  0.907297668142
-0.02  -0.78  1.09216056659
-0.02  -0.76  1.31468948405
-0.02  -0.74  1.58255891336
-0.02  -0.72  1.9050070337
-0.02  -0.7  2.29315431345
-0.02  -0.68  2.76038702864
-0.02  -0.66  3.32281892378
-0.02  -0.64  3.99984693656
-0.02  -0.62  4.81482015207
-0.02  -0.6  5.7958450572
-0.02  -0.58  6.97675486644
-0.02  -0.56  8.39827634903
-0.02  -0.54  10.1094343982
-0.02  -0.52  12.1692427832
-0.02  -0.5  14.6487393936
-0.02  -0.48  17.6334361673
-0.02  -0.46  21.2262681935
-0.02  -0.44  25.5511436994
-0.02  -0.42  30.7572173494
-0.02  -0.4  37.0240342354
-0.02  -0.38  44.5677219592
-0.02  -0.36  53.6484443591
-0.02  -0.34  64.5793739422
-0.02  -0.32  77.7374924583
-0.02  -0.3  93.5765921037
-0.02  -0.28  112.642925734
-0.02  -0.26  135.594045826
-0.02  -0.24  163.221481897
-0.02  -0.22  196.478038473
-0.02  -0.2  134.640300987
-0.02  -0.18  127.513356389
-0.02  -0.16  119.584868385
-0.02  -0.14  111.035984167
-0.02  -0.12  102.097137051
-0.02  -0.1  93.0656526518
-0.02  -0.08  84.3304779577
-0.02  -0.06  76.4003860332
-0.02  -0.04  69.9166847988
-0.02  -0.02  65.6012872543
-0.02  6.17561557e-16  64.0777493779
-0.02  0.02  65.6012872543
-0.02  0.04  69.9166847988
-0.02  0.06  76.4003860332
-0.02  0.08  84.3304779577
-0.02  0.1  93.0656526518
-0.02  0.12  102.097137051
-0.02  0.14  111.035984167
-0.02  0.16  119.584868385
-0.02  0.18  127.513356389
-0.02  0.2  236.510655054
-0.02  0.22  196.478038473
-0.02  0.24  163.221481897
-0.02  0.26  135.594045826
-0.02  0.28  112.642925734
-0.02  0.3  93.5765921037
-0.02  0.32  77.7374924583
-0.02  0.34  64.5793739422
-0.02  0.36  53.6484443591
-0.02  0.38  44.5677219592
-0.02  0.4  37.0240342354
-0.02  0.42  30.7572173494
-0.02  0.44  25.5511436994
-0.02  0.46  21.2262681935
-0.02  0.48  17.6334361673
-0.02  0.5  14.6487393936
-0.02  0.52  12.1692427832
-0.02  0.54  10.1094343982
-0.02  0.56  8.39827634903
-0.02  0.58  6.97675486644
-0.02  0.6  5.7958450572
-0.02  0.62  4.81482015207
-0.02  0.64  3.99984693656
-0.02  0.66  3.32281892378
-0.02  0.68  2.76038702864
-0.02  0.7  2.29315431345
-0.02  0.72  1.9050070337
-0.02  0.74  1.58255891336
-0.02  0.76  1.31468948405
-0.02  0.78  1.09216056659
-0.02  0.8  0.907297668142
-0.02  0.82  0.753725307248
-0.02  0.84  0.626147138623
-0.02  0.86  0.520163294817
-0.02  0.88  0.43211864526
-0.02  0.9  0.358976739501
-0.02  0.92  0.298215087259
-0.02  0.94  0.24773816374
-0.02  0.96  0.205805139965
-0.02  0.98  0.17096984573
2.8449465e-16  -1  0.142195151155
2.8449465e-16  -0.98  0.171167569701
2.8449465e-16  -0.96  0.206043150413
2.8449465e-16  -0.94  0.248024669079
2.8449465e-16  -0.92  0.298559968377
2.8449465e-16  -0.9  0.359391890526
2.8449465e-16  -0.88  0.432618383763
2.8449465e-16  -0.86  0.52076485559
2.8449465e-16  -0.84  0.626871268065
2.8449465e-16  -0.82  0.754596978861
2.8449465e-16  -0.8  0.908346943806
2.8449465e-16  -0.78  1.09342363332
2.8449465e-16  -0.76  1.31620990202
2.8449465e-16  -0.74  1.58438911817
2.8449465e-16  -0.72  1.90721014476
2.8449465e-16  -0.7  2.29580631081
2.8449465e-16  -0.68  2.76357937337
2.8449465e-16  -0.66  3.32666171226
2.8449465e-16  -0.64  4.00447269743
2.8449465e-16  -0.62  4.82038841681
2.8449465e-16  -0.6  5.802547862
2.8449465e-16  -0.58  6.98482337511
2.8449465e-16  -0.56  8.40798882521
2.8449465e-16  -0.54  10.1211258021
2.8449465e-16  -0.52  12.1833163235
2.8449465e-16  -0.5  14.6656804332
2.8449465e-16  -0.48  17.6538289624
2.8449465e-16  -0.46  21.2508160431
2.8449465e-16  -0.44  25.5806932003
2.8449465e-16  -0.42  30.7927875937
2.8449465e-16  -0.4  37.0668519561
2.8449465e-16  -0.38  44.6192638375
2.8449465e-16  -0.36  53.7104879519
2.8449465e-16  -0.34  64.6540589853
2.8449465e-16  -0.32  77.8273946612
2.8449465e-16  -0.3  93.6848119794
2.8449465e-16  -0.28  112.773195529
2.8449465e-16  -0.26  135.750858235
2.8449465e-16  -0.24  163.410245006
2.8449465e-16  -0.22  196.705262274
2.8449465e-16  -0.2  87.9051184316
2.8449465e-16  -0.18  86.0067212272
2.8449465e-16  -0.16  83.9700194977
2.8449465e-16  -0.14  81.8692541134
2.8449465e-16  -0.12  79.786693271
2.8449465e-16  -0.1  77.8103378349
2.8449465e-16  -0.08  76.0304145968
2.8449465e-16  -0.06  74.5344866067
2.8449465e-16  -0.04  73.4012993543
2.8449465e-16  -0.02  72.6939425045
2.8449465e-16  6.17561557e-16  72.4534116255
2.8449465e-16  0.02  72.6939425045
2.8449465e-16  0.04  73.4012993543
2.8449465e-16  0.06  74.5344866067
2.8449465e-16  0.08  76.0304145968
2.8449465e-16  0.1  77.8103378349
2.8449465e-16  0.12  79.786693271
2.8449465e-16  0.14  81.8692541134
2.8449465e-16  0.16  83.9700194977
2.8449465e-16  0.18  86.0067212272
2.8449465e-16  0.2  236.784175953
2.8449465e-16  0.22  196.705262274
2.8449465e-16  0.24  163.410245006
2.8449465e-16  0.26  135.750858235
2.8449465e-16  0.28  112.773195529
2.8449465e-16  0.3  93.6848119794
2.8449465e-16  0.32  77.8273946612
2.8449465e-16  0.34  64.6540589853
2.8449465e-16  0.36  53.7104879519
2.8449465e-16  0.38  44.6192638375
2.8449465e-16  0.4  37.0668519561
2.8449465e-16  0.42  30.7927875937
2.8449465e-16  0.44  25.5806932003
2.8449465e-16  0.46  21.2508160431
2.8449465e-16  0.48  17.6538289624
2.8449465e-16  0.5  14.6656804332
2.8449465e-16  0.52  12.1833163235
2.8449465e-16  0.54  10.1211258021
2.8449465e-16  0.56  8.40798882521
2.8449465e-16  0.58  6.98482337511
2.8449465e-16  0.6  5.802547862
2.8449465e-16  0.62  4.82038841681
2.8449465e-16  0.64  4.00447269743
2.8449465e-16  0.66  3.32666171226
2.8449465e-16  0.68  2.76357937337
2.8449465e-16  0.7  2.29580631081
2.8449465e-16  0.72  1.90721014476
2.8449465e-16  0.74  1.58438911817
2.8449465e-16  0.76  1.31620990202
2.8449465e-16  0.78  1.09342363332
2.8449465e-16  0.8  0.908346943806
2.8449465e-16  0.82  0.754596978861
2.8449465e-16  0.84  0.626871268065
2.8449465e-16  0.86  0.52076485559
2.8449465e-16  0.88  0.432618383763
2.8449465e-16  0.9  0.359391890526
2.8449465e-16  0.92  0.298559968377
2.8449465e-16  0.94  0.248024669079
2.8449465e-16  0.96  0.206043150413
2.8449465e-16  0.98  0.171167569701
0.02  -1  0.134197096742
0.02  -0.98  0.161539902899
0.02  -0.96  0.194453835903
0.02  -0.94  0.234074018982
0.02  -0.92  0.281766857969
0.02  -0.9  0.33917716539
0.02  -0.88  0.408284886134
0.02  -0.86  0.491473381037
0.02  -0.84  0.591611623334
0.02  -0.82  0.71215314271
0.02  -0.8  0.857255129325
0.02  -0.78  1.03192180541
0.02  -0.76  1.24217700899
0.02  -0.74  1.49527194169
0.02  -0.72  1.79993524549
0.02  -0.7  2.16667403275
0.02  -0.68  2.60813625155
0.02  -0.66  3.13954688329
0.02  -0.64  3.77923301611
0.02  -0.62  4.54925590252
0.02  -0.6  5.47617179953
0.02  -0.58  6.5919478307
0.02  -0.56  7.93506445623
0.02  -0.54  9.55184257244
0.02  -0.52  11.4980410092
0.02  -0.5  13.8407795195
0.02  -0.48  16.6608535796
0.02  -0.46  20.0555208332
0.02  -0.44  24.1418552759
0.02  -0.42  29.0607848586
0.02  -0.4  34.9819517575
0.02  -0.38  42.1095629289
0.02  -0.36  50.689432721
0.02  -0.34  61.0174604261
0.02  -0.32  73.4498351431
0.02  -0.3  88.4153198917
0.02  -0.28  106.430038629
0.02  -0.26  128.115276135
0.02  -0.24  154.21890465
0.02  -0.22  185.641176204
0.02  -0.2  87.7302012536
0.02  -0.18  85.3362484281
0.02  -0.16  82.7516521498
0.02  -0.14  80.0664656978
0.02  -0.12  77.3832238751
0.02  -0.1  74.8151031023
0.02  -0.08  72.482235967
0.02  -0.06  70.5055036206
0.02  -0.04  68.9974957212
0.02  -0.02  68.0512327134
0.02  6.17561557e-16  67.7285638597
0.02  0.02  68.0512327134
0.02  0.04  68.9974957212
0.02  0.06  70.5055036206
0.02  0.08  72.482235967
0.02  0.1  74.8151031023
0.02  0.12  77.3832238751
0.02  0.14  80.0664656978
0.02  0.16  82.7516521498
0.02  0.18  85.3362484281
0.02  0.2  223.46577017
0.02  0.22  185.641176204
0.02  0.24  154.21890465
0.02  0.26  128.115276135
0.02  0.28  106.430038629
0.02  0.3  88.4153198917
0.02  0.32  73.4498351431
0.02  0.34  61.0174604261
0.02  0.36  50.689432721
0.02  0.38  42.1095629289
0.02  0.4  34.9819517575
0.02  0.42  29.0607848586
0.02  0.44  24.1418552759
0.02  0.46  20.0555208332
0.02  0.48  16.6608535796
0.02  0.5  13.8407795195
0.02  0.52  11.4980410092
0.02  0.54  9.55184257244
0.02  0.56  7.93506445623
0.02  0.58  6.5919478307
0.02  0.6  5.47617179953
0.02  0.62  4.54925590252
0.02  0.64  3.77923301611
0.02  0.66  3.13954688329
0.02  0.68  2.60813625155
0.02  0.7  2.16667403275
0.02  0.72  1.79993524549
0.02  0.74  1.49527194169
0.02  0.76  1.24217700899
0.02  0.78  1.03192180541
0.02  0.8  0.857255129325
0.02  0.82  0.71215314271
0.02  0.84  0.591611623334
0.02  0.86  0.491473381037
0.02  0.88  0.408284886134
0.02  0.9  0.33917716539
0.02  0.92  0.281766857969
0.02  0.94  0.234074018982
0.02  0.96  0.194453835903
0.02  0.98  0.161539902899
0.04  -1  0.122436607481
0.04  -0.98  0.147383201008
0.04  -0.96  0.177412690421
0.04  -0.94  0.213560721353
0.04  -0.92  0.257073953372
0.04  -0.9  0.309453054304
0.04  -0.88  0.372504454699
0.04  -0.86  0.448402647319
0.04  -0.84  0.539765180217
0.04  -0.82  0.649742929746
0.04  -0.8  0.782128766782
0.04  -0.78  0.941488363817
0.04  -0.76  1.13331765414
0.04  -0.74  1.36423237348
0.04  -0.72  1.64219622104
0.04  -0.7  1.97679550846
0.04  -0.68  2.37956976895
0.04  -0.66  2.86440972831
0.04  -0.64  3.44803636299
0.04  -0.62  4.15057756682
0.04  -0.6  4.99626231414
0.04  -0.58  6.01425625948
0.04  -0.56  7.23966759158
0.04  -0.54  8.71475783126
0.04  -0.52  10.4903993308
0.04  -0.5  12.62782974
0.04  -0.48  15.2007639476
0.04  -0.46  18.2979363317
0.04  -0.44  22.0261609978
0.04  -0.42  26.5140155429
0.04  -0.4  31.9162753908
0.04  -0.38  38.4192516284
0.04  -0.36  46.2472164315
0.04  -0.34  55.6701376787
0.04  -0.32  67.0129895007
0.04  -0.3  80.6669598652
0.04  -0.28  97.1029417189
0.04  -0.26  116.887772965
0.04  -0.24  140.703785352
0.04  -0.22  169.372336474
0.04  -0.2  87.4908217425
0.04  -0.18  84.4122518203
0.04  -0.16  81.0586482024
0.04  -0.14  77.5374632801
0.04  -0.12  73.9757806549
0.04  -0.1  70.5205854521
0.04  -0.08  67.3366854389
0.04  -0.06  64.6002547472
0.04  -0.04  62.4858244579
0.04  -0.02  61.1459598146
0.04  6.17561557e-16  60.6866212105
0.04  0.02  61.1459598146
0.04  0.04  62.4858244579
0.04  0.06  64.6002547472
0.04  0.08  67.3366854389
0.04  0.1  70.5205854521
0.04  0.12  73.9757806549
0.04  0.14  77.5374632801
0.04  0.16  81.0586482024
0.04  0.18  84.4122518203
0.04  0.2  203.88213644
0.04  0.22  169.372336474
0.04  0.24  140.703785352
0.04  0.26  116.887772965
0.04  0.28  97.1029417189
0.04  0.3  80.6669598652
0.04  0.32  67.0129895007
0.04  0.34  55.6701376787
0.04  0.36  46.2472164315
0.04  0.38  38.4192516284
0.04  0.4  31.9162753908
0.04  0.42  26.5140155429
0.04  0.44  22.0261609978
0.04  0.46  18.2979363317
0.04  0.48  15.2007639476
0.04  0.5  12.62782974
0.04  0.52  10.4903993308
0.04  0.54  8.71475783126
0.04  0.56  7.23966759158
0.04  0.58  6.01425625948
0.04  0.6  4.99626231414
0.04  0.62  4.15057756682
0.04  0.64  3.44803636299
0.04  0.66  2.86440972831
0.04  0.68  2.37956976895
0.04  0.7  1.97679550846
0.04  0.72  1.64219622104
0.04  0.74  1.36423237348
0.04  0.76  1.13331765414
0.04  0.78  0.941488363817
0.04  0.8  0.782128766782
0.04  0.82  0.649742929746
0.04  0.84  0.539765180217
0.04  0.86  0.448402647319
0.04  0.88  0.372504454699
0.04  0.9  0.309453054304
0.04  0.92  0.257073953372
0.04  0.94  0.213560721353
0.04  0.96  0.177412690421
0.04  0.98  0.147383201008
0.06  -1  0.107585011426
0.06  -0.98  0.129505575911
0.06  -0.96  0.155892479535
0.06  -0.94  0.187655743814
0.06  -0.92  0.225890808148
0.06  -0.9  0.271916308922
0.06  -0.88  0.327319556133
0.06  -0.86  0.394011275939
0.06  -0.84  0.474291507056
0.06  -0.82  0.570928923619
0.06  -0.8  0.687256320165
0.06  -0.78  0.827285551786
0.06  -0.76  0.995845893464
0.06  -0.74  1.19875059028
0.06  -0.72  1.44299734238
0.06  -0.7  1.73700963903
0.06  -0.68  2.09092726472
0.06  -0.66  2.51695599616
0.06  -0.64  3.02978855051
0.06  -0.62  3.64711130223
0.06  -0.6  4.39021424404
0.06  -0.58  5.28472522808
0.06  -0.56  6.36149380962
0.06  -0.54  7.65765517472
0.06  -0.52  9.2179108445
0.06  -0.5  11.0960703242
0.06  -0.48  13.356906865
0.06  -0.46  16.0783913392
0.06  -0.44  19.3543812703
0.06  -0.42  23.2978577553
0.06  -0.4  28.0448219143
0.06  -0.38  33.7589852452
0.06  -0.36  40.6374156437
0.06  -0.34  48.9173338062
0.06  -0.32  58.8842944071
0.06  -0.3  70.8820342
0.06  -0.28  85.3243266803
0.06  -0.26  102.709252148
0.06  -0.24  123.636375314
0.06  -0.22  148.827422858
0.06  -0.2  87.219078738
0.06  -0.18  83.3540358044
0.06  -0.16  79.0986524106
0.06  -0.14  74.5715110736
0.06  -0.12  69.9188748073
0.06  -0.1  65.319905554
0.06  -0.08  60.9909754742
0.06  -0.06  57.185109406
0.06  -0.04  54.1791880832
0.06  -0.02  52.2400753709
0.06  6.17561557e-16  51.5684990076
0.06  0.02  52.2400753709
0.06  0.04  54.1791880832
0.06  0.06  57.185109406
0.06  0.08  60.9909754742
0.06  0.1  65.319905554
0.06  0.12  69.9188748073
0.06  0.14  74.5715110736
0.06  0.16  79.0986524106
0.06  0.18  83.3540358044
0.06  0.2  179.151174063
0.06  0.22  148.827422858
0.06  0.24  123.636375314
0.06  0.26  102.709252148
0.06  0.28  85.3243266803
0.06  0.3  70.8820342
0.06  0.32  58.8842944071
0.06  0.34  48.9173338062
0.06  0.36  40.6374156437
0.06  0.38  33.7589852452
0.06  0.4  28.0448219143
0.06  0.42  23.2978577553
0.06  0.44  19.3543812703
0.06  0.46  16.0783913392
0.06  0.48  13.356906865
0.06  0.5  11.0960703242
0.06  0.52  9.2179108445
0.06  0.54  7.65765517472
0.06  0.56  6.36149380962
0.06  0.58  5.28472522808
0.06  0.6  4.39021424404
0.06  0.62  3.64711130223
0.06  0.64  3.02978855051
0.06  0.66  2.51695599616
0.06  0.68  2.09092726472
0.06  0.7  1.73700963903
0.06  0.72  1.44299734238
0.06  0.74  1.19875059028
0.06  0.76  0.995845893464
0.06  0.78  0.827285551786
0.06  0.8  0.687256320165
0.06  0.82  0.570928923619
0.06  0.84  0.474291507056
0.06  0.86  0.394011275939
0.06  0.88  0.327319556133
0.06  0.9  0.271916308922
0.06  0.92  0.225890808148
0.06  0.94  0.187655743814
0.06  0.96  0.155892479535
0.06  0.98  0.129505575911
0.08  -1  0.0906851111477
0.08  -0.98  0.109162302351
0.08  -0.96  0.131404241598
0.08  -0.94  0.158178000446
0.08  -0.92  0.190406942126
0.08  -0.9  0.229202566144
0.08  -0.88  0.275902841253
0.08  -0.86  0.332118348814
0.08  -0.84  0.399787827911
0.08  -0.82  0.48124503785
0.08  -0.8  0.579299243966
0.08  -0.78  0.697332102494
0.08  -0.76  0.839414285854
0.08  -0.74  1.01044587045
0.08  -0.72  1.21632532864
0.08  -0.7  1.46415295302
0.08  -0.68  1.76247572863
0.08  -0.66  2.1215820981
0.08  -0.64  2.55385678558
0.08  -0.62  3.07420791639
0.08  -0.6  3.7005811628
0.08  -0.58  4.45457864754
0.08  -0.56  5.36220394964
0.08  -0.54  6.45475890596
0.08  -0.52  7.76992313709
0.08  -0.5  9.35305352777
0.08  -0.48  11.2587484779
0.08  -0.46  13.5527308716
0.08  -0.44  16.3141147026
0.08  -0.42  19.6381335284
0.08  -0.4  23.6394248484
0.08  -0.38  28.4559836785
0.08  -0.36  34.2539216714
0.08  -0.34  41.2331959115
0.08  -0.32  49.6345049592
0.08  -0.3  59.7475899719
0.08  -0.28  71.9212271862
0.08  -0.26  86.5752563812
0.08  -0.24  104.215060153
0.08  -0.22  125.448993357
0.08  -0.2  86.9517164264
0.08  -0.18  82.3028751445
0.08  -0.16  77.1278329149
0.08  -0.14  71.5430277418
0.08  -0.12  65.6967657629
0.08  -0.1  59.7809388001
0.08  -0.08  54.047838484
0.08  -0.06  48.8301150125
0.08  -0.04  44.5517139708
0.08  -0.02  41.6961273096
0.08  6.17561557e-16  40.6861417702
0.08  0.02  41.6961273096
0.08  0.04  44.5517139708
0.08  0.06  48.8301150125
0.08  0.08  54.047838484
0.08  0.1  59.7809388001
0.08  0.12  65.6967657629
0.08  0.14  71.5430277418
0.08  0.16  77.1278329149
0.08  0.18  82.3028751445
0.08  0.2  151.009363821
0.08  0.22  125.448993357
0.08  0.24  104.215060153
0.08  0.26  86.5752563812
0.08  0.28  71.9212271862
0.08  0.3  59.7475899719
0.08  0.32  49.6345049592
0.08  0.34  41.2331959115
0.08  0.36  34.2539216714
0.08  0.38  28.4559836785
0.08  0.4  23.6394248484
0.08  0.42  19.6381335284
0.08  0.44  16.3141147026
0.08  0.46  13.5527308716
0.08  0.48  11.2587484779
0.08  0.5  9.35305352777
0.08  0.52  7.76992313709
0.08  0.54  6.45475890596
0.08  0.56  5.36220394964
0.08  0.58  4.45457864754
0.08  0.6  3.7005811628
0.08  0.62  3.07420791639
0.08  0.64  2.55385678558
0.08  0.66  2.1215820981
0.08  0.68  1.76247572863
0.08  0.7  1.46415295302
0.08  0.72  1.21632532864
0.08  0.74  1.01044587045
0.08  0.76  0.839414285854
0.08  0.78  0.697332102494
0.08  0.8  0.579299243966
0.08  0.82  0.48124503785
0.08  0.84  0.399787827911
0.08  0.86  0.332118348814
0.08  0.88  0.275902841253
0.08  0.9  0.229202566144
0.08  0.92  0.190406942126
0.08  0.94  0.158178000446
0.08  0.96  0.131404241598
0.08  0.98  0.109162302351
0.1  -1  0.0734377360139
0.1  -0.98  0.0884007555515
0.1  -0.96  0.106412506788
0.1  -0.94  0.128094172163
0.1  -0.92  0.15419350072
0.1  -0.9  0.185610596195
0.1  -0.88  0.223428959451
0.1  -0.86  0.268952855843
0.1  -0.84  0.323752296228
0.1  -0.82  0.389717182902
0.1  -0.8  0.469122487837
0.1  -0.78  0.564706711046
0.1  -0.76  0.679766324931
0.1  -0.74  0.81826946178
0.1  -0.72  0.984992765196
0.1  -0.7  1.18568612518
0.1  -0.68  1.42727097814
0.1  -0.66  1.71807901077
0.1  -0.64  2.06813950012
0.1  -0.62  2.48952519944
0.1  -0.6  2.99676869877
0.1  -0.58  3.60736361935
0.1  -0.56  4.34236792702
0.1  -0.54  5.22713017132
0.1  -0.52  6.29216369665
0.1  -0.5  7.57419897493
0.1  -0.48  9.11745035215
0.1  -0.46  10.975140896
0.1  -0.44  13.2113379327
0.1  -0.42  15.9031625767
0.1  -0.4  19.1434494546
0.1  -0.38  23.04394835
0.1  -0.36  27.7391781882
0.1  -0.34  33.3910662735
0.1  -0.32  40.1945327766
0.1  -0.3  48.3842130675
0.1  -0.28  58.2425497312
0.1  -0.26  70.1095333401
0.1  -0.24  84.3944279199
0.1  -0.22  101.589885492
0.1  -0.2  86.7252081702
0.1  -0.18  81.4042850696
0.1  -0.16  75.4227786954
0.1  -0.14  68.8809047072
0.1  -0.12  61.9059746063
0.1  -0.1  54.6660614993
0.1  -0.08  47.3962721683
0.1  -0.06  40.4487155115
0.1  -0.04  34.3781063093
0.1  -0.02  30.0305518033
0.1  6.17561557e-16  28.4118511218
0.1  0.02  30.0305518033
0.1  0.04  34.3781063093
0.1  0.06  40.4487155115
0.1  0.08  47.3962721683
0.1  0.1  54.6660614993
0.1  0.12  61.9059746063
0.1  0.14  68.8809047072
0.1  0.16  75.4227786954
0.1  0.18  81.4042850696
0.1  0.2  122.28893647
0.1  0.22  101.589885492
0.1  0.24  84.3944279199
0.1  0.26  70.1095333401
0.1  0.28  58.2425497312
0.1  0.3  48.3842130675
0.1  0.32  40.1945327766
0.1  0.34  33.3910662735
0.1  0.36  27.7391781882
0.1  0.38  23.04394835
0.1  0.4  19.1434494546
0.1  0.42  15.9031625767
0.1  0.44  13.2113379327
0.1  0.46  10.975140896
0.1  0.48  9.11745035215
0.1  0.5  7.57419897493
0.1  0.52  6.29216369665
0.1  0.54  5.22713017132
0.1  0.56  4.34236792702
0.1  0.58  3.60736361935
0.1  0.6  2.99676869877
0.1  0.62  2.48952519944
0.1  0.64  2.06813950012
0.1  0.66  1.71807901077
0.1  0.68  1.42727097814
0.1  0.7  1.18568612518
0.1  0.72  0.984992765196
0.1  0.74  0.81826946178
0.1  0.76  0.679766324931
0.1  0.78  0.564706711046
0.1  0.8  0.469122487837
0.1  0.82  0.389717182902
0.1  0.84  0.323752296228
0.1  0.86  0.268952855843
0.1  0.88  0.223428959451
0.1  0.9  0.185610596195
0.1  0.92  0.15419350072
0.1  0.94  0.128094172163
0.1  0.96  0.106412506788
0.1  0.98  0.0884007555515
0.12  -1  0.0588772015268
0.12  -0.98  0.0708734961375
0.12  -0.96  0.0853140489782
0.12  -0.94  0.102696880353
0.12  -0.92  0.123621482752
0.12  -0.9  0.14880949592
0.12  -0.88  0.179129594491
0.12  -0.86  0.215627446517
0.12  -0.84  0.259561776062
0.12  -0.82  0.312447773606
0.12  -0.8  0.376109351355
0.12  -0.78  0.452742045636
0.12  -0.76  0.544988735717
0.12  -0.74  0.656030790428
0.12  -0.72  0.789697785998
0.12  -0.7  0.950599579029
0.12  -0.68  1.14428528948
0.12  -0.66  1.37743467659
0.12  -0.64  1.65808850794
0.12  -0.62  1.99592586631
0.12  -0.6  2.40259795826
0.12  -0.58  2.89212993653
0.12  -0.56  3.48140459415
0.12  -0.54  4.19074461181
0.12  -0.52  5.04461343875
0.12  -0.5  6.07245897895
0.12  -0.48  7.30972917919
0.12  -0.46  8.79909454446
0.12  -0.44  10.5919197421
0.12  -0.42  12.7500350469
0.12  -0.4  15.3478687203
0.12  -0.38  18.4750138637
0.12  -0.36  22.2393182718
0.12  -0.34  26.7706038461
0.12  -0.32  32.2251438432
0.12  -0.3  38.7910523679
0.12  -0.28  46.6947719809
0.12  -0.26  56.2088831637
0.12  -0.24  67.6615049713
0.12  -0.22  81.4476110767
0.12  -0.2  86.570706929
0.12  -0.18  80.7869855231
0.12  -0.16  74.2399204128
0.12  -0.14  67.0085958434
0.12  -0.12  59.1872567907
0.12  -0.1  50.8916990048
0.12  -0.08  42.274828434
0.12  -0.06  33.5680739757
0.12  -0.04  25.2057321204
0.12  -0.02  18.2304878502
0.12  6.17561557e-16  15.1655487976
0.12  0.02  18.2304878502
0.12  0.04  25.2057321204
0.12  0.06  33.5680739757
0.12  0.08  42.274828434
0.12  0.1  50.8916990048
0.12  0.12  59.1872567907
0.12  0.14  67.0085958434
0.12  0.16  74.2399204128
0.12  0.18  80.7869855231
0.12  0.2  98.042651474
0.12  0.22  81.4476110767
0.12  0.24  67.6615049713
0.12  0.26  56.2088831637
0.12  0.28  46.6947719809
0.12  0.3  38.7910523679
0.12  0.32  32.2251438432
0.12  0.34  26.7706038461
0.12  0.36  22.2393182718
0.12  0.38  18.4750138637
0.12  0.4  15.3478687203
0.12  0.42  12.7500350469
0.12  0.44  10.5919197421
0.12  0.46  8.79909454446
0.12  0.48  7.30972917919
0.12  0.5  6.07245897895
0.12  0.52  5.04461343875
0.12  0.54  4.19074461181
0.12  0.56  3.48140459415
0.12  0.58  2.89212993653
0.12  0.6  2.40259795826
0.12  0.62  1.99592586631
0.12  0.64  1.65808850794
0.12  0.66  1.37743467659
0.12  0.68  1.14428528948
0.12  0.7  0.950599579029
0.12  0.72  0.789697785998
0.12  0.74  0.656030790428
0.12  0.76  0.544988735717
0.12  0.78  0.452742045636
0.12  0.8  0.376109351355
0.12  0.82  0.312447773606
0.12  0.84  0.259561776062
0.12  0.86  0.215627446517
0.12  0.88  0.179129594491
0.12  0.9  0.14880949592
0.12  0.92  0.123621482752
0.12  0.94  0.102696880353
0.12  0.96  0.0853140489782
0.12  0.98  0.0708734961375
0.14  -1  0.0520139402833
0.14  -0.98  0.062611837862
0.14  -0.96  0.0753690687363
0.14  -0.94  0.0907255994418
0.14  -0.92  0.10921104018
0.14  -0.9  0.131462909813
0.14  -0.88  0.158248622374
0.14  -0.86  0.190491953349
0.14  -0.84  0.229304898498
0.14  -0.82  0.276026023937
0.14  -0.8  0.332266630106
0.14  -0.78  0.399966321679
0.14  -0.76  0.48145989992
0.14  -0.74  0.579557884418
0.14  -0.72  0.697643441223
0.14  -0.7  0.839789060192
0.14  -0.68  1.01089700547
0.14  -0.66  1.21686838292
0.14  -0.64  1.46480665521
0.14  -0.62  1.76326262336
0.14  -0.6  2.12252932349
0.14  -0.58  2.55499700919
0.14  -0.56  3.07558046181
0.14  -0.54  3.70223336586
0.14  -0.52  4.45656748879
0.14  -0.5  5.36459801949
0.14  -0.48  6.45764077018
0.14  -0.46  7.77339218431
0.14  -0.44  9.35722939718
0.14  -0.42  11.2637751853
0.14  -0.4  13.5587817761
0.14  -0.38  16.3213984857
0.14  -0.36  19.6469013903
0.14  -0.34  23.6499791717
0.14  -0.32  28.4686884569
0.14  -0.3  34.2692150623
0.14  -0.28  41.2516053476
0.14  -0.26  49.6566653382
0.14  -0.24  59.7742655525
0.14  -0.22  71.9533379458
0.14  -0.2  86.5095967097
0.14  -0.18  80.5418237817
0.14  -0.16  73.7674177804
0.14  -0.14  66.2543809963
0.14  -0.12  58.0781966258
0.14  -0.1  49.3211497547
0.14  -0.08  40.0716948524
0.14  -0.06  30.4241414065
0.14  -0.04  20.4799788319
0.14  -0.02  10.3625248405
0.14  6.17561557e-16  1.40041049745
0.14  0.02  10.3625248405
0.14  0.04  20.4799788319
0.14  0.06  30.4241414065
0.14  0.08  40.0716948524
0.14  0.1  49.3211497547
0.14  0.12  58.0781966258
0.14  0.14  66.2543809963
0.14  0.16  73.7674177804
0.14  0.18  80.5418237817
0.14  0.2  86.6139097433
0.14  0.22  71.9533379458
0.14  0.24  59.7742655525
0.14  0.26  49.6566653382
0.14  0.28  41.2516053476
0.14  0.3  34.2692150623
0.14  0.32  28.4686884569
0.14  0.34  23.6499791717
0.14  0.36  19.6469013903
0.14  0.38  16.3213984857
0.14  0.4  13.5587817761
0.14  0.42  11.2637751853
0.14  0.44  9.35722939718
0.14  0.46  7.77339218431
0.14  0.48  6.45764077018
0.14  0.5  5.36459801949
0.14  0.52  4.45656748879
0.14  0.54  3.70223336586
0.14  0.56  3.07558046181
0.14  0.58  2.55499700919
0.14  0.6  2.12252932349
0.14  0.62  1.76326262336
0.14  0.64  1.46480665521
0.14  0.66  1.21686838292
0.14  0.68  1.01089700547
0.14  0.7  0.839789060192
0.14  0.72  0.697643441223
0.14  0.74  0.579557884418
0.14  0.76  0.48145989992
0.14  0.78  0.399966321679
0.14  0.8  0.332266630106
0.14  0.82  0.276026023937
0.14  0.84  0.229304898498
0.14  0.86  0.190491953349
0.14  0.88  0.158248622374
0.14  0.9  0.131462909813
0.14  0.92  0.10921104018
0.14  0.94  0.0907255994418
0.14  0.96  0.0753690687363
0.14  0.98  0.062611837862
0.16  -1  0.0566845276471
0.16  -0.98  0.0682340625416
0.16  -0.96  0.0821368278822
0.16  -0.94  0.0988722969621
0.16  -0.92  0.119017636286
0.16  -0.9  0.143267610669
0.16  -0.88  0.172458544021
0.16  -0.86  0.207597162172
0.16  -0.84  0.249895312444
0.16  -0.82  0.300811757386
0.16  -0.8  0.362102484024
0.16  -0.78  0.43588126367
0.16  -0.76  0.524692550869
0.16  -0.74  0.631599235579
0.16  -0.72  0.76028827496
0.16  -0.7  0.915197847749
0.16  -0.68  1.10167041648
0.16  -0.66  1.32613697633
0.16  -0.64  1.59633884479
0.16  -0.62  1.92159464133
0.16  -0.6  2.31312166439
0.16  -0.58  2.7844227493
0.16  -0.56  3.35175194898
0.16  -0.54  4.03467509749
0.16  -0.52  4.85674458912
0.16  -0.5  5.84631164444
0.16  -0.48  7.03750407638
0.16  -0.46  8.47140327735
0.16  -0.44  10.1974610186
0.16  -0.42  12.2752049244
0.16  -0.4  14.7762914377
0.16  -0.38  17.7869770808
0.16  -0.36  21.4110932372
0.16  -0.34  25.7736270491
0.16  -0.32  31.0250319265
0.16  -0.3  37.3464163273
0.16  -0.28  44.9557897571
0.16  -0.26  54.115581398
0.16  -0.24  65.1416906669
0.16  -0.22  78.4143818345
0.16  -0.2  86.5503659315
0.16  -0.18  80.7054450656
0.16  -0.16  74.08294195
0.16  -0.14  66.7584368136
0.16  -0.12  58.8203329398
0.16  -0.1  50.3742444143
0.16  -0.08  41.5542988076
0.16  -0.06  32.5550784975
0.16  -0.04  23.7370651259
0.16  -0.02  16.0452640329
0.16  6.17561557e-16  12.4126379282
0.16  0.02  16.0452640329
0.16  0.04  23.7370651259
0.16  0.06  32.5550784975
0.16  0.08  41.5542988076
0.16  0.1  50.3742444143
0.16  0.12  58.8203329398
0.16  0.14  66.7584368136
0.16  0.16  74.08294195
0.16  0.18  80.7054450656
0.16  0.2  94.3913984353
0.16  0.22  78.4143818345
0.16  0.24  65.1416906669
0.16  0.26  54.115581398
0.16  0.28  44.9557897571
0.16  0.3  37.3464163273
0.16  0.32  31.0250319265
0.16  0.34  25.7736270491
0.16  0.36  21.4110932372
0.16  0.38  17.7869770808
0.16  0.4  14.7762914377
0.16  0.42  12.2752049244
0.16  0.44  10.1974610186
0.16  0.46  8.47140327735
0.16  0.48  7.03750407638
0.16  0.5  5.84631164444
0.16  0.52  4.85674458912
0.16  0.54  4.03467509749
0.16  0.56  3.35175194898
0.16  0.58  2.7844227493
0.16  0.6  2.31312166439
0.16  0.62  1.92159464133
0.16  0.64  1.59633884479
0.16  0.66  1.32613697633
0.16  0.68  1.10167041648
0.16  0.7  0.915197847749
0.16  0.72  0.76028827496
0.16  0.74  0.631599235579
0.16  0.76  0.524692550869
0.16  0.78  0.43588126367
0.16  0.8  0.362102484024
0.16  0.82  0.300811757386
0.16  0.84  0.249895312444
0.16  0.86  0.207597162172
0.16  0.88  0.172458544021
0.16  0.9  0.143267610669
0.16  0.92  0.119017636286
0.16  0.94  0.0988722969621
0.16  0.96  0.0821368278822
0.16  0.98  0.0682340625416
0.18  -1  0.0701477113722
0.18  -0.98  0.0844403847681
0.18  -0.96  0.101645206099
0.18  -0.94  0.122355528711
0.18  -0.92  0.147285602349
0.18  -0.9  0.177295205929
0.18  -0.88  0.213419299266
0.18  -0.86  0.256903716379
0.18  -0.84  0.309248131336
0.18  -0.82  0.372257778451
0.18  -0.8  0.448105710514
0.18  -0.78  0.539407742211
0.18  -0.76  0.649312663353
0.18  -0.74  0.781610833138
0.18  -0.72  0.940864900623
0.18  -0.7  1.13256715963
0.18  -0.68  1.3633289649
0.18  -0.66  1.64110874196
0.18  -0.64  1.97548645432
0.18  -0.62  2.37799399359
0.18  -0.6  2.86251288698
0.18  -0.58  3.44575303815
0.18  -0.56  4.14782901203
0.18  -0.54  4.99295373829
0.18  -0.52  6.01027355766
0.18  -0.5  7.23487340988
0.18  -0.48  8.70898682977
0.18  -0.46  10.4834524814
0.18  -0.44  12.6194674624
0.18  -0.42  15.1906978467
0.18  -0.4  18.2858192517
0.18  -0.38  22.0115750494
0.18  -0.36  26.4964576915
0.18  -0.34  31.8951401078
0.18  -0.32  38.3938100083
0.18  -0.3  46.2165910533
0.18  -0.28  55.6332723459
0.18  -0.26  66.9686128157
0.18  -0.24  80.6135413819
0.18  -0.22  97.0386391609
0.18  -0.2  86.6873496933
0.18  -0.18  81.2533561905
0.18  -0.16  75.1344631752
0.18  -0.14  68.4265524873
0.18  -0.12  61.2505087024
0.18  -0.1  53.7651066604
0.18  -0.08  46.1930607707
0.18  -0.06  38.8744332061
0.18  -0.04  32.3704386611
0.18  -0.02  27.6078935302
0.18  6.17561557e-16  25.8010315525
0.18  0.02  27.6078935302
0.18  0.04  32.3704386611
0.18  0.06  38.8744332061
0.18  0.08  46.1930607707
0.18  0.1  53.7651066604
0.18  0.12  61.2505087024
0.18  0.14  68.4265524873
0.18  0.16  75.1344631752
0.18  0.18  81.2533561905
0.18  0.2  116.81036869
0.18  0.22  97.0386391609
0.18  0.24  80.6135413819
0.18  0.26  66.9686128157
0.18  0.28  55.6332723459
0.18  0.3  46.2165910533
0.18  0.32  38.3938100083
0.18  0.34  31.8951401078
0.18  0.36  26.4964576915
0.18  0.38  22.0115750494
0.18  0.4  18.2858192517
0.18  0.42  15.1906978467
0.18  0.44  12.6194674624
0.18  0.46  10.4834524814
0.18  0.48  8.70898682977
0.18  0.5  7.23487340988
0.18  0.52  6.01027355766
0.18  0.54  4.99295373829
0.18  0.56  4.14782901203
0.18  0.58  3.44575303815
0.18  0.6  2.86251288698
0.18  0.62  2.37799399359
0.18  0.64  1.97548645432
0.18  0.66  1.64110874196
0.18  0.68  1.3633289649
0.18  0.7  1.13256715963
0.18  0.72  0.940864900623
0.18  0.74  0.781610833138
0.18  0.76  0.649312663353
0.18  0.78  0.539407742211
0.18  0.8  0.448105710514
0.18  0.82  0.372257778451
0.18  0.84  0.309248131336
0.18  0.86  0.256903716379
0.18  0.88  0.213419299266
0.18  0.9  0.177295205929
0.18  0.92  0.147285602349
0.18  0.94  0.122355528711
0.18  0.96  0.101645206099
0.18  0.98  0.0844403847681
0.2  -1  0.0871577438861
0.2  -0.98  0.104916230128
0.2  -0.96  0.126293027486
0.2  -0.94  0.152025370833
0.2  -0.92  0.183000707458
0.2  -0.9  0.220287303011
0.2  -0.88  0.265171083446
0.2  -0.86  0.319199983542
0.2  -0.84  0.384237331497
0.2  -0.82  0.462526110677
0.2  -0.8  0.556766314779
0.2  -0.78  0.670208064186
0.2  -0.76  0.806763694888
0.2  -0.74  0.971142685637
0.2  -0.72  1.16901407667
0.2  -0.7  1.40720198139
0.2  -0.68  1.69392093385
0.2  -0.66  2.03905918843
0.2  -0.64  2.45451974224
0.2  -0.62  2.95463084115
0.2  -0.6  3.55664012686
0.2  -0.58  4.28130946711
0.2  -0.56  5.153630983
0.2  -0.54  6.20368896782
0.2  -0.52  7.46769742273
0.2  -0.5  8.98924899148
0.2  -0.48  10.820818367
0.2  -0.46  13.0255720185
0.2  -0.44  15.6795466531
0.2  -0.42  18.8742715404
0.2  -0.4  22.7199251396
0.2  -0.38  27.3491348921
0.2  -0.36  32.9215512265
0.2  -0.34  39.629353522
0.2  -0.32  47.7038779178
0.2  -0.3  57.423595546
0.2  -0.28  69.1237163382
0.2  -0.26  83.207749619
0.2  -0.24  100.161420181
0.2  -0.22  120.56941978
0.2  -0.2  86.9015701949
0.2  -0.18  82.1045842262
0.2  -0.16  76.7532378971
0.2  -0.14  70.9616812066
0.2  -0.12  64.8757849226
0.2  -0.1  58.6858786823
0.2  -0.08  52.6462992615
0.2  -0.06  47.1014998053
0.2  -0.04  42.5076443335
0.2  -0.02  39.4098490543
0.2  6.17561557e-16  38.3067335208
0.2  0.02  39.4098490543
0.2  0.04  42.5076443335
0.2  0.06  47.1014998053
0.2  0.08  52.6462992615
0.2  0.1  58.6858786823
0.2  0.12  64.8757849226
0.2  0.14  70.9616812066
0.2  0.16  76.7532378971
0.2  0.18  82.1045842262
0.2  0.2  145.135571758
0.2  0.22  120.56941978
0.2  0.24  100.161420181
0.2  0.26  83.207749619
0.2  0.28  69.1237163382
0.2  0.3  57.423595546
0.2  0.32  47.7038779178
0.2  0.34  39.629353522
0.2  0.36  32.9215512265
0.2  0.38  27.3491348921
0.2  0.4  22.7199251396
0.2  0.42  18.8742715404
0.2  0.44  15.6795466531
0.2  0.46  13.0255720185
0.2  0.48  10.820818367
0.2  0.5  8.98924899148
0.2  0.52  7.46769742273
0.2  0.54  6.20368896782
0.2  0.56  5.153630983
0.2  0.58  4.28130946711
0.2  0.6  3.55664012686
0.2  0.62  2.95463084115
0.2  0.64  2.45451974224
0.2  0.66  2.03905918843
0.2  0.68  1.69392093385
0.2  0.7  1.40720198139
0.2  0.72  1.16901407667
0.2  0.74  0.971142685637
0.2  0.76  0.806763694888
0.2  0.78  0.670208064186
0.2  0.8  0.556766314779
0.2  0.82  0.462526110677
0.2  0.84  0.384237331497
0.2  0.86  0.319199983542
0.2  0.88  0.265171083446
0.2  0.9  0.220287303011
0.2  0.92  0.183000707458
0.2  0.94  0.152025370833
0.2  0.96  0.126293027486
0.2  0.98  0.104916230128
0.22  -1  0.104294831055
0.22  -0.98  0.125545017669
0.22  -0.96  0.151124953192
0.22  -0.94  0.181916828732
0.22  -0.92  0.218982582802
0.22  -0.9  0.263600525057
0.22  -0.88  0.317309422154
0.22  -0.86  0.381961566145
0.22  -0.84  0.45978665563
0.22  -0.82  0.553468692751
0.22  -0.8  0.666238548041
0.22  -0.78  0.801985385459
0.22  -0.76  0.965390790403
0.22  -0.74  1.16209022645
0.22  -0.72  1.39886738907
0.22  -0.7  1.68388815917
0.22  -0.68  2.02698222487
0.22  -0.66  2.43998208406
0.22  -0.64  2.93713111911
0.22  -0.62  3.53557481721
0.22  -0.6  4.25595207743
0.22  -0.58  5.12310699726
0.22  -0.56  6.16694568639
0.22  -0.54  7.42346765727
0.22  -0.52  8.93600736263
0.22  -0.5  10.7567286976
0.22  -0.48  12.9484240085
0.22  -0.46  15.5866796512
0.22  -0.44  18.7624827846
0.22  -0.42  22.5853593018
0.22  -0.4  27.1871511167
0.22  -0.38  32.7265630786
0.22  -0.36  39.3946363244
0.22  -0.34  47.4213368329
0.22  -0.32  57.083486404
0.22  -0.3  68.7143095843
0.22  -0.28  82.7149257883
0.22  -0.26  99.5681829529
0.22  -0.24  119.855309813
0.22  -0.22  144.275961099
0.22  -0.2  87.1635215439
0.22  -0.18  83.13643665
0.22  -0.16  78.6926895783
0.22  -0.14  73.9516528626
0.22  -0.12  69.0617324607
0.22  -0.1  64.206900144
0.22  -0.08  59.613112493
0.22  -0.06  55.5504724223
0.22  -0.04  52.322334852
0.22  -0.02  50.2290801792
0.22  6.17561557e-16  49.5019051724
0.22  0.02  50.2290801792
0.22  0.04  52.322334852
0.22  0.06  55.5504724223
0.22  0.08  59.613112493
0.22  0.1  64.206900144
0.22  0.12  69.0617324607
0.22  0.14  73.9516528626
0.22  0.16  78.6926895783
0.22  0.18  83.13643665
0.22  0.2  173.672346962
0.22  0.22  144.275961099
0.22  0.24  119.855309813
0.22  0.26  99.5681829529
0.22  0.28  82.7149257883
0.22  0.3  68.7143095843
0.22  0.32  57.083486404
0.22  0.34  47.4213368329
0.22  0.36  39.3946363244
0.22  0.38  32.7265630786
0.22  0.4  27.1871511167
