-0.26  0.72  0.0965883199245
-0.26  0.74  0.0767296356478
-0.26  0.76  0.0609539227025
-0.26  0.78  0.0484217168693
-0.26  0.8  0.0384661488649
-0.26  0.82  0.0305574585984
-0.26  0.84  0.024274805343
-0.26  0.86  0.0192838737732
-0.26  0.88  0.0153190842294
-0.26  0.9  0.0121694605755
-0.26  0.92  0.00966740364385
-0.26  0.94  0.0076797728735
-0.26  0.96  0.00610080157624
-0.26  0.98  0.00484646883257
-0.24  -1  0.00451605400957
-0.24  -0.98  0.00568487085583
-0.24  -0.96  0.0071561935661
-0.24  -0.94  0.00900831481563
-0.24  -0.92  0.0113397905001
-0.24  -0.9  0.0142746841354
-0.24  -0.88  0.0179691685807
-0.24  -0.86  0.0226198363774
-0.24  -0.84  0.0284741609186
-0.24  -0.82  0.0358436651128
-0.24  -0.8  0.0451204982788
-0.24  -0.78  0.0567983033688
-0.24  -0.76  0.0714984849157
-0.24  -0.74  0.0900032754861
-0.24  -0.72  0.113297360186
-0.24  -0.7  0.142620274159
-0.24  -0.68  0.179532361282
-0.24  -0.66  0.225997803872
-0.24  -0.64  0.284489141625
-0.24  -0.62  0.358118841493
-0.24  -0.6  0.450804919651
-0.24  -0.58  0.567479428713
-0.24  -0.56  0.714350904294
-0.24  -0.54  0.899234736354
-0.24  -0.52  1.13196904519
-0.24  -0.5  1.42493819185
-0.24  -0.48  1.79373178024
-0.24  -0.46  2.25797421798
-0.24  -0.44  2.84236897916
-0.24  -0.42  3.57801313645
-0.24  -0.4  4.50405211233
-0.24  -0.38  5.66976270263
-0.24  -0.36  7.1371752152
-0.24  -0.34  8.98437425413
-0.24  -0.32  11.3096537922
-0.24  -0.3  14.2367476334
-0.24  -0.28  17.9214135905
-0.24  -0.26  22.5597217394
-0.24  -0.24  28.3984877861
-0.24  -0.22  35.7484067335
-0.24  -0.2  20.6098320319
-0.24  -0.18  18.9811533512
-0.24  -0.16  17.3159801841
-0.24  -0.14  15.6302082515
-0.24  -0.12  13.9447600713
-0.24  -0.1  12.288704192
-0.24  -0.08  10.7046826696
-0.24  -0.06  9.25793069512
-0.24  -0.04  8.04866121929
-0.24  -0.02  7.21827233542
-0.24  6.17561557e-16  6.91790840257
-0.24  0.02  7.21827233542
-0.24  0.04  8.04866121929
-0.24  0.06  9.25793069511
-0.24  0.08  10.7046826696
-0.24  0.1  12.288704192
-0.24  0.12  13.9447600713
-0.24  0.14  15.6302082515
-0.24  0.16  17.3159801841
-0.24  0.18  18.9811533512
-0.24  0.2  45.0005857218
-0.24  0.22  35.7484067335
-0.24  0.24  28.3984877861
-0.24  0.26  22.5597217394
-0.24  0.28  17.9214135905
-0.24  0.3  14.2367476334
-0.24  0.32  11.3096537922
-0.24  0.34  8.98437425413
-0.24  0.36  7.1371752152
-0.24  0.38  5.66976270263
-0.24  0.4  4.50405211233
-0.24  0.42  3.57801313645
-0.24  0.44  2.84236897916
-0.24  0.46  2.25797421798
-0.24  0.48  1.79373178024
-0.24  0.5  1.42493819185
-0.24  0.52  1.13196904519
-0.24  0.54  0.899234736354
-0.24  0.56  0.714350904294
-0.24  0.58  0.567479428713
-0.24  0.6  0.450804919651
-0.24  0.62  0.358118841493
-0.24  0.64  0.284489141625
-0.24  0.66  0.225997803872
-0.24  0.68  0.179532361282
-0.24  0.7  0.142620274159
-0.24  0.72  0.113297360186
-0.24  0.74  0.0900032754861
-0.24  0.76  0.0714984849157
-0.24  0.78  0.0567983033688
-0.24  0.8  0.0451204982788
-0.24  0.82  0.0358436651128
-0.24  0.84  0.0284741609186
-0.24  0.86  0.0226198363774
-0.24  0.88  0.0179691685807
-0.24  0.9  0.0142746841354
-0.24  0.92  0.0113397905001
-0.24  0.94  0.00900831481563
-0.24  0.96  0.0071561935661
-0.24  0.98  0.00568487085583
-0.22  -1  0.00529729679676
-0.22  -0.98  0.00666831001373
-0.22  -0.96  0.00839416029444
-0.22  -0.94  0.0105666843479
-0.22  -0.92  0.0133014874854
-0.22  -0.9  0.0167440952621
-0.22  -0.88  0.0210776972466
-0.22  -0.86  0.0265328949856
-0.22  -0.84  0.0333999728756
-0.22  -0.82  0.0420443449045
-0.22  -0.8  0.0529259992227
-0.22  -0.78  0.0666239752357
-0.22  -0.76  0.0838671757057
-0.22  -0.74  0.105573153448
-0.22  -0.72  0.132896936556
-0.22  -0.7  0.16729249027
-0.22  -0.68  0.210590086018
-0.22  -0.66  0.265093694626
-0.22  -0.64  0.333703586239
-0.22  -0.62  0.420070660775
-0.22  -0.6  0.528790721229
-0.22  -0.58  0.665649027576
-0.22  -0.56  0.837928144583
-0.22  -0.54  1.05479546487
-0.22  -0.52  1.32779102828
-0.22  -0.5  1.67144159554
-0.22  -0.48  2.10403365273
-0.22  -0.46  2.64858647987
-0.22  -0.44  3.33407706299
-0.22  -0.42  4.1969820304
-0.22  -0.4  5.28321866313
-0.22  -0.38  6.65058826563
-0.22  -0.36  8.37185191436
-0.22  -0.34  10.5386022524
-0.22  -0.32  13.2661373577
-0.22  -0.3  16.6995960355
-0.22  -0.28  21.0216810085
-0.22  -0.26  26.4623809752
-0.22  -0.24  33.3112088702
-0.22  -0.22  41.9326075546
-0.22  -0.2  24.1751752687
-0.22  -0.18  22.2647476387
-0.22  -0.16  20.3115122556
-0.22  -0.14  18.3341146779
-0.22  -0.12  16.3570968594
-0.22  -0.1  14.4145559851
-0.22  -0.08  12.5565108601
-0.22  -0.06  10.8594818645
-0.22  -0.04  9.44101802254
-0.22  -0.02  8.46697821582
-0.22  6.17561557e-16  8.11465362095
-0.22  0.02  8.46697821582
-0.22  0.04  9.44101802254
-0.22  0.06  10.8594818645
-0.22  0.08  12.5565108601
-0.22  0.1  14.4145559851
-0.22  0.12  16.3570968594
-0.22  0.14  18.3341146779
-0.22  0.16  20.3115122556
-0.22  0.18  22.2647476387
-0.22  0.2  52.7853427109
-0.22  0.22  41.9326075546
-0.22  0.24  33.3112088702
-0.22  0.26  26.4623809752
-0.22  0.28  21.0216810085
-0.22  0.3  16.6995960355
-0.22  0.32  13.2661373577
-0.22  0.34  10.5386022524
-0.22  0.36  8.37185191436
-0.22  0.38  6.65058826563
-0.22  0.4  5.28321866313
-0.22  0.42  4.1969820304
-0.22  0.44  3.33407706299
-0.22  0.46  2.64858647987
-0.22  0.48  2.10403365273
-0.22  0.5  1.67144159554
-0.22  0.52  1.32779102828
-0.22  0.54  1.05479546487
-0.22  0.56  0.837928144583
-0.22  0.58  0.665649027576
-0.22  0.6  0.528790721229
-0.22  0.62  0.420070660775
-0.22  0.64  0.333703586239
-0.22  0.66  0.265093694626
-0.22  0.68  0.210590086018
-0.22  0.7  0.16729249027
-0.22  0.72  0.132896936556
-0.22  0.74  0.105573153448
-0.22  0.76  0.0838671757057
-0.22  0.78  0.0666239752357
-0.22  0.8  0.0529259992227
-0.22  0.82  0.0420443449045
-0.22  0.84  0.0333999728756
-0.22  0.86  0.0265328949856
-0.22  0.88  0.0210776972466
-0.22  0.9  0.0167440952621
-0.22  0.92  0.0133014874854
-0.22  0.94  0.0105666843479
-0.22  0.96  0.00839416029444
-0.22  0.98  0.00666831001373
-0.2  -1  0.00621368860812
-0.2  -0.98  0.00782187662075
-0.2  -0.96  0.00984628579396
-0.2  -0.94  0.0123946398847
-0.2  -0.92  0.0156025430386
-0.2  -0.9  0.0196406956181
-0.2  -0.88  0.0247239775855
-0.2  -0.86  0.0311228827906
-0.2  -0.84  0.0391779126092
-0.2  -0.82  0.0493176948532
-0.2  -0.8  0.0620817921029
-0.2  -0.78  0.0781494131504
-0.2  -0.76  0.0983755553582
-0.2  -0.74  0.123836501157
-0.2  -0.72  0.155887089664
-0.2  -0.7  0.196232810979
-0.2  -0.68  0.247020559481
-0.2  -0.66  0.310952875322
-0.2  -0.64  0.391431753187
-0.2  -0.62  0.492739670744
-0.2  -0.6  0.620267469739
-0.2  -0.58  0.780801215855
-0.2  -0.56  0.982883301839
-0.2  -0.54  1.23726700909
-0.2  -0.52  1.55748871602
-0.2  -0.5  1.96058820183
-0.2  -0.48  2.46801537476
-0.2  -0.46  3.10677167412
-0.2  -0.44  3.91084688281
-0.2  -0.42  4.9230278067
-0.2  -0.4  6.1971750651
-0.2  -0.38  7.80108914584
-0.2  -0.36  9.82011823484
-0.2  -0.34  12.3616998016
-0.2  -0.32  15.5610776093
-0.2  -0.3  19.5884983658
-0.2  -0.28  24.6582709669
-0.2  -0.26  31.040170396
-0.2  -0.24  39.0737931102
-0.2  -0.22  49.1866277967
-0.2  -0.2  28.3572956037
-0.2  -0.18  26.1163786122
-0.2  -0.16  23.8252484538
-0.2  -0.14  21.5057762261
-0.2  -0.12  19.186749453
-0.2  -0.1  16.9081638715
-0.2  -0.08  14.7286911575
-0.2  -0.06  12.7380891312
-0.2  -0.04  11.0742418986
-0.2  -0.02  9.93170065855
-0.2  6.17561557e-16  9.51842660472
-0.2  0.02  9.93170065855
-0.2  0.04  11.0742418986
-0.2  0.06  12.7380891312
-0.2  0.08  14.7286911575
-0.2  0.1  16.9081638715
-0.2  0.12  19.186749453
-0.2  0.14  21.5057762261
-0.2  0.16  23.8252484538
-0.2  0.18  26.1163786122
-0.2  0.2  61.9168030908
-0.2  0.22  49.1866277967
-0.2  0.24  39.0737931102
-0.2  0.26  31.040170396
-0.2  0.28  24.6582709669
-0.2  0.3  19.5884983658
-0.2  0.32  15.5610776093
-0.2  0.34  12.3616998016
-0.2  0.36  9.82011823484
-0.2  0.38  7.80108914584
-0.2  0.4  6.1971750651
-0.2  0.42  4.9230278067
-0.2  0.44  3.91084688281
-0.2  0.46  3.10677167412
-0.2  0.48  2.46801537476
-0.2  0.5  1.96058820183
-0.2  0.52  1.55748871602
-0.2  0.54  1.23726700909
-0.2  0.56  0.982883301839
-0.2  0.58  0.780801215855
-0.2  0.6  0.620267469739
-0.2  0.62  0.492739670744
-0.2  0.64  0.391431753187
-0.2  0.66  0.310952875322
-0.2  0.68  0.247020559481
-0.2  0.7  0.196232810979
-0.2  0.72  0.155887089664
-0.2  0.74  0.123836501157
-0.2  0.76  0.0983755553582
-0.2  0.78  0.0781494131504
-0.2  0.8  0.0620817921029
-0.2  0.82  0.0493176948532
-0.2  0.84  0.0391779126092
-0.2  0.86  0.0311228827906
-0.2  0.88  0.0247239775855
-0.2  0.9  0.0196406956181
-0.2  0.92  0.0156025430386
-0.2  0.94  0.0123946398847
-0.2  0.96  0.00984628579396
-0.2  0.98  0.00782187662075
-0.18  -1  0.0072886091907
-0.18  -0.98  0.00917500142379
-0.18  -0.96  0.0115496178934
-0.18  -0.94  0.0145388177419
-0.18  -0.92  0.0183016635949
-0.18  -0.9  0.023038385671
-0.18  -0.88  0.0290010365219
-0.18  -0.86  0.0365069033636
-0.18  -0.84  0.0459553917045
-0.18  -0.82  0.0578492786879
-0.18  -0.8  0.072821467092
-0.18  -0.78  0.0916686636326
-0.18  -0.76  0.115393773674
-0.18  -0.74  0.145259268271
-0.18  -0.72  0.18285436334
-0.18  -0.7  0.230179585721
-0.18  -0.68  0.28975322609
-0.18  -0.66  0.364745343367
-0.18  -0.64  0.459146451285
-0.18  -0.62  0.57797986338
-0.18  -0.6  0.727568995769
-0.18  -0.58  0.915873851572
-0.18  -0.56  1.15291459212
-0.18  -0.54  1.4513047342
-0.18  -0.52  1.82692234612
-0.18  -0.5  2.29975495849
-0.18  -0.48  2.89496314955
-0.18  -0.46  3.64421940098
-0.18  -0.44  4.58739346806
-0.18  -0.42  5.77467394666
-0.18  -0.4  7.2692389311
-0.18  -0.38  9.15061787478
-0.18  -0.36  11.5189235467
-0.18  -0.34  14.5001792766
-0.18  -0.32  18.2530249636
-0.18  -0.3  22.9771586935
-0.18  -0.28  28.9239631611
-0.18  -0.26  36.4098823577
-0.18  -0.24  45.8332603288
-0.18  -0.22  57.6955380336
-0.18  -0.2  33.2628907555
-0.18  -0.18  30.6343122718
-0.18  -0.16  27.9468341275
-0.18  -0.14  25.2261109528
-0.18  -0.12  22.5059102929
-0.18  -0.1  19.8331468414
-0.18  -0.08  17.276642025
-0.18  -0.06  14.9416810801
-0.18  -0.04  12.9900010078
-0.18  -0.02  11.6498088759
-0.18  6.17561557e-16  11.1650415731
-0.18  0.02  11.6498088759
-0.18  0.04  12.9900010078
-0.18  0.06  14.9416810801
-0.18  0.08  17.276642025
-0.18  0.1  19.8331468414
-0.18  0.12  22.5059102929
-0.18  0.14  25.2261109528
-0.18  0.16  27.9468341275
-0.18  0.18  30.6343122718
-0.18  0.2  72.6279362433
-0.18  0.22  57.6955380336
-0.18  0.24  45.8332603288
-0.18  0.26  36.4098823577
-0.18  0.28  28.9239631611
-0.18  0.3  22.9771586935
-0.18  0.32  18.2530249636
-0.18  0.34  14.5001792766
-0.18  0.36  11.5189235467
-0.18  0.38  9.15061787478
-0.18  0.4  7.2692389311
-0.18  0.42  5.77467394666
-0.18  0.44  4.58739346806
-0.18  0.46  3.64421940098
-0.18  0.48  2.89496314955
-0.18  0.5  2.29975495849
-0.18  0.52  1.82692234612
-0.18  0.54  1.4513047342
-0.18  0.56  1.15291459212
-0.18  0.58  0.915873851572
-0.18  0.6  0.727568995769
-0.18  0.62  0.57797986338
-0.18  0.64  0.459146451285
-0.18  0.66  0.364745343367
-0.18  0.68  0.28975322609
-0.18  0.7  0.230179585721
-0.18  0.72  0.18285436334
-0.18  0.74  0.145259268271
-0.18  0.76  0.115393773674
-0.18  0.78  0.0916686636326
-0.18  0.8  0.072821467092
-0.18  0.82  0.0578492786879
-0.18  0.84  0.0459553917045
-0.18  0.86  0.0365069033636
-0.18  0.88  0.0290010365219
-0.18  0.9  0.023038385671
-0.18  0.92  0.0183016635949
-0.18  0.94  0.0145388177419
-0.18  0.96  0.0115496178934
-0.18  0.98  0.00917500142379
-0.16  -1  0.00854948280886
-0.16  -0.98  0.0107622064638
-0.16  -0.96  0.0135476134122
-0.16  -0.94  0.0170539219615
-0.16  -0.92  0.021467711354
-0.16  -0.9  0.0270238501043
-0.16  -0.88  0.0340179939267
-0.16  -0.86  0.0428223182978
-0.16  -0.84  0.0539053228226
-0.16  -0.82  0.0678567612431
-0.16  -0.8  0.0854190236751
-0.16  -0.78  0.107526641
-0.16  -0.76  0.135356013536
-0.16  -0.74  0.17038801017
-0.16  -0.72  0.214486769012
-0.16  -0.7  0.269998892735
-0.16  -0.68  0.339878317036
-0.16  -0.66  0.427843496768
-0.16  -0.64  0.538575274007
-0.16  -0.62  0.677965957091
-0.16  -0.6  0.85343286474
-0.16  -0.58  1.0743130197
-0.16  -0.56  1.35235999455
-0.16  -0.54  1.70236934795
-0.16  -0.52  2.14296593254
-0.16  -0.5  2.69759496878
-0.16  -0.48  3.3957696224
-0.16  -0.46  4.27464147209
-0.16  -0.44  5.38097743568
-0.16  -0.42  6.77364835211
-0.16  -0.4  8.52676164257
-0.16  -0.38  10.7336047474
-0.16  -0.36  13.5116091785
-0.16  -0.34  17.0085993372
-0.16  -0.32  21.4106586117
-0.16  -0.3  26.9520313281
-0.16  -0.28  33.9275874642
-0.16  -0.26  42.7085134002
-0.16  -0.24  53.7620636534
-0.16  -0.22  67.676424632
-0.16  -0.2  39.0171163313
-0.16  -0.18  35.9338138836
-0.16  -0.16  32.7814225847
-0.16  -0.14  29.5900351195
-0.16  -0.12  26.3992605603
-0.16  -0.1  23.2641294834
-0.16  -0.08  20.2653688959
-0.16  -0.06  17.5264775744
-0.16  -0.04  15.2371717838
-0.16  -0.02  13.6651366681
-0.16  6.17561557e-16  13.0965083313
-0.16  0.02  13.6651366681
-0.16  0.04  15.2371717838
-0.16  0.06  17.5264775744
-0.16  0.08  20.2653688959
-0.16  0.1  23.2641294834
-0.16  0.12  26.3992605603
-0.16  0.14  29.5900351195
-0.16  0.16  32.7814225847
-0.16  0.18  35.9338138836
-0.16  0.2  85.1920134705
-0.16  0.22  67.676424632
-0.16  0.24  53.7620636534
-0.16  0.26  42.7085134002
-0.16  0.28  33.9275874642
-0.16  0.3  26.9520313281
-0.16  0.32  21.4106586117
-0.16  0.34  17.0085993372
-0.16  0.36  13.5116091785
-0.16  0.38  10.7336047474
-0.16  0.4  8.52676164257
-0.16  0.42  6.77364835211
-0.16  0.44  5.38097743568
-0.16  0.46  4.27464147209
-0.16  0.48  3.3957696224
-0.16  0.5  2.69759496878
-0.16  0.52  2.14296593254
-0.16  0.54  1.70236934795
-0.16  0.56  1.35235999455
-0.16  0.58  1.0743130197
-0.16  0.6  0.85343286474
-0.16  0.62  0.677965957091
-0.16  0.64  0.538575274007
-0.16  0.66  0.427843496768
-0.16  0.68  0.339878317036
-0.16  0.7  0.269998892735
-0.16  0.72  0.214486769012
-0.16  0.74  0.17038801017
-0.16  0.76  0.135356013536
-0.16  0.78  0.107526641
-0.16  0.8  0.0854190236751
-0.16  0.82  0.0678567612431
-0.16  0.84  0.0539053228226
-0.16  0.86  0.0428223182978
-0.16  0.88  0.0340179939267
-0.16  0.9  0.0270238501043
-0.16  0.92  0.021467711354
-0.16  0.94  0.0170539219615
-0.16  0.96  0.0135476134122
-0.16  0.98  0.0107622064638
-0.14  -1  0.0100284779149
-0.14  -0.98  0.0126239858305
-0.14  -0.96  0.0158912468673
-0.14  -0.94  0.0200041199656
-0.14  -0.92  0.0251814611491
-0.14  -0.9  0.0316987693881
-0.14  -0.88  0.0399028465732
-0.14  -0.86  0.0502302516905
-0.14  -0.84  0.0632305311919
-0.14  -0.82  0.0795954617038
-0.14  -0.8  0.100195861152
-0.14  -0.78  0.126127927108
-0.14  -0.76  0.158771568144
-0.14  -0.74  0.199863832134
-0.14  -0.72  0.251591338816
-0.14  -0.7  0.31670663517
-0.14  -0.68  0.398674665163
-0.14  -0.66  0.501857147886
-0.14  -0.64  0.631744675277
-0.14  -0.62  0.795248879928
-0.14  -0.6  1.00107021994
-0.14  -0.58  1.26016095156
-0.14  -0.56  1.58630792546
-0.14  -0.54  1.99686621876
-0.14  -0.52  2.51368264107
-0.14  -0.5  3.1642582566
-0.14  -0.48  3.98321178293
-0.14  -0.46  5.01412173756
-0.14  -0.44  6.31184535726
-0.14  -0.42  7.94543768564
-0.14  -0.4  10.0018261607
-0.14  -0.38  12.590436236
-0.14  -0.36  15.8490141767
-0.14  -0.34  19.9509568742
-0.14  -0.32  25.1145387189
-0.14  -0.3  31.6145265132
-0.14  -0.28  39.7968004844
-0.14  -0.26  50.0967594165
-0.14  -0.24  63.0624892826
-0.14  -0.22  79.3839282389
-0.14  -0.2  45.7667789009
-0.14  -0.18  42.1500887229
-0.14  -0.16  38.4523578511
-0.14  -0.14  34.7088847747
-0.14  -0.12  30.9661306322
-0.14  -0.1  27.2886458688
-0.14  -0.08  23.771122646
-0.14  -0.06  20.5584240836
-0.14  -0.04  17.8730859088
-0.14  -0.02  16.0291007472
-0.14  6.17561557e-16  15.3621040592
-0.14  0.02  16.0291007472
-0.14  0.04  17.8730859088
-0.14  0.06  20.5584240836
-0.14  0.08  23.771122646
-0.14  0.1  27.2886458688
-0.14  0.12  30.9661306322
-0.14  0.14  34.7088847747
-0.14  0.16  38.4523578511
-0.14  0.18  42.1500887229
-0.14  0.2  99.9295799187
-0.14  0.22  79.3839282389
-0.14  0.24  63.0624892826
-0.14  0.26  50.0967594165
-0.14  0.28  39.7968004844
-0.14  0.3  31.6145265132
-0.14  0.32  25.1145387189
-0.14  0.34  19.9509568742
-0.14  0.36  15.8490141766
-0.14  0.38  12.590436236
-0.14  0.4  10.0018261607
-0.14  0.42  7.94543768563
-0.14  0.44  6.31184535726
-0.14  0.46  5.01412173756
-0.14  0.48  3.98321178293
-0.14  0.5  3.1642582566
-0.14  0.52  2.51368264107
-0.14  0.54  1.99686621876
-0.14  0.56  1.58630792546
-0.14  0.58  1.26016095156
-0.14  0.6  1.00107021994
-0.14  0.62  0.795248879928
-0.14  0.64  0.631744675277
-0.14  0.66  0.501857147886
-0.14  0.68  0.398674665163
-0.14  0.7  0.31670663517
-0.14  0.72  0.251591338816
-0.14  0.74  0.199863832134
-0.14  0.76  0.158771568144
-0.14  0.78  0.126127927108
-0.14  0.8  0.100195861152
-0.14  0.82  0.0795954617038
-0.14  0.84  0.0632305311919
-0.14  0.86  0.0502302516905
-0.14  0.88  0.0399028465732
-0.14  0.9  0.0316987693881
-0.14  0.92  0.0251814611491
-0.14  0.94  0.0200041199656
-0.14  0.96  0.0158912468673
-0.14  0.98  0.0126239858305
-0.12  -1  0.0117633278571
-0.12  -0.98  0.0148078387815
-0.12  -0.96  0.0186403109768
-0.12  -0.94  0.0234646796498
-0.12  -0.92  0.0295376612414
-0.12  -0.9  0.0371824139359
-0.12  -0.88  0.0468057336971
-0.12  -0.86  0.0589197008752
-0.12  -0.84  0.0741689292533
-0.12  -0.82  0.0933648675208
-0.12  -0.8  0.117528978441
-0.12  -0.78  0.147947093378
-0.12  -0.76  0.186237834526
-0.12  -0.74  0.234438745752
-0.12  -0.72  0.295114715275
-0.12  -0.7  0.371494459641
-0.12  -0.68  0.467642331611
-0.12  -0.66  0.588674594302
-0.12  -0.64  0.741031670042
-0.12  -0.62  0.932820850978
-0.12  -0.6  1.17424770789
-0.12  -0.58  1.47815915353
-0.12  -0.56  1.86072705827
-0.12  -0.54  2.34230879475
-0.12  -0.52  2.94853050349
-0.12  -0.5  3.71165072236
-0.12  -0.48  4.67227694218
-0.12  -0.46  5.88152643052
-0.12  -0.44  7.40374630635
-0.12  -0.42  9.31993760742
-0.12  -0.4  11.7320655533
-0.12  -0.38  14.7684853639
-0.12  -0.36  18.5907723539
-0.12  -0.34  23.4023197504
-0.12  -0.32  29.4591617429
-0.12  -0.3  37.0835976883
-0.12  -0.28  46.6813424465
-0.12  -0.26  58.7631154593
-0.12  -0.24  73.9718173796
-0.12  -0.22  93.1167403851
-0.12  -0.2  53.6840814472
-0.12  -0.18  49.4417315431
-0.12  -0.16  45.1043215251
-0.12  -0.14  40.7132562512
-0.12  -0.12  36.3230342814
-0.12  -0.1  32.0093727937
-0.12  -0.08  27.8833449691
-0.12  -0.06  24.1148741388
-0.12  -0.04  20.9649930077
-0.12  -0.02  18.8020125231
-0.12  6.17561557e-16  18.019630512
-0.12  0.02  18.8020125231
-0.12  0.04  20.9649930077
-0.12  0.06  24.1148741387
-0.12  0.08  27.8833449691
-0.12  0.1  32.0093727937
-0.12  0.12  36.3230342814
-0.12  0.14  40.7132562512
-0.12  0.16  45.1043215251
-0.12  0.18  49.441731543
-0.12  0.2  117.216632592
-0.12  0.22  93.1167403851
-0.12  0.24  73.9718173796
-0.12  0.26  58.7631154593
-0.12  0.28  46.6813424465
-0.12  0.3  37.0835976883
-0.12  0.32  29.4591617429
-0.12  0.34  23.4023197504
-0.12  0.36  18.5907723539
-0.12  0.38  14.7684853639
-0.12  0.4  11.7320655533
-0.12  0.42  9.31993760742
-0.12  0.44  7.40374630635
-0.12  0.46  5.88152643052
-0.12  0.48  4.67227694218
-0.12  0.5  3.71165072236
-0.12  0.52  2.94853050349
-0.12  0.54  2.34230879475
-0.12  0.56  1.86072705827
-0.12  0.58  1.47815915353
-0.12  0.6  1.17424770789
-0.12  0.62  0.932820850978
-0.12  0.64  0.741031670042
-0.12  0.66  0.588674594301
-0.12  0.68  0.467642331611
-0.12  0.7  0.371494459641
-0.12  0.72  0.295114715275
-0.12  0.74  0.234438745752
-0.12  0.76  0.186237834526
-0.12  0.78  0.147947093378
-0.12  0.8  0.117528978441
-0.12  0.82  0.0933648675208
-0.12  0.84  0.0741689292533
-0.12  0.86  0.0589197008752
-0.12  0.88  0.0468057336971
-0.12  0.9  0.0371824139359
-0.12  0.92  0.0295376612414
-0.12  0.94  0.0234646796498
-0.12  0.96  0.0186403109768
-0.12  0.98  0.0148078387815
-0.1  -1  0.0137982935643
-0.1  -0.98  0.0173694815823
-0.1  -0.96  0.0218649421417
-0.1  -0.94  0.0275238896795
-0.1  -0.92  0.0346474506165
-0.1  -0.9  0.0436146870301
-0.1  -0.88  0.0549027674731
-0.1  -0.86  0.069112358278
-0.1  -0.84  0.0869995864796
-0.1  -0.82  0.109516275182
-0.1  -0.8  0.137860592389
-0.1  -0.78  0.173540808453
-0.1  -0.76  0.218455554823
-0.1  -0.74  0.274994854861
-0.1  -0.72  0.346167302825
-0.1  -0.7  0.435760158515
-0.1  -0.68  0.54854087662
-0.1  -0.66  0.690510794627
-0.1  -0.64  0.869224478647
-0.1  -0.62  1.09419172033
-0.1  -0.6  1.37738357611
-0.1  -0.58  1.73386937634
-0.1  -0.56  2.18261860122
-0.1  -0.54  2.74751029309
-0.1  -0.52  3.45860371869
-0.1  -0.5  4.35373789608
-0.1  -0.48  5.4805451013
-0.1  -0.46  6.89898549805
-0.1  -0.44  8.6845377645
-0.1  -0.42  10.9322154981
-0.1  -0.4  13.7616231213
-0.1  -0.38  17.3233203246
-0.1  -0.36  21.8068337161
-0.1  -0.34  27.4507419946
-0.1  -0.32  34.5553713054
-0.1  -0.3  43.4987763278
-0.1  -0.28  54.756857488
-0.1  -0.26  68.9286847833
-0.1  -0.24  86.7683757601
-0.1  -0.22  109.22522395
-0.1  -0.2  62.9710167515
-0.1  -0.18  57.994772776
-0.1  -0.16  52.9070240144
-0.1  -0.14  47.7563380482
-0.1  -0.12  42.6066412712
-0.1  -0.1  37.546749354
-0.1  -0.08  32.7069502878
-0.1  -0.06  28.2865628397
-0.1  -0.04  24.5917763756
-0.1  -0.02  22.0546168182
-0.1  6.17561557e-16  21.1368887058
-0.1  0.02  22.0546168182
-0.1  0.04  24.5917763756
-0.1  0.06  28.2865628397
-0.1  0.08  32.7069502878
-0.1  0.1  37.546749354
-0.1  0.12  42.6066412712
-0.1  0.14  47.7563380482
-0.1  0.16  52.9070240144
-0.1  0.18  57.994772776
-0.1  0.2  137.494213098
-0.1  0.22  109.22522395
-0.1  0.24  86.7683757601
-0.1  0.26  68.9286847833
-0.1  0.28  54.756857488
-0.1  0.3  43.4987763278
-0.1  0.32  34.5553713054
-0.1  0.34  27.4507419946
-0.1  0.36  21.8068337161
-0.1  0.38  17.3233203246
-0.1  0.4  13.7616231213
-0.1  0.42  10.9322154981
-0.1  0.44  8.6845377645
-0.1  0.46  6.89898549805
-0.1  0.48  5.4805451013
-0.1  0.5  4.35373789608
-0.1  0.52  3.45860371869
-0.1  0.54  2.74751029309
-0.1  0.56  2.18261860122
-0.1  0.58  1.73386937634
-0.1  0.6  1.37738357611
-0.1  0.62  1.09419172033
-0.1  0.64  0.869224478647
-0.1  0.66  0.690510794627
-0.1  0.68  0.54854087662
-0.1  0.7  0.435760158515
-0.1  0.72  0.346167302825
-0.1  0.74  0.274994854861
-0.1  0.76  0.218455554823
-0.1  0.78  0.173540808453
-0.1  0.8  0.137860592389
-0.1  0.82  0.109516275182
-0.1  0.84  0.0869995864796
-0.1  0.86  0.069112358278
-0.1  0.88  0.0549027674731
-0.1  0.9  0.0436146870301
-0.1  0.92  0.0346474506165
-0.1  0.94  0.0275238896795
-0.1  0.96  0.0218649421417
-0.1  0.98  0.0173694815823
-0.08  -1  0.0161852927676
-0.08  -0.98  0.0203742689862
-0.08  -0.96  0.0256474098235
-0.08  -0.94  0.0322853119835
-0.08  -0.92  0.0406411944537
-0.08  -0.9  0.0511596941503
-0.08  -0.88  0.0644005261346
-0.08  -0.86  0.0810682674181
-0.08  -0.84  0.102049849227
-0.08  -0.82  0.128461752779
-0.08  -0.8  0.161709419974
-0.08  -0.78  0.203562040396
-0.08  -0.76  0.256246694204
-0.08  -0.74  0.322566860515
-0.08  -0.72  0.40605159737
-0.08  -0.7  0.511143331537
-0.08  -0.68  0.643434250886
-0.08  -0.66  0.809963878366
-0.08  -0.64  1.01959366222
-0.08  -0.62  1.28347851528
-0.08  -0.6  1.61566039515
-0.08  -0.58  2.03381551103
-0.08  -0.56  2.56019491801
-0.08  -0.54  3.22280855008
-0.08  -0.52  4.05691569707
-0.08  -0.5  5.10690123766
-0.08  -0.48  6.42863746715
-0.08  -0.46  8.09245719875
-0.08  -0.44  10.1868963444
-0.08  -0.42  12.8234051269
-0.08  -0.4  16.1422786184
-0.08  -0.38  20.3201221841
-0.08  -0.36  25.5792490849
-0.08  -0.34  32.1995103089
-0.08  -0.32  40.5331861264
-0.08  -0.3  51.0237317835
-0.08  -0.28  64.2293748385
-0.08  -0.26  80.8528198143
-0.08  -0.24  101.778640822
-0.08  -0.22  128.120351911
-0.08  -0.2  73.8645208005
-0.08  -0.18  68.0274246951
-0.08  -0.16  62.0595343288
-0.08  -0.14  56.0178191031
-0.08  -0.12  49.9772641887
-0.08  -0.1  44.0420496876
-0.08  -0.08  38.3650024167
-0.08  -0.06  33.1799217646
-0.08  -0.04  28.8459655144
-0.08  -0.02  25.8698967676
-0.08  6.17561557e-16  24.7934087142
-0.08  0.02  25.8698967676
-0.08  0.04  28.8459655144
-0.08  0.06  33.1799217646
-0.08  0.08  38.3650024167
-0.08  0.1  44.0420496876
-0.08  0.12  49.9772641887
-0.08  0.14  56.0178191031
-0.08  0.16  62.0595343288
-0.08  0.18  68.0274246951
-0.08  0.2  161.27965987
-0.08  0.22  128.120351911
-0.08  0.24  101.778640822
-0.08  0.26  80.8528198143
-0.08  0.28  64.2293748385
-0.08  0.3  51.0237317835
-0.08  0.32  40.5331861264
-0.08  0.34  32.1995103089
-0.08  0.36  25.5792490849
-0.08  0.38  20.3201221841
-0.08  0.4  16.1422786184
-0.08  0.42  12.8234051269
-0.08  0.44  10.1868963444
-0.08  0.46  8.09245719875
-0.08  0.48  6.42863746715
-0.08  0.5  5.10690123766
-0.08  0.52  4.05691569707
-0.08  0.54  3.22280855008
-0.08  0.56  2.56019491801
-0.08  0.58  2.03381551103
-0.08  0.6  1.61566039515
-0.08  0.62  1.28347851528
-0.08  0.64  1.01959366222
-0.08  0.66  0.809963878366
-0.08  0.68  0.643434250886
-0.08  0.7  0.511143331537
-0.08  0.72  0.40605159737
-0.08  0.74  0.322566860515
-0.08  0.76  0.256246694204
-0.08  0.78  0.203562040396
-0.08  0.8  0.161709419974
-0.08  0.82  0.128461752779
-0.08  0.84  0.102049849227
-0.08  0.86  0.0810682674181
-0.08  0.88  0.0644005261346
-0.08  0.9  0.0511596941503
-0.08  0.92  0.0406411944537
-0.08  0.94  0.0322853119835
-0.08  0.96  0.0256474098235
-0.08  0.98  0.0203742689862
-0.06  -1  0.0189852245678
-0.06  -0.98  0.0238988616187
-0.06  -0.96  0.0300842154712
-0.06  -0.94  0.0378704239121
-0.06  -0.92  0.0476718101112
-0.06  -0.9  0.0600099297686
-0.06  -0.88  0.0755413243684
-0.06  -0.86  0.0950924573538
-0.06  -0.84  0.119703692266
-0.06  -0.82  0.150684653031
-0.06  -0.8  0.189683912243
-0.06  -0.78  0.238776715744
-0.06  -0.76  0.300575411523
-0.06  -0.74  0.378368459129
-0.06  -0.72  0.476295416642
-0.06  -0.7  0.599567216667
-0.06  -0.68  0.754743452784
-0.06  -0.66  0.950081431547
-0.06  -0.64  1.19597556394
-0.06  -0.62  1.50551047736
-0.06  -0.6  1.89515728061
-0.06  -0.58  2.38565003185
-0.06  -0.56  3.00308904843
-0.06  -0.54  3.78032976858
-0.06  -0.52  4.75873106948
-0.06  -0.5  5.9903560742
-0.06  -0.48  7.54074255757
-0.06  -0.46  9.49239037133
-0.06  -0.44  11.9491514627
-0.06  -0.42  15.0417560902
-0.06  -0.4  18.9347693001
-0.06  -0.38  23.8353478341
-0.06  -0.36  30.0042634463
-0.06  -0.34  37.7697792043
-0.06  -0.32  47.5451171697
-0.06  -0.3  59.8504469527
-0.06  -0.28  75.3405652077
-0.06  -0.26  94.8397389631
-0.06  -0.24  119.385566883
-0.06  -0.22  150.284192426
-0.06  -0.2  86.6425176938
-0.06  -0.18  79.7956486271
-0.06  -0.16  72.7953588933
-0.06  -0.14  65.7084731642
-0.06  -0.12  58.6229484715
-0.06  -0.1  51.6609872775
-0.06  -0.08  45.001854269
-0.06  -0.06  38.9197943399
-0.06  -0.04  33.8360968215
-0.06  -0.02  30.3451909542
-0.06  6.17561557e-16  29.0824787047
-0.06  0.02  30.3451909542
-0.06  0.04  33.8360968214
-0.06  0.06  38.9197943399
-0.06  0.08  45.001854269
-0.06  0.1  51.6609872775
-0.06  0.12  58.6229484715
-0.06  0.14  65.7084731642
-0.06  0.16  72.7953588933
-0.06  0.18  79.7956486271
-0.06  0.2  189.179806929
-0.06  0.22  150.284192426
-0.06  0.24  119.385566883
-0.06  0.26  94.8397389631
-0.06  0.28  75.3405652077
-0.06  0.3  59.8504469527
-0.06  0.32  47.5451171697
-0.06  0.34  37.7697792043
-0.06  0.36  30.0042634463
-0.06  0.38  23.8353478341
-0.06  0.4  18.9347693001
-0.06  0.42  15.0417560902
-0.06  0.44  11.9491514627
-0.06  0.46  9.49239037133
-0.06  0.48  7.54074255757
-0.06  0.5  5.9903560742
-0.06  0.52  4.75873106948
-0.06  0.54  3.78032976858
-0.06  0.56  3.00308904843
-0.06  0.58  2.38565003185
-0.06  0.6  1.89515728061
-0.06  0.62  1.50551047736
-0.06  0.64  1.19597556394
-0.06  0.66  0.950081431547
-0.06  0.68  0.754743452784
-0.06  0.7  0.599567216667
-0.06  0.72  0.476295416642
-0.06  0.74  0.378368459129
-0.06  0.76  0.300575411523
-0.06  0.78  0.238776715744
-0.06  0.8  0.189683912243
-0.06  0.82  0.150684653031
-0.06  0.84  0.119703692266
-0.06  0.86  0.0950924573538
-0.06  0.88  0.0755413243684
-0.06  0.9  0.0600099297686
-0.06  0.92  0.0476718101112
-0.06  0.94  0.0378704239121
-0.06  0.96  0.0300842154712
-0.06  0.98  0.0238988616187
-0.04  -1  0.0222695231447
-0.04  -0.98  0.0280331818066
-0.04  -0.96  0.0352885545458
-0.04  -0.94  0.0444217174676
-0.04  -0.92  0.0559186684797
-0.04  -0.9  0.0703911884276
-0.04  -0.88  0.0886093954482
-0.04  -0.86  0.111542724836
-0.04  -0.84  0.140411515066
-0.04  -0.82  0.176751944979
-0.04  -0.8  0.222497777615
-0.04  -0.78  0.280083260469
-0.04  -0.76  0.352572657738
-0.04  -0.74  0.443823307314
-0.04  -0.72  0.558690879149
-0.04  -0.7  0.703287757312
-0.04  -0.68  0.885308294881
-0.04  -0.66  1.11443824926
-0.04  -0.64  1.40287018499
-0.04  -0.62  1.7659522699
-0.04  -0.6  2.22300498857
-0.04  -0.58  2.79834923256
-0.04  -0.56  3.52260047442
-0.04  -0.54  4.43429789177
-0.04  -0.52  5.58195513109
-0.04  -0.5  7.02664183733
-0.04  -0.48  8.84523331889
-0.04  -0.46  11.1345012706
-0.04  -0.44  14.0162632318
-0.04  -0.42  17.6438647956
-0.04  -0.4  22.2103395017
-0.04  -0.38  27.9586806233
-0.04  -0.36  35.1947714323
-0.04  -0.34  44.3036619955
-0.04  -0.32  55.7700586288
-0.04  -0.3  70.2041163048
-0.04  -0.28  88.3739064889
-0.04  -0.26  111.246288098
-0.04  -0.24  140.038356425
-0.04  -0.22  176.282207753
-0.04  -0.2  101.631010274
-0.04  -0.18  93.59968525
-0.04  -0.16  85.3883989578
-0.04  -0.14  77.0755362259
-0.04  -0.12  68.7642699791
-0.04  -0.1  60.5979427709
-0.04  -0.08  52.7868307071
-0.04  -0.06  45.6526209497
-0.04  -0.04  39.6894826606
-0.04  -0.02  35.5946767904
-0.04  6.17561557e-16  34.1135249839
-0.04  0.02  35.5946767904
-0.04  0.04  39.6894826606
-0.04  0.06  45.6526209497
-0.04  0.08  52.7868307071
-0.04  0.1  60.5979427709
-0.04  0.12  68.7642699791
-0.04  0.14  77.0755362259
-0.04  0.16  85.3883989578
-0.04  0.18  93.59968525
-0.04  0.2  221.90646594
-0.04  0.22  176.282207753
-0.04  0.24  140.038356425
-0.04  0.26  111.246288098
-0.04  0.28  88.3739064889
-0.04  0.3  70.2041163048
-0.04  0.32  55.7700586288
-0.04  0.34  44.3036619955
-0.04  0.36  35.1947714323
-0.04  0.38  27.9586806233
-0.04  0.4  22.2103395017
-0.04  0.42  17.6438647956
-0.04  0.44  14.0162632318
-0.04  0.46  11.1345012706
-0.04  0.48  8.84523331889
-0.04  0.5  7.02664183733
-0.04  0.52  5.58195513109
-0.04  0.54  4.43429789177
-0.04  0.56  3.52260047442
-0.04  0.58  2.79834923256
-0.04  0.6  2.22300498857
-0.04  0.62  1.7659522699
-0.04  0.64  1.40287018499
-0.04  0.66  1.11443824926
-0.04  0.68  0.885308294881
-0.04  0.7  0.703287757312
-0.04  0.72  0.558690879149
-0.04  0.74  0.443823307314
-0.04  0.76  0.352572657738
-0.04  0.78  0.280083260469
-0.04  0.8  0.222497777615
-0.04  0.82  0.176751944979
-0.04  0.84  0.140411515066
-0.04  0.86  0.111542724836
-0.04  0.88  0.0886093954482
-0.04  0.9  0.0703911884276
-0.04  0.92  0.0559186684797
-0.04  0.94  0.0444217174676
-0.04  0.96  0.0352885545458
-0.04  0.98  0.0280331818066
-0.02  -1  0.0261219802442
-0.02  -0.98  0.0328827077516
-0.02  -0.96  0.0413932044571
-0.02  -0.94  0.0521063346782
-0.02  -0.92  0.0655921702417
-0.02  -0.9  0.0825683253981
-0.02  -0.88  0.103938142829
-0.02  -0.86  0.130838762718
-0.02  -0.84  0.164701632755
-0.02  -0.82  0.207328678969
-0.02  -0.8  0.260988190608
-0.02  -0.78  0.328535521356
-0.02  -0.76  0.41356502967
-0.02  -0.74  0.520601343381
-0.02  -0.72  0.655340126185
-0.02  -0.7  0.824951157828
-0.02  -0.68  1.03845985559
-0.02  -0.66  1.30722753879
-0.02  -0.64  1.64555599235
-0.02  -0.62  2.07144849967
-0.02  -0.6  2.60756784134
-0.02  -0.58  3.28244223706
-0.02  -0.56  4.13198340185
-0.02  -0.54  5.20139749617
-0.02  -0.52  6.54759065611
-0.02  -0.5  8.24219710791
-0.02  -0.48  10.3753910001
-0.02  -0.46  13.0606847901
-0.02  -0.44  16.4409695197
-0.02  -0.42  20.6961183958
-0.02  -0.4  26.0525582838
-0.02  -0.38  32.7953184337
-0.02  -0.36  41.2831975827
-0.02  -0.34  51.9678565128
-0.02  -0.32  65.4178520237
-0.02  -0.3  82.3488912295
-0.02  -0.28  103.661916082
-0.02  -0.26  130.491044692
-0.02  -0.24  164.263920525
-0.02  -0.22  206.777680798
-0.02  -0.2  119.212397379
-0.02  -0.18  109.791714581
-0.02  -0.16  100.159938593
-0.02  -0.14  90.4090142174
-0.02  -0.12  80.659962507
-0.02  -0.1  71.0809231799
-0.02  -0.08  61.918548499
-0.02  -0.06  53.5501750439
-0.02  -0.04  46.5554594602
-0.02  -0.02  41.7522835076
-0.02  6.17561557e-16  40.0149037722
-0.02  0.02  41.7522835076
-0.02  0.04  46.5554594602
-0.02  0.06  53.5501750439
-0.02  0.08  61.918548499
-0.02  0.1  71.0809231799
-0.02  0.12  80.659962507
-0.02  0.14  90.4090142174
-0.02  0.16  100.159938593
-0.02  0.18  109.791714581
-0.02  0.2  260.294586538
-0.02  0.22  206.777680798
-0.02  0.24  164.263920525
-0.02  0.26  130.491044692
-0.02  0.28  103.661916082
-0.02  0.3  82.3488912295
-0.02  0.32  65.4178520237
-0.02  0.34  51.9678565128
-0.02  0.36  41.2831975827
-0.02  0.38  32.7953184337
-0.02  0.4  26.0525582838
-0.02  0.42  20.6961183958
-0.02  0.44  16.4409695197
-0.02  0.46  13.0606847901
-0.02  0.48  10.3753910001
-0.02  0.5  8.24219710791
-0.02  0.52  6.54759065611
-0.02  0.54  5.20139749617
-0.02  0.56  4.13198340185
-0.02  0.58  3.28244223706
-0.02  0.6  2.60756784134
-0.02  0.62  2.07144849967
-0.02  0.64  1.64555599235
-0.02  0.66  1.30722753879
-0.02  0.68  1.03845985559
-0.02  0.7  0.824951157828
-0.02  0.72  0.655340126185
-0.02  0.74  0.520601343381
-0.02  0.76  0.41356502967
-0.02  0.78  0.328535521356
-0.02  0.8  0.260988190608
-0.02  0.82  0.207328678969
-0.02  0.84  0.164701632755
-0.02  0.86  0.130838762718
-0.02  0.88  0.103938142829
-0.02  0.9  0.0825683253981
-0.02  0.92  0.0655921702417
-0.02  0.94  0.0521063346782
-0.02  0.96  0.0413932044571
-0.02  0.98  0.0328827077516
2.8449465e-16  -1  0.0287894675568
2.8449465e-16  -0.98  0.0362405774425
2.8449465e-16  -0.96  0.0456201369746
2.8449465e-16  -0.94  0.0574272554262
2.8449465e-16  -0.92  0.0722902184099
2.8449465e-16  -0.9  0.0909999204901
2.8449465e-16  -0.88  0.114551950615
2.8449465e-16  -0.86  0.144199569834
2.8449465e-16  -0.84  0.181520400384
2.8449465e-16  -0.82  0.228500374817
2.8449465e-16  -0.8  0.287639412326
2.8449465e-16  -0.78  0.362084445547
2.8449465e-16  -0.76  0.455796876539
2.8449465e-16  -0.74  0.573763372653
2.8449465e-16  -0.72  0.722261219291
2.8449465e-16  -0.7  0.909192349591
2.8449465e-16  -0.68  1.14450382559
2.8449465e-16  -0.66  1.4407171457
2.8449465e-16  -0.64  1.8135945442
2.8449465e-16  -0.62  2.28297773826
2.8449465e-16  -0.6  2.87384375414
2.8449465e-16  -0.58  3.61763401577
2.8449465e-16  -0.56  4.55392741977
2.8449465e-16  -0.54  5.73254642512
2.8449465e-16  -0.52  7.21620822797
2.8449465e-16  -0.5  9.08386209684
2.8449465e-16  -0.48  11.434890456
2.8449465e-16  -0.46  14.3943972669
2.8449465e-16  -0.44  18.119865116
2.8449465e-16  -0.42  22.8095352472
2.8449465e-16  -0.4  28.7129564631
2.8449465e-16  -0.38  36.1442642263
2.8449465e-16  -0.36  45.4988965743
2.8449465e-16  -0.34  57.2746363439
2.8449465e-16  -0.32  72.0980994115
2.8449465e-16  -0.3  90.7580784544
2.8449465e-16  -0.28  114.247516536
2.8449465e-16  -0.26  143.816344032
2.8449465e-16  -0.24  181.037990477
2.8449465e-16  -0.22  227.893110596
2.8449465e-16  -0.2  92.8906363636
2.8449465e-16  -0.18  86.7720574402
2.8449465e-16  -0.16  80.6162744307
2.8449465e-16  -0.14  74.5126476068
2.8449465e-16  -0.12  68.5735751417
2.8449465e-16  -0.1  62.9419957862
2.8449465e-16  -0.08  57.799372869
2.8449465e-16  -0.06  53.3704160192
2.8449465e-16  -0.04  49.9160530966
2.8449465e-16  -0.02  47.7020421503
2.8449465e-16  6.17561557e-16  46.9371759341
2.8449465e-16  0.02  47.7020421503
2.8449465e-16  0.04  49.9160530966
2.8449465e-16  0.06  53.3704160192
2.8449465e-16  0.08  57.799372869
2.8449465e-16  0.1  62.9419957862
2.8449465e-16  0.12  68.5735751417
2.8449465e-16  0.14  74.5126476068
2.8449465e-16  0.16  80.6162744307
2.8449465e-16  0.18  86.7720574402
2.8449465e-16  0.2  286.874979778
2.8449465e-16  0.22  227.893110596
2.8449465e-16  0.24  181.037990477
2.8449465e-16  0.26  143.816344032
2.8449465e-16  0.28  114.247516536
2.8449465e-16  0.3  90.7580784544
2.8449465e-16  0.32  72.0980994115
2.8449465e-16  0.34  57.2746363439
2.8449465e-16  0.36  45.4988965743
2.8449465e-16  0.38  36.1442642263
2.8449465e-16  0.4  28.7129564631
2.8449465e-16  0.42  22.8095352472
2.8449465e-16  0.44  18.119865116
2.8449465e-16  0.46  14.3943972669
2.8449465e-16  0.48  11.434890456
2.8449465e-16  0.5  9.08386209684
2.8449465e-16  0.52  7.21620822797
2.8449465e-16  0.54  5.73254642512
2.8449465e-16  0.56  4.55392741977
2.8449465e-16  0.58  3.61763401577
2.8449465e-16  0.6  2.87384375414
2.8449465e-16  0.62  2.28297773826
2.8449465e-16  0.64  1.8135945442
2.8449465e-16  0.66  1.4407171457
2.8449465e-16  0.68  1.14450382559
2.8449465e-16  0.7  0.909192349591
2.8449465e-16  0.72  0.722261219291
2.8449465e-16  0.74  0.573763372653
2.8449465e-16  0.76  0.455796876539
2.8449465e-16  0.78  0.362084445547
2.8449465e-16  0.8  0.287639412326
2.8449465e-16  0.82  0.228500374817
2.8449465e-16  0.84  0.181520400384
2.8449465e-16  0.86  0.144199569834
2.8449465e-16  0.88  0.114551950615
2.8449465e-16  0.9  0.0909999204901
2.8449465e-16  0.92  0.0722902184099
2.8449465e-16  0.94  0.0574272554262
2.8449465e-16  0.96  0.0456201369746
2.8449465e-16  0.98  0.0362405774425
0.02  -1  0.0273213011092
0.02  -0.98  0.0343924293398
0.02  -0.96  0.0432936627421
0.02  -0.94  0.0544986576872
0.02  -0.92  0.0686036593254
0.02  -0.9  0.0863592292465
0.02  -0.88  0.108710184696
0.02  -0.86  0.136845874606
0.02  -0.84  0.172263467762
0.02  -0.82  0.216847620805
0.02  -0.8  0.27297076542
0.02  -0.78  0.343619351217
0.02  -0.76  0.432552762012
0.02  -0.74  0.54450336182
0.02  -0.72  0.685428315505
0.02  -0.7  0.862826584075
0.02  -0.68  1.08613796271
0.02  -0.66  1.36724539532
0.02  -0.64  1.72110729504
0.02  -0.62  2.16655351786
0.02  -0.6  2.72728734537
0.02  -0.58  3.43314679415
0.02  -0.56  4.3216923696
0.02  -0.54  5.44020575213
0.02  -0.52  6.84820577089
0.02  -0.5  8.62061554604
0.02  -0.48  10.851749331
0.02  -0.46  13.6603312041
0.02  -0.44  17.1958126671
0.02  -0.42  21.6463253244
0.02  -0.4  27.2486918251
0.02  -0.38  34.3010277751
0.02  -0.36  43.1786051962
0.02  -0.34  54.3538216671
0.02  -0.32  68.4213377527
0.02  -0.3  86.1297203449
0.02  -0.28  108.421275736
0.02  -0.26  136.482192037
0.02  -0.24  171.805659145
0.02  -0.22  216.271325027
0.02  -0.2  92.6778111473
0.02  -0.18  86.3423744727
0.02  -0.16  79.9493260568
0.02  -0.14  73.5866367817
0.02  -0.12  67.3663224818
0.02  -0.1  61.4334878489
0.02  -0.08  55.9771215598
0.02  -0.06  51.2390910588
0.02  -0.04  47.5113794593
0.02  -0.02  45.1037011059
0.02  6.17561557e-16  44.2680471903
0.02  0.02  45.1037011059
0.02  0.04  47.5113794593
0.02  0.06  51.2390910588
0.02  0.08  55.9771215598
0.02  0.1  61.4334878489
0.02  0.12  67.3663224818
0.02  0.14  73.5866367817
0.02  0.16  79.9493260568
0.02  0.18  86.3423744727
0.02  0.2  272.245316373
0.02  0.22  216.271325027
0.02  0.24  171.805659145
0.02  0.26  136.482192037
0.02  0.28  108.421275736
0.02  0.3  86.1297203449
0.02  0.32  68.4213377527
0.02  0.34  54.3538216671
0.02  0.36  43.1786051962
0.02  0.38  34.3010277751
0.02  0.4  27.2486918251
0.02  0.42  21.6463253244
0.02  0.44  17.1958126671
0.02  0.46  13.6603312041
0.02  0.48  10.851749331
0.02  0.5  8.62061554604
0.02  0.52  6.84820577089
0.02  0.54  5.44020575213
0.02  0.56  4.3216923696
0.02  0.58  3.43314679415
0.02  0.6  2.72728734537
0.02  0.62  2.16655351786
0.02  0.64  1.72110729504
0.02  0.66  1.36724539532
0.02  0.68  1.08613796271
0.02  0.7  0.862826584075
0.02  0.72  0.685428315505
0.02  0.74  0.54450336182
0.02  0.76  0.432552762012
0.02  0.78  0.343619351217
0.02  0.8  0.27297076542
0.02  0.82  0.216847620805
0.02  0.84  0.172263467762
0.02  0.86  0.136845874606
0.02  0.88  0.108710184696
0.02  0.9  0.0863592292465
0.02  0.92  0.0686036593254
0.02  0.94  0.0544986576872
0.02  0.96  0.0432936627421
0.02  0.98  0.0343924293398
0.04  -1  0.0249972933326
0.04  -0.98  0.0314669364095
0.04  -0.96  0.0396110120334
0.04  -0.94  0.0498628863608
0.04  -0.92  0.0627680866658
0.04  -0.9  0.0790133301787
0.04  -0.88  0.099463065987
0.04  -0.86  0.125205474483
0.04  -0.84  0.157610372102
0.04  -0.82  0.198402102597
0.04  -0.8  0.249751293584
0.04  -0.78  0.314390360942
0.04  -0.76  0.395758907331
0.04  -0.74  0.498186751853
0.04  -0.72  0.627124330304
0.04  -0.7  0.789432726175
0.04  -0.68  0.993748765661
0.04  -0.66  1.25094460428
0.04  -0.64  1.57470626084
0.04  -0.62  1.98226188388
0.04  -0.6  2.49529850361
0.04  -0.58  3.14111605169
0.04  -0.56  3.95408005732
0.04  -0.54  4.97745032098
0.04  -0.52  6.26568287405
0.04  -0.5  7.88732771731
0.04  -0.48  9.92867653387
0.04  -0.46  12.4983544804
0.04  -0.44  15.7331003972
0.04  -0.42  19.8050430155
0.04  -0.4  24.9308603481
0.04  -0.38  31.3833096556
0.04  -0.36  39.5057415262
0.04  -0.34  49.7303703996
0.04  -0.32  62.6012737525
0.04  -0.3  78.8033437906
0.04  -0.28  99.1987322357
0.04  -0.26  124.872727524
0.04  -0.24  157.191505657
0.04  -0.22  197.874827758
0.04  -0.2  92.3627953692
0.04  -0.18  85.704247067
0.04  -0.16  78.9546490097
0.04  -0.14  72.1981913159
0.04  -0.12  65.5438583379
0.04  -0.1  59.136733993
0.04  -0.08  53.1735838327
0.04  -0.06  47.9204644785
0.04  -0.04  43.7212017802
0.04  -0.02  40.968664089
0.04  6.17561557e-16  40.0044568894
0.04  0.02  40.968664089
0.04  0.04  43.7212017802
0.04  0.06  47.9204644785
0.04  0.08  53.1735838327
0.04  0.1  59.136733993
0.04  0.12  65.5438583379
0.04  0.14  72.1981913159
0.04  0.16  78.9546490097
0.04  0.18  85.704247067
0.04  0.2  249.087552771
0.04  0.22  197.874827758
0.04  0.24  157.191505657
0.04  0.26  124.872727524
0.04  0.28  99.1987322357
0.04  0.3  78.8033437906
0.04  0.32  62.6012737525
0.04  0.34  49.7303703996
0.04  0.36  39.5057415262
0.04  0.38  31.3833096556
0.04  0.4  24.9308603481
0.04  0.42  19.8050430155
0.04  0.44  15.7331003972
0.04  0.46  12.4983544804
0.04  0.48  9.92867653387
0.04  0.5  7.88732771731
0.04  0.52  6.26568287405
0.04  0.54  4.97745032098
0.04  0.56  3.95408005732
0.04  0.58  3.14111605169
0.04  0.6  2.49529850361
0.04  0.62  1.98226188388
0.04  0.64  1.57470626084
0.04  0.66  1.25094460428
0.04  0.68  0.993748765661
0.04  0.7  0.789432726174
0.04  0.72  0.627124330304
0.04  0.74  0.498186751853
0.04  0.76  0.395758907331
0.04  0.78  0.314390360942
0.04  0.8  0.249751293584
0.04  0.82  0.198402102597
0.04  0.84  0.157610372102
0.04  0.86  0.125205474483
0.04  0.88  0.099463065987
0.04  0.9  0.0790133301786
0.04  0.92  0.0627680866658
0.04  0.94  0.0498628863608
0.04  0.96  0.0396110120334
0.04  0.98  0.0314669364095
0.06  -1  0.021941443689
0.06  -0.98  0.0276201908786
0.06  -0.96  0.0347686758894
0.06  -0.94  0.0437672870698
0.06  -0.92  0.0550948625004
0.06  -0.9  0.0693541701386
0.06  -0.88  0.0873039825732
0.06  -0.86  0.109899453168
0.06  -0.84  0.138342942104
0.06  -0.82  0.174147996904
0.06  -0.8  0.219219891991
0.06  -0.78  0.275957012993
0.06  -0.76  0.347378480705
0.06  -0.74  0.437284805876
0.06  -0.72  0.550460123673
0.06  -0.7  0.692926769195
0.06  -0.68  0.872265740639
0.06  -0.66  1.09802010272
0.06  -0.64  1.38220279648
0.06  -0.62  1.73993587719
0.06  -0.6  2.19025519586
0.06  -0.58  2.75712334338
0.06  -0.56  3.47070475851
0.06  -0.54  4.36897085133
0.06  -0.52  5.49972055473
0.06  -0.5  6.92312382238
0.06  -0.48  8.71492341893
0.06  -0.46  10.9704653775
0.06  -0.44  13.8097725952
0.06  -0.42  17.3839315441
0.06  -0.4  21.8831319522
0.06  -0.38  27.5467872629
0.06  -0.36  34.6762744092
0.06  -0.34  43.6509708165
0.06  -0.32  54.9484420022
0.06  -0.3  69.1698540029
0.06  -0.28  87.0719628884
0.06  -0.26  109.6073836
0.06  -0.24  137.975280918
0.06  -0.22  173.685179949
0.06  -0.2  91.9897858941
0.06  -0.18  84.9452883171
0.06  -0.16  77.7648777244
0.06  -0.14  70.5251140521
0.06  -0.12  63.3265100843
0.06  -0.1  56.3069447364
0.06  -0.08  49.6632033748
0.06  -0.06  43.6825424127
0.06  -0.04  38.7765325209
0.06  -0.02  35.4762362886
0.06  6.17561557e-16  34.2999724748
0.06  0.02  35.4762362886
0.06  0.04  38.7765325208
0.06  0.06  43.6825424127
0.06  0.08  49.6632033748
0.06  0.1  56.3069447364
0.06  0.12  63.3265100843
0.06  0.14  70.5251140521
0.06  0.16  77.7648777244
0.06  0.18  84.9452883171
0.06  0.2  218.637291647
0.06  0.22  173.685179949
0.06  0.24  137.975280918
0.06  0.26  109.6073836
0.06  0.28  87.0719628884
0.06  0.3  69.1698540029
0.06  0.32  54.9484420022
0.06  0.34  43.6509708165
0.06  0.36  34.6762744092
0.06  0.38  27.5467872629
0.06  0.4  21.8831319522
0.06  0.42  17.3839315441
0.06  0.44  13.8097725952
0.06  0.46  10.9704653775
0.06  0.48  8.71492341893
0.06  0.5  6.92312382238
0.06  0.52  5.49972055473
0.06  0.54  4.36897085133
0.06  0.56  3.47070475851
0.06  0.58  2.75712334338
0.06  0.6  2.19025519586
0.06  0.62  1.73993587719
0.06  0.64  1.38220279648
0.06  0.66  1.09802010272
0.06  0.68  0.872265740639
0.06  0.7  0.692926769195
0.06  0.72  0.550460123673
0.06  0.74  0.437284805876
0.06  0.76  0.347378480705
0.06  0.78  0.275957012993
0.06  0.8  0.219219891991
0.06  0.82  0.174147996904
0.06  0.84  0.138342942104
0.06  0.86  0.109899453168
0.06  0.88  0.0873039825732
0.06  0.9  0.0693541701386
0.06  0.92  0.0550948625004
0.06  0.94  0.0437672870698
0.06  0.96  0.0347686758894
0.06  0.98  0.0276201908786
0.08  -1  0.0183472013017
0.08  -0.98  0.0230957091623
0.08  -0.96  0.0290731961206
0.08  -0.94  0.0365977388582
0.08  -0.92  0.0460697366735
0.08  -0.9  0.0579932177064
0.08  -0.88  0.0730026595067
0.08  -0.86  0.0918967511346
0.08  -0.84  0.115680893356
0.08  -0.82  0.145620698473
0.08  -0.8  0.183309336647
0.08  -0.78  0.230752312372
0.08  -0.76  0.29047418227
0.08  -0.74  0.365652892914
0.08  -0.72  0.460288887129
0.08  -0.7  0.579417977322
0.08  -0.68  0.729379313365
0.08  -0.66  0.918152704243
0.08  -0.64  1.15578324318
0.08  -0.62  1.45491583158
0.08  -0.6  1.83146804514
0.08  -0.58  2.30547714689
0.08  -0.56  2.90216631895
0.08  -0.54  3.65328684963
0.08  -0.52  4.59880769703
0.08  -0.5  5.78904233498
0.08  -0.48  7.28732605578
0.08  -0.46  9.17338619593
0.08  -0.44  11.5475846223
0.08  -0.42  14.5362582324
0.08  -0.4  18.2984416491
0.08  -0.38  23.0343298414
0.08  -0.36  28.9959309879
0.08  -0.34  36.5004764472
0.08  -0.32  45.9473014137
0.08  -0.3  57.8390945187
0.08  -0.28  72.8086471198
0.08  -0.26  91.6525256754
0.08  -0.24  115.373458991
0.08  -0.22  145.233695869
0.08  -0.2  91.6116746469
0.08  -0.18  84.1721422488
0.08  -0.16  76.5449909185
0.08  -0.14  68.7948024172
0.08  -0.12  61.0062969524
0.08  -0.1  53.2979534579
0.08  -0.08  45.8474754759
0.08  -0.06  38.9390782133
0.08  -0.04  33.0424109249
0.08  -0.02  28.8909444015
0.08  6.17561557e-16  27.3600600035
0.08  0.02  28.8909444015
0.08  0.04  33.0424109249
0.08  0.06  38.9390782133
0.08  0.08  45.8474754759
0.08  0.1  53.2979534579
0.08  0.12  61.0062969524
0.08  0.14  68.7948024172
0.08  0.16  76.5449909185
0.08  0.18  84.1721422488
0.08  0.2  182.82217245
0.08  0.22  145.233695869
0.08  0.24  115.373458991
0.08  0.26  91.6525256754
0.08  0.28  72.8086471198
0.08  0.3  57.8390945187
0.08  0.32  45.9473014137
0.08  0.34  36.5004764472
0.08  0.36  28.9959309879
0.08  0.38  23.0343298414
0.08  0.4  18.2984416491
0.08  0.42  14.5362582324
0.08  0.44  11.5475846223
0.08  0.46  9.17338619593
0.08  0.48  7.28732605578
0.08  0.5  5.78904233498
0.08  0.52  4.59880769703
0.08  0.54  3.65328684963
0.08  0.56  2.90216631895
0.08  0.58  2.30547714689
0.08  0.6  1.83146804514
0.08  0.62  1.45491583158
0.08  0.64  1.15578324318
0.08  0.66  0.918152704243
0.08  0.68  0.729379313365
0.08  0.7  0.579417977322
0.08  0.72  0.460288887129
0.08  0.74  0.365652892914
0.08  0.76  0.29047418227
0.08  0.78  0.230752312372
0.08  0.8  0.183309336647
0.08  0.82  0.145620698473
0.08  0.84  0.115680893356
0.08  0.86  0.0918967511346
0.08  0.88  0.0730026595067
0.08  0.9  0.0579932177064
0.08  0.92  0.0460697366735
0.08  0.94  0.0365977388582
0.08  0.96  0.0290731961206
0.08  0.98  0.0230957091623
