0.12  -0.76  0.299738123774
0.12  -0.74  0.36926360487
0.12  -0.72  0.454915805053
0.12  -0.7  0.560435382631
0.12  -0.68  0.690430656873
0.12  -0.66  0.85057886551
0.12  -0.64  1.04787410473
0.12  -0.62  1.2909327799
0.12  -0.6  1.59036990673
0.12  -0.58  1.95926269719
0.12  -0.56  2.41372167592
0.12  -0.54  2.97359426949
0.12  -0.52  3.66333159609
0.12  -0.5  4.51305631054
0.12  -0.48  5.55987814039
0.12  -0.46  6.84951456594
0.12  -0.44  8.43828742365
0.12  -0.42  10.3955826298
0.12  -0.4  12.8068804471
0.12  -0.38  15.777488634
0.12  -0.36  19.4371415135
0.12  -0.34  23.9456658142
0.12  -0.32  29.4999607265
0.12  -0.3  36.3425970118
0.12  -0.28  44.7724107095
0.12  -0.26  55.1575540981
0.12  -0.24  67.9515738794
0.12  -0.22  83.7132187637
0.12  -0.2  88.2040209494
0.12  -0.18  81.4433828669
0.12  -0.16  74.1278791497
0.12  -0.14  66.3197721955
0.12  -0.12  58.0909231984
0.12  -0.1  49.5278260259
0.12  -0.08  40.7439296183
0.12  -0.06  31.9133521052
0.12  -0.04  23.3788818551
0.12  -0.02  16.0598573983
0.12  6.17561557e-16  12.6796485813
0.12  0.02  16.0598573983
0.12  0.04  23.3788818551
0.12  0.06  31.9133521052
0.12  0.08  40.7439296183
0.12  0.1  49.5278260259
0.12  0.12  58.0909231984
0.12  0.14  66.3197721955
0.12  0.16  74.1278791497
0.12  0.18  81.4433828669
0.12  0.2  103.130841505
0.12  0.22  83.7132187637
0.12  0.24  67.9515738794
0.12  0.26  55.1575540981
0.12  0.28  44.7724107095
0.12  0.3  36.3425970118
0.12  0.32  29.4999607265
0.12  0.34  23.9456658142
0.12  0.36  19.4371415135
0.12  0.38  15.777488634
0.12  0.4  12.8068804471
0.12  0.42  10.3955826298
0.12  0.44  8.43828742365
0.12  0.46  6.84951456594
0.12  0.48  5.55987814039
0.12  0.5  4.51305631054
0.12  0.52  3.66333159609
0.12  0.54  2.97359426949
0.12  0.56  2.41372167592
0.12  0.58  1.95926269719
0.12  0.6  1.59036990673
0.12  0.62  1.2909327799
0.12  0.64  1.04787410473
0.12  0.66  0.85057886551
0.12  0.68  0.690430656873
0.12  0.7  0.560435382631
0.12  0.72  0.454915805053
0.12  0.74  0.36926360487
0.12  0.76  0.299738123774
0.12  0.78  0.243302999967
0.12  0.8  0.197493562206
0.12  0.82  0.160309191082
0.12  0.84  0.130125946682
0.12  0.86  0.105625646823
0.12  0.88  0.0857382985585
0.12  0.9  0.0695953687462
0.12  0.92  0.05649185291
0.12  0.94  0.0458554858276
0.12  0.96  0.0372217491933
0.12  0.98  0.0302135848745
0.14  -1  0.0210232192032
0.14  -0.98  0.025899640697
0.14  -0.96  0.0319071680579
0.14  -0.94  0.039308165908
0.14  -0.92  0.0484258554143
0.14  -0.9  0.0596584302125
0.14  -0.88  0.0734964465774
0.14  -0.86  0.0905442473137
0.14  -0.84  0.111546355006
0.14  -0.82  0.137419987291
0.14  -0.8  0.169295114179
0.14  -0.78  0.208563806838
0.14  -0.76  0.256941033022
0.14  -0.74  0.316539554255
0.14  -0.72  0.389962195721
0.14  -0.7  0.480415518527
0.14  -0.68  0.591849858714
0.14  -0.66  0.729131848892
0.14  -0.64  0.898256956964
0.14  -0.62  1.10661132409
0.14  -0.6  1.36329433699
0.14  -0.58  1.67951602232
0.14  -0.56  2.06908661811
0.14  -0.54  2.5490197035
0.14  -0.52  3.14027522675
0.14  -0.5  3.86867488164
0.14  -0.48  4.76602980922
0.14  -0.46  5.87152987452
0.14  -0.44  7.23345519172
0.14  -0.42  8.91128464451
0.14  -0.4  10.9782934864
0.14  -0.38  13.524753465
0.14  -0.36  16.6618752283
0.14  -0.34  20.5266651877
0.14  -0.32  25.2879089511
0.14  -0.3  31.1535426369
0.14  -0.28  38.3797339949
0.14  -0.26  47.2820699299
0.14  -0.24  58.249339017
0.14  -0.22  71.7605109283
0.14  -0.2  88.0975419093
0.14  -0.18  81.1993683018
0.14  -0.16  73.7190730859
0.14  -0.14  65.7105305089
0.14  -0.12  57.2315319214
0.14  -0.1  48.3434948086
0.14  -0.08  39.111329568
0.14  -0.06  29.603890315
0.14  -0.04  19.8971162078
0.14  -0.02  10.098435236
0.14  6.17561557e-16  1.74967497473
0.14  0.02  10.098435236
0.14  0.04  19.8971162078
0.14  0.06  29.603890315
0.14  0.08  39.111329568
0.14  0.1  48.3434948086
0.14  0.12  57.2315319214
0.14  0.14  65.7105305089
0.14  0.16  73.7190730859
0.14  0.18  81.1993683018
0.14  0.2  88.4056543061
0.14  0.22  71.7605109283
0.14  0.24  58.249339017
0.14  0.26  47.2820699299
0.14  0.28  38.3797339949
0.14  0.3  31.1535426369
0.14  0.32  25.2879089511
0.14  0.34  20.5266651877
0.14  0.36  16.6618752283
0.14  0.38  13.524753465
0.14  0.4  10.9782934864
0.14  0.42  8.91128464451
0.14  0.44  7.23345519172
0.14  0.46  5.87152987452
0.14  0.48  4.76602980922
0.14  0.5  3.86867488164
0.14  0.52  3.14027522675
0.14  0.54  2.5490197035
0.14  0.56  2.06908661811
0.14  0.58  1.67951602232
0.14  0.6  1.36329433699
0.14  0.62  1.10661132409
0.14  0.64  0.898256956964
0.14  0.66  0.729131848892
0.14  0.68  0.591849858714
0.14  0.7  0.480415518527
0.14  0.72  0.389962195721
0.14  0.74  0.316539554255
0.14  0.76  0.256941033022
0.14  0.78  0.208563806838
0.14  0.8  0.169295114179
0.14  0.82  0.137419987291
0.14  0.84  0.111546355006
0.14  0.86  0.0905442473137
0.14  0.88  0.0734964465774
0.14  0.9  0.0596584302125
0.14  0.92  0.0484258554143
0.14  0.94  0.039308165908
0.14  0.96  0.0319071680579
0.14  0.98  0.025899640697
0.16  -1  0.0229185651462
0.16  -0.98  0.0282346198667
0.16  -0.96  0.0347837551756
0.16  -0.94  0.0428519891475
0.16  -0.92  0.0527916829172
0.16  -0.9  0.0650369292224
0.16  -0.88  0.0801225103833
0.16  -0.86  0.0987072536616
0.16  -0.84  0.121602803991
0.16  -0.82  0.14980907066
0.16  -0.8  0.184557895999
0.16  -0.78  0.22736685319
0.16  -0.76  0.280105522714
0.16  -0.74  0.34507714187
0.16  -0.72  0.425119193251
0.16  -0.7  0.523727325116
0.16  -0.68  0.645208015604
0.16  -0.66  0.794866648037
0.16  -0.64  0.979239211048
0.16  -0.62  1.20637774251
0.16  -0.6  1.48620198333
0.16  -0.58  1.83093259883
0.16  -0.56  2.25562488751
0.16  -0.54  2.77882628579
0.16  -0.52  3.42338638368
0.16  -0.5  4.21745482685
0.16  -0.48  5.19571068615
0.16  -0.46  6.40087698447
0.16  -0.44  7.88558652418
0.16  -0.42  9.714680501
0.16  -0.4  11.9680402906
0.16  -0.38  14.7440760798
0.16  -0.36  18.1640246998
0.16  -0.34  22.3772443597
0.16  -0.32  27.5677375147
0.16  -0.3  33.9621867402
0.16  -0.28  41.8398545606
0.16  -0.26  51.5447795821
0.16  -0.24  63.50080157
0.16  -0.22  78.2300716527
0.16  -0.2  88.1531585691
0.16  -0.18  81.3268777663
0.16  -0.16  73.9328230946
0.16  -0.14  66.029362132
0.16  -0.12  57.6818812927
0.16  -0.1  48.9654958658
0.16  -0.08  39.9721508972
0.16  -0.06  30.8314209571
0.16  -0.04  21.7847383344
0.16  -0.02  13.5427683934
0.16  6.17561557e-16  9.24200064218
0.16  0.02  13.5427683934
0.16  0.04  21.7847383344
0.16  0.06  30.8314209571
0.16  0.08  39.9721508972
0.16  0.1  48.9654958658
0.16  0.12  57.6818812927
0.16  0.14  66.029362132
0.16  0.16  73.9328230946
0.16  0.18  81.3268777663
0.16  0.2  96.375856044
0.16  0.22  78.2300716527
0.16  0.24  63.50080157
0.16  0.26  51.5447795821
0.16  0.28  41.8398545606
0.16  0.3  33.9621867402
0.16  0.32  27.5677375147
0.16  0.34  22.3772443597
0.16  0.36  18.1640246998
0.16  0.38  14.7440760798
0.16  0.4  11.9680402906
0.16  0.42  9.714680501
0.16  0.44  7.88558652418
0.16  0.46  6.40087698447
0.16  0.48  5.19571068615
0.16  0.5  4.21745482685
0.16  0.52  3.42338638368
0.16  0.54  2.77882628579
0.16  0.56  2.25562488751
0.16  0.58  1.83093259883
0.16  0.6  1.48620198333
0.16  0.62  1.20637774251
0.16  0.64  0.979239211048
0.16  0.66  0.794866648037
0.16  0.68  0.645208015604
0.16  0.7  0.523727325116
0.16  0.72  0.425119193251
0.16  0.74  0.34507714187
0.16  0.76  0.280105522714
0.16  0.78  0.22736685319
0.16  0.8  0.184557895999
0.16  0.82  0.14980907066
0.16  0.84  0.121602803991
0.16  0.86  0.0987072536616
0.16  0.88  0.0801225103833
0.16  0.9  0.0650369292224
0.16  0.92  0.0527916829172
0.16  0.94  0.0428519891475
0.16  0.96  0.0347837551756
0.16  0.98  0.0282346198667
0.18  -1  0.0289772702657
0.18  -0.98  0.0356986663654
0.18  -0.96  0.0439791177218
0.18  -0.94  0.0541802535643
0.18  -0.92  0.0667475844982
0.18  -0.9  0.0822299591318
0.18  -0.88  0.101303533748
0.18  -0.86  0.12480130184
0.18  -0.84  0.153749473138
0.18  -0.82  0.189412290913
0.18  -0.8  0.233347244817
0.18  -0.78  0.287473090586
0.18  -0.76  0.354153647178
0.18  -0.74  0.436301031008
0.18  -0.72  0.537502835775
0.18  -0.7  0.662178812182
0.18  -0.68  0.815773890142
0.18  -0.66  1.00499597328
0.18  -0.64  1.23810889086
0.18  -0.62  1.52529330105
0.18  -0.6  1.87909130723
0.18  -0.58  2.31495420487
0.18  -0.56  2.85191728044
0.18  -0.54  3.51343113285
0.18  -0.52  4.32838582307
0.18  -0.5  5.33237257968
0.18  -0.48  6.56923816194
0.18  -0.46  8.09299976388
0.18  -0.44  9.97020408814
0.18  -0.42  12.2828336166
0.18  -0.4  15.1318870025
0.18  -0.38  18.6417899488
0.18  -0.36  22.965829208
0.18  -0.34  28.2928470206
0.18  -0.32  34.8554883554
0.18  -0.3  42.9403611312
0.18  -0.28  52.9005531432
0.18  -0.26  65.1710523417
0.18  -0.24  80.2877439075
0.18  -0.22  98.910813776
0.18  -0.2  88.3628100326
0.18  -0.18  81.8064668959
0.18  -0.16  74.7342731361
0.18  -0.14  67.2194023783
0.18  -0.12  59.3512702255
0.18  -0.1  51.2457013451
0.18  -0.08  43.0671549934
0.18  -0.06  35.0805962435
0.18  -0.04  27.7778732634
0.18  -0.02  22.1544266796
0.18  6.17561557e-16  19.9077585731
0.18  0.02  22.1544266796
0.18  0.04  27.7778732634
0.18  0.06  35.0805962435
0.18  0.08  43.0671549934
0.18  0.1  51.2457013451
0.18  0.12  59.3512702255
0.18  0.14  67.2194023783
0.18  0.16  74.7342731361
0.18  0.18  81.8064668959
0.18  0.2  121.853580705
0.18  0.22  98.910813776
0.18  0.24  80.2877439075
0.18  0.26  65.1710523417
0.18  0.28  52.9005531432
0.18  0.3  42.9403611312
0.18  0.32  34.8554883554
0.18  0.34  28.2928470206
0.18  0.36  22.965829208
0.18  0.38  18.6417899488
0.18  0.4  15.1318870025
0.18  0.42  12.2828336166
0.18  0.44  9.97020408814
0.18  0.46  8.09299976388
0.18  0.48  6.56923816194
0.18  0.5  5.33237257968
0.18  0.52  4.32838582307
0.18  0.54  3.51343113285
0.18  0.56  2.85191728044
0.18  0.58  2.31495420487
0.18  0.6  1.87909130723
0.18  0.62  1.52529330105
0.18  0.64  1.23810889086
0.18  0.66  1.00499597328
0.18  0.68  0.815773890142
0.18  0.7  0.662178812182
0.18  0.72  0.537502835775
0.18  0.74  0.436301031008
0.18  0.76  0.354153647178
0.18  0.78  0.287473090586
0.18  0.8  0.233347244817
0.18  0.82  0.189412290913
0.18  0.84  0.153749473138
0.18  0.86  0.12480130184
0.18  0.88  0.101303533748
0.18  0.9  0.0822299591318
0.18  0.92  0.0667475844982
0.18  0.94  0.0541802535643
0.18  0.96  0.0439791177218
0.18  0.98  0.0356986663654
0.2  -1  0.0366234808293
0.2  -0.98  0.0451184466749
0.2  -0.96  0.0555838545179
0.2  -0.94  0.0684767564213
0.2  -0.92  0.0843602195396
0.2  -0.9  0.103927916751
0.2  -0.88  0.128034421191
0.2  -0.86  0.157732527719
0.2  -0.84  0.194319231259
0.2  -0.82  0.239392370002
0.2  -0.8  0.294920407228
0.2  -0.78  0.36332839931
0.2  -0.76  0.44760390434
0.2  -0.74  0.551427456706
0.2  -0.72  0.679333305767
0.2  -0.7  0.836907438525
0.2  -0.68  1.03103153447
0.2  -0.66  1.27018350672
0.2  -0.64  1.56480775495
0.2  -0.62  1.92777129998
0.2  -0.6  2.37492572061
0.2  -0.58  2.92579943401
0.2  -0.56  3.60445055346
0.2  -0.54  4.44051756977
0.2  -0.52  5.47051374265
0.2  -0.5  6.73942173144
0.2  -0.48  8.30265810688
0.2  -0.46  10.2284935395
0.2  -0.44  12.6010343603
0.2  -0.42  15.5238957073
0.2  -0.4  19.1247266726
0.2  -0.38  23.5607850758
0.2  -0.36  29.0258053301
0.2  -0.34  35.7584593361
0.2  -0.32  44.052779916
0.2  -0.3  54.2710020051
0.2  -0.28  66.8593824102
0.2  -0.26  82.3676890258
0.2  -0.24  101.473210653
0.2  -0.22  125.010335995
0.2  -0.2  88.6962414415
0.2  -0.18  82.5657894443
0.2  -0.16  75.9953323922
0.2  -0.14  69.0754458415
0.2  -0.12  61.9213488834
0.2  -0.1  54.6868508545
0.2  -0.08  47.5897410089
0.2  -0.06  40.9566481406
0.2  -0.04  35.2912348595
0.2  -0.02  31.3246465872
0.2  6.17561557e-16  29.8714725573
0.2  0.02  31.3246465872
0.2  0.04  35.2912348595
0.2  0.06  40.9566481406
0.2  0.08  47.589741009
0.2  0.1  54.6868508545
0.2  0.12  61.9213488834
0.2  0.14  69.0754458415
0.2  0.16  75.9953323923
0.2  0.18  82.5657894443
0.2  0.2  154.006993619
0.2  0.22  125.010335995
0.2  0.24  101.473210653
0.2  0.26  82.3676890258
0.2  0.28  66.8593824102
0.2  0.3  54.2710020051
0.2  0.32  44.052779916
0.2  0.34  35.7584593361
0.2  0.36  29.0258053301
0.2  0.38  23.5607850758
0.2  0.4  19.1247266726
0.2  0.42  15.5238957073
0.2  0.44  12.6010343603
0.2  0.46  10.2284935395
0.2  0.48  8.30265810688
0.2  0.5  6.73942173144
0.2  0.52  5.47051374265
0.2  0.54  4.44051756977
0.2  0.56  3.60445055346
0.2  0.58  2.92579943401
0.2  0.6  2.37492572061
0.2  0.62  1.92777129998
0.2  0.64  1.56480775495
0.2  0.66  1.27018350672
0.2  0.68  1.03103153447
0.2  0.7  0.836907438525
0.2  0.72  0.679333305767
0.2  0.74  0.551427456706
0.2  0.76  0.44760390434
0.2  0.78  0.36332839931
0.2  0.8  0.294920407228
0.2  0.82  0.239392370002
0.2  0.84  0.194319231259
0.2  0.86  0.157732527719
0.2  0.88  0.128034421191
0.2  0.9  0.103927916751
0.2  0.92  0.0843602195396
0.2  0.94  0.0684767564213
0.2  0.96  0.0555838545179
0.2  0.98  0.0451184466749
0.22  -1  0.0442709940108
0.22  -0.98  0.0545398317498
0.22  -0.96  0.0671905683113
0.22  -0.94  0.0827756948483
0.22  -0.92  0.101975855091
0.22  -0.9  0.125629570862
0.22  -0.88  0.154769862541
0.22  -0.86  0.190669363802
0.22  -0.84  0.234895900893
0.22  -0.82  0.289380963759
0.22  -0.8  0.35650405932
0.22  -0.78  0.439196630838
0.22  -0.76  0.541070081804
0.22  -0.74  0.666573495486
0.22  -0.72  0.821187938174
0.22  -0.7  1.01166583185
0.22  -0.68  1.24632585035
0.22  -0.66  1.53541621782
0.22  -0.64  1.89156227586
0.22  -0.62  2.33031786557
0.22  -0.6  2.87084460495
0.22  -0.58  3.53674872751
0.22  -0.56  4.35711202899
0.22  -0.54  5.36776194629
0.22  -0.52  6.61283623656
0.22  -0.5  8.14671058985
0.22  -0.48  10.0363733594
0.22  -0.46  12.3643511204
0.22  -0.44  15.232312824
0.22  -0.42  18.7655099494
0.22  -0.4  23.1182465677
0.22  -0.38  28.4806182089
0.22  -0.36  35.0868138372
0.22  -0.34  43.2253435025
0.22  -0.32  53.2516383386
0.22  -0.3  65.603573181
0.22  -0.28  80.8205897207
0.22  -0.26  99.5672553502
0.22  -0.24  122.662286581
0.22  -0.22  151.114304561
0.22  -0.2  89.105758529
0.22  -0.18  83.4927847555
0.22  -0.16  77.5224044346
0.22  -0.14  71.2980720301
0.22  -0.12  64.9512289435
0.22  -0.1  58.6535764709
0.22  -0.08  52.6351471242
0.22  -0.06  47.2070269062
0.22  -0.04  42.7773845952
0.22  -0.02  39.8256630563
0.22  6.17561557e-16  38.7817738023
0.22  0.02  39.8256630563
0.22  0.04  42.7773845952
0.22  0.06  47.2070269062
0.22  0.08  52.6351471242
0.22  0.1  58.6535764709
0.22  0.12  64.9512289435
0.22  0.14  71.2980720301
0.22  0.16  77.5224044346
0.22  0.18  83.4927847555
0.22  0.2  186.16588423
0.22  0.22  151.114304561
0.22  0.24  122.662286581
0.22  0.26  99.5672553502
0.22  0.28  80.8205897207
0.22  0.3  65.603573181
0.22  0.32  53.2516383386
0.22  0.34  43.2253435025
0.22  0.36  35.0868138372
0.22  0.38  28.4806182089
0.22  0.4  23.1182465677
0.22  0.42  18.7655099494
0.22  0.44  15.232312824
0.22  0.46  12.3643511204
0.22  0.48  10.0363733594
0.22  0.5  8.14671058985
0.22  0.52  6.61283623656
0.22  0.54  5.36776194629
0.22  0.56  4.35711202899
0.22  0.58  3.53674872751
0.22  0.6  2.87084460495
0.22  0.62  2.33031786557
0.22  0.64  1.89156227586
0.22  0.66  1.53541621782
0.22  0.68  1.24632585035
0.22  0.7  1.01166583185
0.22  0.72  0.821187938174
0.22  0.74  0.666573495486
0.22  0.76  0.541070081804
0.22  0.78  0.439196630838
0.22  0.8  0.35650405932
0.22  0.82  0.289380963759
0.22  0.84  0.234895900893
0.22  0.86  0.190669363802
0.22  0.88  0.154769862541
0.22  0.9  0.125629570862
0.22  0.92  0.101975855091
0.22  0.94  0.0827756948483
0.22  0.96  0.0671905683113
0.22  0.98  0.0545398317498
0.24  -1  0.0510794581228
0.24  -0.98  0.0629275468992
0.24  -0.96  0.0775238482214
0.24  -0.94  0.0955058212055
0.24  -0.92  0.117658786211
0.24  -0.9  0.14495022186
0.24  -0.88  0.178572017389
0.24  -0.86  0.219992525608
0.24  -0.84  0.271020689753
0.24  -0.82  0.333885044827
0.24  -0.8  0.411331043622
0.24  -0.78  0.506740957908
0.24  -0.76  0.624281591199
0.24  -0.74  0.769086254086
0.24  -0.72  0.947478949505
0.24  -0.7  1.16725055868
0.24  -0.68  1.43799908953
0.24  -0.66  1.77154884709
0.24  -0.64  2.18246683219
0.24  -0.62  2.68869892097
0.24  -0.6  3.31235360877
0.24  -0.58  4.08066754665
0.24  -0.56  5.02719503806
0.24  -0.54  6.19327344405
0.24  -0.52  7.62982849529
0.24  -0.5  9.39959835352
0.24  -0.48  11.5798735531
0.24  -0.46  14.2658724834
0.24  -0.44  17.5748998276
0.24  -0.42  21.651469569
0.24  -0.4  26.6736162992
0.24  -0.38  32.8606704598
0.24  -0.36  40.4828370834
0.24  -0.34  49.8729963628
0.24  -0.32  61.4412414102
0.24  -0.3  75.6927881083
0.24  -0.28  93.2500392264
0.24  -0.26  114.879766396
0.24  -0.24  141.526597057
0.24  -0.22  174.35426884
0.24  -0.2  89.5334835116
0.24  -0.18  84.4546148763
0.24  -0.16  79.0931864039
0.24  -0.14  73.558272212
0.24  -0.12  67.9856820689
0.24  -0.1  62.5462486264
0.24  -0.08  57.4552370142
0.24  -0.06  52.9789671287
0.24  -0.04  49.4287100123
0.24  -0.02  47.1253745873
0.24  6.17561557e-16  46.3244419487
0.24  0.02  47.1253745873
0.24  0.04  49.4287100123
0.24  0.06  52.9789671287
0.24  0.08  57.4552370142
0.24  0.1  62.5462486264
0.24  0.12  67.9856820689
0.24  0.14  73.558272212
0.24  0.16  79.0931864039
0.24  0.18  84.4546148763
0.24  0.2  214.79645307
0.24  0.22  174.35426884
0.24  0.24  141.526597057
0.24  0.26  114.879766396
0.24  0.28  93.2500392264
0.24  0.3  75.6927881083
0.24  0.32  61.4412414102
0.24  0.34  49.8729963628
0.24  0.36  40.4828370834
0.24  0.38  32.8606704598
0.24  0.4  26.6736162992
0.24  0.42  21.651469569
0.24  0.44  17.5748998276
0.24  0.46  14.2658724834
0.24  0.48  11.5798735531
0.24  0.5  9.39959835352
0.24  0.52  7.62982849529
0.24  0.54  6.19327344405
0.24  0.56  5.02719503806
0.24  0.58  4.08066754665
0.24  0.6  3.31235360877
0.24  0.62  2.68869892097
0.24  0.64  2.18246683219
0.24  0.66  1.77154884709
0.24  0.68  1.43799908953
0.24  0.7  1.16725055868
0.24  0.72  0.947478949505
0.24  0.74  0.769086254086
0.24  0.76  0.624281591199
0.24  0.78  0.506740957908
0.24  0.8  0.411331043622
0.24  0.82  0.333885044827
0.24  0.84  0.271020689753
0.24  0.86  0.219992525608
0.24  0.88  0.178572017389
0.24  0.9  0.14495022186
0.24  0.92  0.117658786211
0.24  0.94  0.0955058212055
0.24  0.96  0.0775238482214
0.24  0.98  0.0629275468992
0.26  -1  0.0565515935512
0.26  -0.98  0.0696689664729
0.26  -0.96  0.0858289675782
0.26  -0.94  0.105737346892
0.26  -0.92  0.130263556037
0.26  -0.9  0.16047871949
0.26  -0.88  0.197702413419
0.26  -0.86  0.243560295072
0.26  -0.84  0.300055099528
0.26  -0.82  0.369654104444
0.26  -0.8  0.455396882597
0.26  -0.78  0.561028048074
0.26  -0.76  0.691160793485
0.26  -0.74  0.851478360289
0.26  -0.72  1.048982241
0.26  -0.7  1.29229795289
0.26  -0.68  1.59205173717
0.26  -0.66  1.96133463506
0.26  -0.64  2.41627420824
0.26  -0.62  2.9767388721
0.26  -0.6  3.66720560211
0.26  -0.58  4.51782890806
0.26  -0.56  5.56575776139
0.26  -0.54  6.85675798903
0.26  -0.52  8.44721098828
0.26  -0.5  10.4065760517
0.26  -0.48  12.820423838
0.26  -0.46  15.7941734697
0.26  -0.44  19.457696465
0.26  -0.42  23.9709885705
0.26  -0.4  29.5311571995
0.26  -0.38  36.3810296341
0.26  -0.36  44.8197579354
0.26  -0.34  55.2158837063
0.26  -0.32  68.0234332782
0.26  -0.3  83.8017462433
0.26  -0.28  103.239903295
0.26  -0.26  127.186820205
0.26  -0.24  156.688322225
0.26  -0.22  193.032818039
0.26  -0.2  89.9197727888
0.26  -0.18  85.317845673
0.26  -0.16  80.4917477583
0.26  -0.14  75.5503404376
0.26  -0.12  70.6259550703
0.26  -0.1  65.8791421347
0.26  -0.08  61.5022559221
0.26  -0.06  57.7182710727
0.26  -0.04  54.7686177627
0.26  -0.02  52.8832908776
0.26  6.17561557e-16  52.2334860014
0.26  0.02  52.8832908776
0.26  0.04  54.7686177627
0.26  0.06  57.7182710727
0.26  0.08  61.5022559221
0.26  0.1  65.8791421347
0.26  0.12  70.6259550703
0.26  0.14  75.5503404376
0.26  0.16  80.4917477583
0.26  0.18  85.317845673
0.26  0.2  237.807567986
0.26  0.22  193.032818039
0.26  0.24  156.688322225
0.26  0.26  127.186820205
0.26  0.28  103.239903295
0.26  0.3  83.8017462433
0.26  0.32  68.0234332782
0.26  0.34  55.2158837063
0.26  0.36  44.8197579354
0.26  0.38  36.3810296341
0.26  0.4  29.5311571995
0.26  0.42  23.9709885705
0.26  0.44  19.457696465
0.26  0.46  15.7941734697
0.26  0.48  12.820423838
0.26  0.5  10.4065760517
0.26  0.52  8.44721098828
0.26  0.54  6.85675798903
0.26  0.56  5.56575776139
0.26  0.58  4.51782890806
0.26  0.6  3.66720560211
0.26  0.62  2.9767388721
0.26  0.64  2.41627420824
0.26  0.66  1.96133463506
0.26  0.68  1.59205173717
0.26  0.7  1.29229795289
0.26  0.72  1.048982241
0.26  0.74  0.851478360289
0.26  0.76  0.691160793485
0.26  0.78  0.561028048074
0.26  0.8  0.455396882597
0.26  0.82  0.369654104444
0.26  0.84  0.300055099528
0.26  0.86  0.243560295072
0.26  0.88  0.197702413419
0.26  0.9  0.16047871949
0.26  0.92  0.130263556037
0.26  0.94  0.105737346892
0.26  0.96  0.0858289675782
0.26  0.98  0.0696689664729
0.28  -1  0.0603695988186
0.28  -0.98  0.0743725736441
0.28  -0.96  0.091623595629
0.28  -0.94  0.112876062568
0.28  -0.92  0.139058125949
0.28  -0.9  0.171313225785
0.28  -0.88  0.211050027667
0.28  -0.86  0.260003942918
0.28  -0.84  0.320312918602
0.28  -0.82  0.394610807328
0.28  -0.8  0.486142394568
0.28  -0.78  0.598905107025
0.28  -0.76  0.737823590843
0.28  -0.74  0.908964783933
0.28  -0.72  1.11980287522
0.28  -0.7  1.37954572225
0.28  -0.68  1.69953698271
0.28  -0.66  2.09375152197
0.28  -0.64  2.57940573248
0.28  -0.62  3.17770941917
0.28  -0.6  3.91479208776
0.28  -0.58  4.82284408951
0.28  -0.56  5.941522459
0.28  -0.54  7.31968284181
0.28  -0.52  9.01751314996
0.28  -0.5  11.1091621272
0.28  -0.48  13.6859776212
0.28  -0.46  16.8604959854
0.28  -0.44  20.7713568401
0.28  -0.42  25.5893578309
0.28  -0.4  31.5249138147
0.28  -0.38  38.837246233
0.28  -0.36  47.8457039988
0.28  -0.34  58.9437103085
0.28  -0.32  72.6159444747
0.28  -0.3  89.4595091547
0.28  -0.28  110.210007404
0.28  -0.26  135.773668409
0.28  -0.24  167.266924914
0.28  -0.22  206.065170795
0.28  -0.2  90.2114552558
0.28  -0.18  85.9663490124
0.28  -0.16  81.5357944128
0.28  -0.14  77.025895361
0.28  -0.12  72.5631524968
0.28  -0.1  68.2970087683
0.28  -0.08  64.400448991
0.28  -0.06  61.0658310473
0.28  -0.04  58.4920757433
0.28  -0.02  56.8603226504
0.28  6.17561557e-16  56.3005244596
0.28  0.02  56.8603226504
0.28  0.04  58.4920757433
0.28  0.06  61.0658310473
0.28  0.08  64.400448991
0.28  0.1  68.2970087683
0.28  0.12  72.5631524968
0.28  0.14  77.025895361
0.28  0.16  81.5357944128
0.28  0.18  85.9663490124
0.28  0.2  253.862828151
0.28  0.22  206.065170795
0.28  0.24  167.266924914
0.28  0.26  135.773668409
0.28  0.28  110.210007404
0.28  0.3  89.4595091547
0.28  0.32  72.6159444747
0.28  0.34  58.9437103085
0.28  0.36  47.8457039988
0.28  0.38  38.837246233
0.28  0.4  31.5249138147
0.28  0.42  25.5893578309
0.28  0.44  20.7713568401
0.28  0.46  16.8604959854
0.28  0.48  13.6859776212
0.28  0.5  11.1091621272
0.28  0.52  9.01751314996
0.28  0.54  7.31968284181
0.28  0.56  5.941522459
0.28  0.58  4.82284408951
0.28  0.6  3.91479208776
0.28  0.62  3.17770941917
0.28  0.64  2.57940573248
0.28  0.66  2.09375152197
0.28  0.68  1.69953698271
0.28  0.7  1.37954572225
0.28  0.72  1.11980287522
0.28  0.74  0.908964783933
0.28  0.76  0.737823590843
0.28  0.78  0.598905107025
0.28  0.8  0.486142394568
0.28  0.82  0.394610807328
0.28  0.84  0.320312918602
0.28  0.86  0.260003942918
0.28  0.88  0.211050027667
0.28  0.9  0.171313225785
0.28  0.92  0.139058125949
0.28  0.94  0.112876062568
0.28  0.96  0.091623595629
0.28  0.98  0.074372573644
0.3  -1  0.0668271268917
0.3  -0.98  0.0823279517081
0.3  -0.96  0.101424256102
0.3  -0.94  0.124950026237
0.3  -0.92  0.153932694766
0.3  -0.9  0.189638011545
0.3  -0.88  0.233625322271
0.3  -0.86  0.28781566924
0.3  -0.84  0.354575688349
0.3  -0.82  0.436820966351
0.3  -0.8  0.538143372244
0.3  -0.78  0.662967923699
0.3  -0.76  0.816746039295
0.3  -0.74  1.0061936164
0.3  -0.72  1.23958433219
0.3  -0.7  1.52711097701
0.3  -0.68  1.88133060056
0.3  -0.66  2.31771291141
0.3  -0.64  2.85531588023
0.3  -0.62  3.51761805172
0.3  -0.6  4.33354391487
0.3  -0.58  5.33872711192
0.3  -0.56  6.57706665387
0.3  -0.54  8.10264410646
0.3  -0.52  9.98208547535
0.3  -0.5  12.2974709401
0.3  -0.48  15.1499195129
0.3  -0.46  18.6640051736
0.3  -0.44  22.9931973448
0.3  -0.42  28.3265633085
0.3  -0.4  34.8970252738
0.3  -0.38  42.9915327073
0.3  -0.36  52.9635941752
0.3  -0.34  65.2487159984
0.3  -0.32  80.3834219663
0.3  -0.3  99.0286847511
0.3  -0.28  121.998792333
0.3  -0.26  150.296910115
0.3  -0.24  185.158891806
0.3  -0.22  228.107252428
0.3  -0.2  135.727425159
0.3  -0.18  127.129609942
0.3  -0.16  117.980361134
0.3  -0.14  108.436496228
0.3  -0.12  98.697405038
0.3  -0.1  89.0240363861
0.3  -0.08  79.7672131047
0.3  -0.06  71.404024498
0.3  -0.04  64.5653420425
0.3  -0.02  59.9991435148
0.3  6.17561557e-16  58.3821338575
0.3  0.02  59.9991435148
0.3  0.04  64.5653420425
0.3  0.06  71.404024498
0.3  0.08  79.7672131047
0.3  0.1  89.0240363861
0.3  0.12  98.697405038
0.3  0.14  108.436496228
0.3  0.16  117.980361134
0.3  0.18  127.129609942
0.3  0.2  281.017660576
0.3  0.22  228.107252428
0.3  0.24  185.158891806
0.3  0.26  150.296910115
0.3  0.28  121.998792333
0.3  0.3  99.0286847511
0.3  0.32  80.3834219663
0.3  0.34  65.2487159984
0.3  0.36  52.9635941752
0.3  0.38  42.9915327073
0.3  0.4  34.8970252738
0.3  0.42  28.3265633085
0.3  0.44  22.9931973448
0.3  0.46  18.6640051736
0.3  0.48  15.1499195129
0.3  0.5  12.2974709401
0.3  0.52  9.98208547535
0.3  0.54  8.10264410646
0.3  0.56  6.57706665387
0.3  0.58  5.33872711192
0.3  0.6  4.33354391487
0.3  0.62  3.51761805172
0.3  0.64  2.85531588023
0.3  0.66  2.31771291141
0.3  0.68  1.88133060056
0.3  0.7  1.52711097701
0.3  0.72  1.23958433219
0.3  0.74  1.0061936164
0.3  0.76  0.816746039295
0.3  0.78  0.662967923699
0.3  0.8  0.538143372244
0.3  0.82  0.436820966351
0.3  0.84  0.354575688349
0.3  0.86  0.28781566924
0.3  0.88  0.233625322271
0.3  0.9  0.189638011545
0.3  0.92  0.153932694766
0.3  0.94  0.124950026237
0.3  0.96  0.101424256102
0.3  0.98  0.0823279517081
0.32  -1  0.0568164830083
0.32  -0.98  0.0699952981207
0.32  -0.96  0.0862309931835
0.32  -0.94  0.106232623977
0.32  -0.92  0.130873714664
0.32  -0.9  0.1612304069
0.32  -0.88  0.198628457791
0.32  -0.86  0.244701139216
0.32  -0.84  0.301460567127
0.32  -0.82  0.371385575989
0.32  -0.8  0.457529976033
0.32  -0.78  0.563655921239
0.32  -0.76  0.694398212554
0.32  -0.74  0.855466711924
0.32  -0.72  1.05389570707
0.32  -0.7  1.29835111747
0.32  -0.68  1.59950895798
0.32  -0.66  1.97052158868
0.32  -0.64  2.42759211324
0.32  -0.62  2.99068201135
0.32  -0.6  3.68438290942
0.32  -0.58  4.5389905619
0.32  -0.56  5.5918279472
0.32  -0.54  6.88887526084
0.32  -0.52  8.48677799237
0.32  -0.5  10.4553207838
0.32  -0.48  12.8804751097
0.32  -0.46  15.868153879
0.32  -0.44  19.5488369321
0.32  -0.42  24.083269441
0.32  -0.4  29.6694820761
0.32  -0.38  36.5514395303
0.32  -0.36  45.0296951026
0.32  -0.34  55.4745166561
0.32  -0.32  68.3420571963
0.32  -0.3  84.1942762796
0.32  -0.28  103.723482275
0.32  -0.26  127.782567304
0.32  -0.24  157.422255294
0.32  -0.22  193.936989879
0.32  -0.2  115.395578173
0.32  -0.18  108.085707992
0.32  -0.16  100.307008478
0.32  -0.14  92.192806005
0.32  -0.12  83.9126219715
0.32  -0.1  75.6883152983
0.32  -0.08  67.8181558714
0.32  -0.06  60.7077654437
0.32  -0.04  54.8935115081
0.32  -0.02  51.011325439
0.32  6.17561557e-16  49.6365423832
0.32  0.02  51.011325439
0.32  0.04  54.8935115081
0.32  0.06  60.7077654437
0.32  0.08  67.8181558714
0.32  0.1  75.6883152983
0.32  0.12  83.9126219715
0.32  0.14  92.192806005
0.32  0.16  100.307008478
0.32  0.18  108.085707992
0.32  0.2  238.921466174
0.32  0.22  193.936989879
0.32  0.24  157.422255294
0.32  0.26  127.782567304
0.32  0.28  103.723482275
0.32  0.3  84.1942762796
0.32  0.32  68.3420571963
0.32  0.34  55.4745166561
0.32  0.36  45.0296951026
0.32  0.38  36.5514395303
0.32  0.4  29.6694820761
0.32  0.42  24.083269441
0.32  0.44  19.5488369321
0.32  0.46  15.868153879
0.32  0.48  12.8804751097
0.32  0.5  10.4553207838
0.32  0.52  8.48677799237
0.32  0.54  6.88887526084
0.32  0.56  5.5918279472
0.32  0.58  4.5389905619
0.32  0.6  3.68438290942
0.32  0.62  2.99068201135
0.32  0.64  2.42759211324
0.32  0.66  1.97052158868
0.32  0.68  1.59950895798
0.32  0.7  1.29835111747
0.32  0.72  1.05389570707
0.32  0.74  0.855466711924
0.32  0.76  0.694398212554
0.32  0.78  0.563655921239
0.32  0.8  0.457529976033
0.32  0.82  0.371385575989
0.32  0.84  0.301460567127
0.32  0.86  0.244701139216
0.32  0.88  0.198628457791
0.32  0.9  0.1612304069
0.32  0.92  0.130873714664
0.32  0.94  0.106232623977
0.32  0.96  0.0862309931835
0.32  0.98  0.0699952981207
0.34  -1  0.0483054246319
0.34  -0.98  0.0595100650186
0.34  -0.96  0.0733136674713
0.34  -0.94  0.0903190718479
0.34  -0.92  0.111268949172
0.34  -0.9  0.137078236042
0.34  -0.88  0.168874092333
0.34  -0.86  0.208045127256
0.34  -0.84  0.256302043594
0.34  -0.82  0.315752348622
0.34  -0.8  0.388992394529
0.34  -0.78  0.47922076799
0.34  -0.76  0.590377980914
0.34  -0.74  0.727318563029
0.34  -0.72  0.896023072045
0.34  -0.7  1.10385928044
0.34  -0.68  1.35990394559
0.34  -0.66  1.6753392158
0.34  -0.64  2.06394098427
0.34  -0.62  2.5426805189
0.34  -0.6  3.13246564241
0.34  -0.58  3.85905383233
0.34  -0.56  4.75417711826
0.34  -0.54  5.85692790352
0.34  -0.52  7.21546623395
0.34  -0.5  8.88912307456
0.34  -0.48  10.9509914499
0.34  -0.46  13.4911186097
0.34  -0.44  16.620438631
0.34  -0.42  20.4756172025
0.34  -0.4  25.2250201774
0.34  -0.38  31.0760665556
0.34  -0.36  38.2842870203
0.34  -0.34  47.1644836399
0.34  -0.32  58.1044781072
0.34  -0.3  71.5820489393
0.34  -0.28  88.1857973304
0.34  -0.26  108.640852924
0.34  -0.24  133.840542143
0.34  -0.22  164.885402121
0.34  -0.2  98.1094236947
0.34  -0.18  91.8945655333
0.34  -0.16  85.2811082545
0.34  -0.14  78.3824060603
0.34  -0.12  71.3425861949
0.34  -0.1  64.3502733111
0.34  -0.08  57.6590567326
0.34  -0.06  51.6137964362
0.34  -0.04  46.6705125438
0.34  -0.02  43.3698744782
0.34  6.17561557e-16  42.2010326955
0.34  0.02  43.3698744782
0.34  0.04  46.6705125438
0.34  0.06  51.6137964362
0.34  0.08  57.6590567326
0.34  0.1  64.3502733111
0.34  0.12  71.3425861949
0.34  0.14  78.3824060603
0.34  0.16  85.2811082545
0.34  0.18  91.8945655333
0.34  0.2  203.131244071
0.34  0.22  164.885402121
0.34  0.24  133.840542143
0.34  0.26  108.640852924
0.34  0.28  88.1857973304
0.34  0.3  71.5820489393
0.34  0.32  58.1044781072
0.34  0.34  47.1644836399
0.34  0.36  38.2842870203
0.34  0.38  31.0760665556
0.34  0.4  25.2250201774
0.34  0.42  20.4756172025
0.34  0.44  16.620438631
0.34  0.46  13.4911186097
0.34  0.48  10.9509914499
0.34  0.5  8.88912307456
0.34  0.52  7.21546623394
0.34  0.54  5.85692790352
0.34  0.56  4.75417711826
0.34  0.58  3.85905383233
0.34  0.6  3.13246564241
0.34  0.62  2.5426805189
0.34  0.64  2.06394098427
0.34  0.66  1.6753392158
0.34  0.68  1.35990394559
0.34  0.7  1.10385928044
0.34  0.72  0.896023072045
0.34  0.74  0.727318563029
0.34  0.76  0.590377980914
0.34  0.78  0.47922076799
0.34  0.8  0.388992394529
0.34  0.82  0.315752348622
0.34  0.84  0.256302043594
0.34  0.86  0.208045127256
0.34  0.88  0.168874092333
0.34  0.9  0.137078236042
0.34  0.92  0.111268949172
0.34  0.94  0.0903190718479
0.34  0.96  0.0733136674713
0.34  0.98  0.0595100650186
0.36  -1  0.0410693151937
0.36  -0.98  0.0505955104644
0.36  -0.96  0.0623313456063
0.36  -0.94  0.0767893556054
0.36  -0.92  0.0946009600297
0.36  -0.9  0.116544038793
0.36  -0.88  0.143576904228
0.36  -0.86  0.176880153128
0.36  -0.84  0.217908226527
0.36  -0.82  0.268452928994
0.36  -0.8  0.33072168148
0.36  -0.78  0.407433925236
0.36  -0.76  0.501939887007
0.36  -0.74  0.618366892309
0.36  -0.72  0.76179961665
0.36  -0.7  0.938502146777
0.36  -0.68  1.15619154992
0.36  -0.66  1.42437489856
0.36  -0.64  1.75476446942
0.36  -0.62  2.16178924962
0.36  -0.6  2.66322508873
0.36  -0.58  3.28097101718
0.36  -0.56  4.04200563486
0.36  -0.54  4.97956533804
0.36  -0.52  6.13459584073
0.36  -0.5  7.55754038241
0.36  -0.48  9.31054271784
0.36  -0.46  11.4701610993
0.36  -0.44  14.1307117781
0.36  -0.42  17.4083880451
0.36  -0.4  21.446334699
0.36  -0.38  26.4208995589
0.36  -0.36  32.5493350402
0.36  -0.34  40.0992861427
0.36  -0.32  49.4004792161
0.36  -0.3  60.8591219828
0.36  -0.28  74.9756437041
0.36  -0.26  92.3665502507
0.36  -0.24  113.791348546
0.36  -0.22  140.185716245
0.36  -0.2  83.4127197079
0.36  -0.18  78.1288417448
0.36  -0.16  72.5060744558
0.36  -0.14  66.6407916847
0.36  -0.12  60.6555305434
0.36  -0.1  54.7106598804
0.36  -0.08  49.0217815653
0.36  -0.06  43.8820958585
0.36  -0.04  39.6793114753
0.36  -0.02  36.8731060421
0.36  6.17561557e-16  35.8793557138
0.36  0.02  36.8731060421
0.36  0.04  39.6793114753
0.36  0.06  43.8820958585
0.36  0.08  49.0217815653
0.36  0.1  54.7106598804
0.36  0.12  60.6555305434
0.36  0.14  66.6407916847
0.36  0.16  72.5060744558
0.36  0.18  78.1288417448
0.36  0.2  172.702365252
0.36  0.22  140.185716245
0.36  0.24  113.791348546
0.36  0.26  92.3665502507
0.36  0.28  74.9756437041
0.36  0.3  60.8591219828
0.36  0.32  49.4004792161
0.36  0.34  40.0992861427
0.36  0.36  32.5493350402
0.36  0.38  26.4208995589
0.36  0.4  21.446334699
0.36  0.42  17.4083880451
0.36  0.44  14.1307117781
0.36  0.46  11.4701610993
0.36  0.48  9.31054271784
0.36  0.5  7.55754038241
0.36  0.52  6.13459584073
0.36  0.54  4.97956533804
0.36  0.56  4.04200563486
0.36  0.58  3.28097101718
0.36  0.6  2.66322508873
0.36  0.62  2.16178924962
0.36  0.64  1.75476446942
0.36  0.66  1.42437489856
0.36  0.68  1.15619154992
0.36  0.7  0.938502146777
0.36  0.72  0.76179961665
0.36  0.74  0.618366892309
0.36  0.76  0.501939887007
0.36  0.78  0.407433925236
0.36  0.8  0.33072168148
0.36  0.82  0.268452928994
0.36  0.84  0.217908226527
0.36  0.86  0.176880153128
0.36  0.88  0.143576904228
0.36  0.9  0.116544038793
0.36  0.92  0.0946009600297
0.36  0.94  0.0767893556054
0.36  0.96  0.0623313456063
0.36  0.98  0.0505955104644
0.38  -1  0.0349171684823
0.38  -0.98  0.0430163482152
0.38  -0.96  0.0529941657414
0.38  -0.94  0.0652863787642
0.38  -0.92  0.0804298207643
0.38  -0.9  0.0990858459396
0.38  -0.88  0.122069212293
0.38  -0.86  0.150383664272
0.38  -0.84  0.185265768943
0.38  -0.82  0.228238920153
0.38  -0.8  0.281179869168
0.38  -0.78  0.346400687369
0.38  -0.76  0.426749740529
0.38  -0.74  0.52573608449
0.38  -0.72  0.647682714914
0.38  -0.7  0.797915363951
0.38  -0.68  0.98299508906
0.38  -0.66  1.21100481175
0.38  -0.64  1.49190232017
0.38  -0.62  1.83795515207
0.38  -0.6  2.26427635063
0.38  -0.58  2.78948449109
0.38  -0.56  3.4365168032
0.38  -0.54  4.23363090076
0.38  -0.52  5.21563886642
0.38  -0.5  6.42542758748
0.38  -0.48  7.91583173976
0.38  -0.46  9.75194121777
0.38  -0.44  12.0139437827
0.38  -0.42  14.8006270742
0.38  -0.4  18.2336929282
0.38  -0.38  22.463072418
0.38  -0.36  27.6734737413
0.38  -0.34  34.0924489162
0.38  -0.32  42.0003315799
0.38  -0.3  51.742479901
0.38  -0.28  63.7443592847
0.38  -0.26  78.5301235733
0.38  -0.24  96.7455062322
0.38  -0.22  119.186021239
0.38  -0.2  70.9175688436
0.38  -0.18  66.425211077
0.38  -0.16  61.6447293027
0.38  -0.14  56.6580606488
0.38  -0.12  51.5693862773
0.38  -0.1  46.5150519266
0.38  -0.08  41.6783624987
0.38  -0.06  37.3085971174
0.38  -0.04  33.7353860786
0.38  -0.02  31.3495477113
0.38  6.17561557e-16  30.5046602941
0.38  0.02  31.3495477113
0.38  0.04  33.7353860786
0.38  0.06  37.3085971174
0.38  0.08  41.6783624987
0.38  0.1  46.5150519266
0.38  0.12  51.5693862773
0.38  0.14  56.6580606488
0.38  0.16  61.6447293027
0.38  0.18  66.425211077
0.38  0.2  146.831705286
0.38  0.22  119.186021239
0.38  0.24  96.7455062322
0.38  0.26  78.5301235733
0.38  0.28  63.7443592847
0.38  0.3  51.742479901
0.38  0.32  42.0003315799
0.38  0.34  34.0924489162
0.38  0.36  27.6734737413
0.38  0.38  22.463072418
0.38  0.4  18.2336929282
0.38  0.42  14.8006270742
0.38  0.44  12.0139437827
0.38  0.46  9.75194121777
0.38  0.48  7.91583173976
0.38  0.5  6.42542758748
0.38  0.52  5.21563886642
0.38  0.54  4.23363090076
0.38  0.56  3.4365168032
0.38  0.58  2.78948449109
0.38  0.6  2.26427635063
0.38  0.62  1.83795515207
0.38  0.64  1.49190232017
0.38  0.66  1.21100481175
0.38  0.68  0.98299508906
0.38  0.7  0.797915363951
0.38  0.72  0.647682714914
0.38  0.74  0.52573608449
0.38  0.76  0.426749740529
0.38  0.78  0.346400687369
0.38  0.8  0.281179869168
0.38  0.82  0.228238920153
0.38  0.84  0.185265768943
0.38  0.86  0.150383664271
0.38  0.88  0.122069212293
0.38  0.9  0.0990858459396
0.38  0.92  0.0804298207643
0.38  0.94  0.0652863787642
0.38  0.96  0.0529941657414
0.38  0.98  0.0430163482152
0.4  -1  0.02968660785
0.4  -0.98  0.0365725376973
0.4  -0.96  0.0450556870755
0.4  -0.94  0.0555065375733
0.4  -0.92  0.0683815054959
0.4  -0.9  0.0842428747732
0.4  -0.88  0.103783353388
0.4  -0.86  0.127856325765
0.4  -0.84  0.157513122332
0.4  -0.82  0.194048933897
0.4  -0.8  0.239059376064
0.4  -0.78  0.294510173987
0.4  -0.76  0.362823010794
0.4  -0.74  0.446981288896
0.4  -0.72  0.550660423069
0.4  -0.7  0.678388355547
0.4  -0.68  0.835743303245
0.4  -0.66  1.02959737326
0.4  -0.64  1.26841668596
0.4  -0.62  1.56263111291
0.4  -0.6  1.92508977694
0.4  -0.58  2.37162220735
0.4  -0.56  2.92172965737
0.4  -0.54  3.59943677552
0.4  -0.52  4.43434082557
0.4  -0.5  5.46290427743
0.4  -0.48  6.73004721971
0.4  -0.46  8.29110913889
0.4  -0.44  10.2142657412
0.4  -0.42  12.5835063662
0.4  -0.4  15.5023020235
0.4  -0.38  19.0981242456
0.4  -0.36  23.5280121073
0.4  -0.34  28.9854305378
0.4  -0.32  35.7087194459
0.4  -0.3  43.9915026553
0.4  -0.28  54.1955112337
0.4  -0.26  66.7663812463
0.4  -0.24  82.2531158623
0.4  -0.22  101.332061777
0.4  -0.2  60.2941804115
0.4  -0.18  56.4747738234
0.4  -0.16  52.4104039465
0.4  -0.14  48.1707338002
0.4  -0.12  43.8443383017
0.4  -0.1  39.5471387196
0.4  -0.08  35.4349810454
0.4  -0.06  31.7198026127
0.4  -0.04  28.6818553942
0.4  -0.02  26.653413482
0.4  6.17561557e-16  25.9350894448
0.4  0.02  26.653413482
0.4  0.04  28.6818553942
0.4  0.06  31.7198026127
0.4  0.08  35.4349810454
0.4  0.1  39.5471387196
0.4  0.12  43.8443383017
0.4  0.14  48.1707338002
0.4  0.16  52.4104039465
0.4  0.18  56.4747738234
0.4  0.2  124.836447061
0.4  0.22  101.332061777
0.4  0.24  82.2531158623
0.4  0.26  66.7663812463
0.4  0.28  54.1955112337
0.4  0.3  43.9915026553
0.4  0.32  35.7087194459
0.4  0.34  28.9854305378
0.4  0.36  23.5280121073
0.4  0.38  19.0981242456
0.4  0.4  15.5023020235
0.4  0.42  12.5835063662
0.4  0.44  10.2142657412
0.4  0.46  8.29110913889
0.4  0.48  6.73004721971
0.4  0.5  5.46290427743
0.4  0.52  4.43434082557
0.4  0.54  3.59943677552
0.4  0.56  2.92172965737
0.4  0.58  2.37162220735
0.4  0.6  1.92508977694
0.4  0.62  1.56263111291
0.4  0.64  1.26841668596
0.4  0.66  1.02959737326
0.4  0.68  0.835743303245
0.4  0.7  0.678388355547
0.4  0.72  0.550660423069
0.4  0.74  0.446981288896
0.4  0.76  0.362823010794
0.4  0.78  0.294510173987
0.4  0.8  0.239059376064
0.4  0.82  0.194048933897
0.4  0.84  0.157513122332
0.4  0.86  0.127856325765
0.4  0.88  0.103783353388
0.4  0.9  0.0842428747732
0.4  0.92  0.0683815054959
0.4  0.94  0.0555065375733
0.4  0.96  0.0450556870755
0.4  0.98  0.0365725376973
0.42  -1  0.0252395805257
0.42  -0.98  0.031094004236
0.42  -0.96  0.0383063854189
0.42  -0.94  0.0471917078523
0.42  -0.92  0.0581380170868
0.42  -0.9  0.0716233674221
0.42  -0.88  0.0882366998038
0.42  -0.86  0.108703562434
0.42  -0.84  0.13391779738
0.42  -0.82  0.164980577025
0.42  -0.8  0.203248495182
0.42  -0.78  0.250392813135
0.42  -0.76  0.308472448041
0.42  -0.74  0.380023891297
0.42  -0.72  0.468171983831
0.42  -0.7  0.576766386178
0.42  -0.68  0.710549703342
0.42  -0.66  0.875364606918
0.42  -0.64  1.07840900002
0.42  -0.62  1.32855036876
0.42  -0.6  1.63671304885
0.42  -0.58  2.01635532026
0.42  -0.56  2.48405716592
0.42  -0.54  3.06024436345
0.42  -0.52  3.77008053298
0.42  -0.5  4.644566099
0.42  -0.48  5.721892161
0.42  -0.46  7.04910839984
0.42  -0.44  8.6841778619
0.42  -0.42  10.6985083587
0.42  -0.4  13.1800710351
0.42  -0.38  16.237242302
0.42  -0.36  20.0035369212
0.42  -0.34  24.6434389482
0.42  -0.32  30.3595851866
0.42  -0.3  37.4016148738
0.42  -0.28  46.0770720867
0.42  -0.26  56.7648370063
0.42  -0.24  69.9316726177
0.42  -0.22  86.1526094855
0.42  -0.2  51.2621660722
0.42  -0.18  48.0149031775
0.42  -0.16  44.5593722757
0.42  -0.14  40.9548009283
0.42  -0.12  37.2764956089
0.42  -0.1  33.6230126836
0.42  -0.08  30.1268525538
0.42  -0.06  26.9682045301
0.42  -0.04  24.3853390898
0.42  -0.02  22.6607559632
0.42  6.17561557e-16  22.0500362247
0.42  0.02  22.6607559632
0.42  0.04  24.3853390898
0.42  0.06  26.9682045301
0.42  0.08  30.1268525538
0.42  0.1  33.6230126836
0.42  0.12  37.2764956089
0.42  0.14  40.9548009283
0.42  0.16  44.5593722757
0.42  0.18  48.0149031775
0.42  0.2  106.13605886
0.42  0.22  86.1526094855
0.42  0.24  69.9316726177
0.42  0.26  56.7648370063
0.42  0.28  46.0770720867
0.42  0.3  37.4016148738
0.42  0.32  30.3595851866
0.42  0.34  24.6434389482
0.42  0.36  20.0035369212
0.42  0.38  16.237242302
0.42  0.4  13.1800710351
0.42  0.42  10.6985083587
0.42  0.44  8.6841778619
0.42  0.46  7.04910839984
0.42  0.48  5.721892161
0.42  0.5  4.644566099
0.42  0.52  3.77008053298
0.42  0.54  3.06024436345
0.42  0.56  2.48405716592
0.42  0.58  2.01635532026
0.42  0.6  1.63671304885
0.42  0.62  1.32855036876
0.42  0.64  1.07840900002
0.42  0.66  0.875364606918
0.42  0.68  0.710549703342
0.42  0.7  0.576766386178
0.42  0.72  0.468171983831
0.42  0.74  0.380023891297
0.42  0.76  0.308472448041
0.42  0.78  0.250392813135
0.42  0.8  0.203248495182
0.42  0.82  0.164980577025
0.42  0.84  0.13391779738
0.42  0.86  0.108703562434
0.42  0.88  0.0882366998038
0.42  0.9  0.0716233674221
0.42  0.92  0.0581380170868
0.42  0.94  0.0471917078523
0.42  0.96  0.0383063854189
0.42  0.98  0.031094004236
0.44  -1  0.0214587139201
0.44  -0.98  0.0264361501909
0.44  -0.96  0.0325681231185
0.44  -0.94  0.0401224321924
0.44  -0.92  0.0494289940865
0.44  -0.9  0.0608942509937
0.44  -0.88  0.0750189210324
0.44  -0.86  0.092419865932
0.44  -0.84  0.113857031018
0.44  -0.82  0.140266634034
0.44  -0.8  0.172802052252
0.44  -0.78  0.212884193509
0.44  -0.76  0.262263551013
0.44  -0.74  0.323096652017
0.44  -0.72  0.39804023907
0.44  -0.7  0.490367296998
0.44  -0.68  0.604109992817
0.44  -0.66  0.744235771135
0.44  -0.64  0.916864295614
0.44  -0.62  1.12953471088
0.44  -0.6  1.3915348969
0.44  -0.58  1.71430709535
0.44  -0.56  2.11194762252
0.44  -0.54  2.60182249282
0.44  -0.52  3.20532583855
0.44  -0.5  3.94881424833
0.44  -0.48  4.86475782907
0.44  -0.46  5.9931582615
0.44  -0.44  7.38329577945
0.44  -0.42  9.09588136809
0.44  -0.4  11.2057081734
0.44  -0.38  13.8049179168
0.44  -0.36  17.007024968
0.44  -0.34  20.9518738182
0.44  -0.32  25.8117464588
0.44  -0.3  31.7988863924
0.44  -0.28  39.1747678683
0.44  -0.26  48.2615151548
0.44  -0.24  59.4559705591
0.44  -0.22  73.2470255812
0.44  -0.2  43.5831394088
0.44  -0.18  40.8223135936
0.44  -0.16  37.8844181326
0.44  -0.14  34.8198083515
0.44  -0.12  31.6925098815
0.44  -0.1  28.5863154333
0.44  -0.08  25.6138769664
0.44  -0.06  22.9283915936
0.44  -0.04  20.7324370879
0.44  -0.02  19.2661949724
0.44  6.17561557e-16  18.7469605049
0.44  0.02  19.2661949724
0.44  0.04  20.7324370879
0.44  0.06  22.9283915936
0.44  0.08  25.6138769664
0.44  0.1  28.5863154333
0.44  0.12  31.6925098815
0.44  0.14  34.8198083515
0.44  0.16  37.8844181326
0.44  0.18  40.8223135936
0.44  0.2  90.2369720994
0.44  0.22  73.2470255812
0.44  0.24  59.4559705591
0.44  0.26  48.2615151548
0.44  0.28  39.1747678683
0.44  0.3  31.7988863924
0.44  0.32  25.8117464588
0.44  0.34  20.9518738182
0.44  0.36  17.007024968
0.44  0.38  13.8049179168
0.44  0.4  11.2057081734
0.44  0.42  9.09588136809
0.44  0.44  7.38329577945
0.44  0.46  5.9931582615
0.44  0.48  4.86475782907
0.44  0.5  3.94881424833
0.44  0.52  3.20532583855
0.44  0.54  2.60182249282
0.44  0.56  2.11194762252
0.44  0.58  1.71430709535
0.44  0.6  1.3915348969
0.44  0.62  1.12953471088
0.44  0.64  0.916864295614
0.44  0.66  0.744235771135
0.44  0.68  0.604109992817
0.44  0.7  0.490367296998
0.44  0.72  0.39804023907
0.44  0.74  0.323096652017
0.44  0.76  0.262263551013
0.44  0.78  0.212884193509
0.44  0.8  0.172802052252
0.44  0.82  0.140266634034
0.44  0.84  0.113857031018
0.44  0.86  0.092419865932
0.44  0.88  0.0750189210324
0.44  0.9  0.0608942509937
0.44  0.92  0.0494289940865
0.44  0.94  0.0401224321924
0.44  0.96  0.0325681231185
0.44  0.98  0.0264361501909
0.46  -1  0.018244217753
0.46  -0.98  0.0224760385189
0.46  -0.96  0.0276894473822
0.46  -0.94  0.0341121277083
0.46  -0.92  0.0420245749482
0.46  -0.9  0.0517723466175
0.46  -0.88  0.063781153708
0.46  -0.86  0.0785754526132
0.46  -0.84  0.0968013495279
0.46  -0.82  0.119254817615
0.46  -0.8  0.146916459262
0.46  -0.78  0.180994331581
0.46  -0.76  0.222976705463
0.46  -0.74  0.274697062304
0.46  -0.72  0.338414166995
0.46  -0.7  0.416910714161
0.46  -0.68  0.5136148558
0.46  -0.66  0.63274991776
0.46  -0.64  0.779518843555
0.46  -0.62  0.960331420678
0.46  -0.6  1.18308421299
0.46  -0.58  1.45750542458
0.46  -0.56  1.79557975617
0.46  -0.54  2.2120718087
0.46  -0.52  2.72517089261
0.46  -0.5  3.35728540308
0.46  -0.48  4.13602145402
0.46  -0.46  5.09538851015
0.46  -0.44  6.27728467031
0.46  -0.42  7.73332646835
0.46  -0.4  9.52710310382
0.46  -0.38  11.7369535506
0.46  -0.36  14.4593878274
0.46  -0.34  17.8133018454
0.46  -0.32  21.9451699078
0.46  -0.3  27.0354416302
0.46  -0.28  33.306422653
0.46  -0.26  41.0319833171
0.46  -0.24  50.5495193066
0.46  -0.22  62.2746866117
0.46  -0.2  37.0544240766
0.46  -0.18  34.7071675011
0.46  -0.16  32.2093661545
0.46  -0.14  29.6038321797
0.46  -0.12  26.9450002256
0.46  -0.1  24.3041109296
0.46  -0.08  21.7769410885
0.46  -0.06  19.4937390245
0.46  -0.04  17.6267365412
0.46  -0.02  16.3801361841
0.46  6.17561557e-16  15.9386825759
0.46  0.02  16.3801361841
0.46  0.04  17.6267365412
0.46  0.06  19.4937390245
0.46  0.08  21.7769410885
0.46  0.1  24.3041109296
0.46  0.12  26.9450002256
0.46  0.14  29.6038321797
0.46  0.16  32.2093661545
0.46  0.18  34.7071675011
0.46  0.2  76.7195543258
0.46  0.22  62.2746866117
0.46  0.24  50.5495193066
0.46  0.26  41.0319833171
0.46  0.28  33.306422653
0.46  0.3  27.0354416302
0.46  0.32  21.9451699078
0.46  0.34  17.8133018454
0.46  0.36  14.4593878274
0.46  0.38  11.7369535506
0.46  0.4  9.52710310382
0.46  0.42  7.73332646835
0.46  0.44  6.27728467031
0.46  0.46  5.09538851015
0.46  0.48  4.13602145402
0.46  0.5  3.35728540308
0.46  0.52  2.72517089261
0.46  0.54  2.2120718087
0.46  0.56  1.79557975617
0.46  0.58  1.45750542458
0.46  0.6  1.18308421299
0.46  0.62  0.960331420678
0.46  0.64  0.779518843555
0.46  0.66  0.63274991776
0.46  0.68  0.5136148558
0.46  0.7  0.416910714161
0.46  0.72  0.338414166995
0.46  0.74  0.274697062304
0.46  0.76  0.222976705463
0.46  0.78  0.180994331581
0.46  0.8  0.146916459262
0.46  0.82  0.119254817615
0.46  0.84  0.0968013495279
0.46  0.86  0.0785754526132
0.46  0.88  0.063781153708
0.46  0.9  0.0517723466175
0.46  0.92  0.0420245749482
0.46  0.94  0.0341121277083
0.46  0.96  0.0276894473822
0.46  0.98  0.0224760385189
0.48  -1  0.0155112502389
0.48  -0.98  0.0191091480361
0.48  -0.96  0.0235415929111
0.48  -0.94  0.0290021614644
0.48  -0.92  0.0357293311793
0.48  -0.9  0.0440168953644
0.48  -0.88  0.0542267938852
0.48  -0.86  0.0668049200365
0.48  -0.84  0.0823005938822
0.48  -0.82  0.101390552517
0.48  -0.8  0.124908504967
0.48  -0.78  0.153881542469
0.48  -0.76  0.189574994264
0.48  -0.74  0.233547687874
0.48  -0.72  0.287720027228
0.48  -0.7  0.354457861782
0.48  -0.68  0.436675809431
0.48  -0.66  0.537964545583
0.48  -0.64  0.662747617464
0.48  -0.62  0.816474632131
