-0.44  0.72  0.256489718495
-0.44  0.74  0.215800864432
-0.44  0.76  0.181566783116
-0.44  0.78  0.152763506382
-0.44  0.8  0.128529505683
-0.44  0.82  0.108139923089
-0.44  0.84  0.0909848902292
-0.44  0.86  0.0765512866436
-0.44  0.88  0.064407391953
-0.44  0.9  0.0541899727629
-0.44  0.92  0.045593418069
-0.44  0.94  0.0383605981924
-0.44  0.96  0.0322751738299
-0.44  0.98  0.0271551251763
-0.42  -1  0.0255542006827
-0.42  -0.98  0.0303723979824
-0.42  -0.96  0.0360990574763
-0.42  -0.94  0.0429054680315
-0.42  -0.92  0.0509952147148
-0.42  -0.9  0.0606102681806
-0.42  -0.88  0.0720382222032
-0.42  -0.86  0.0856208958314
-0.42  -0.84  0.101764557464
-0.42  -0.82  0.120952076654
-0.42  -0.8  0.143757367117
-0.42  -0.78  0.17086255294
-0.42  -0.76  0.203078371445
-0.42  -0.74  0.241368422974
-0.42  -0.72  0.286877992938
-0.42  -0.7  0.34096830819
-0.42  -0.68  0.405257252393
-0.42  -0.66  0.481667758182
-0.42  -0.64  0.572485323586
-0.42  -0.62  0.680426373065
-0.42  -0.6  0.808719507885
-0.42  -0.58  0.961202076116
-0.42  -0.56  1.14243495071
-0.42  -0.54  1.35783894879
-0.42  -0.52  1.61385697251
-0.42  -0.5  1.91814672134
-0.42  -0.48  2.2798097398
-0.42  -0.46  2.70966365183
-0.42  -0.44  3.22056572436
-0.42  -0.42  3.82779743822
-0.42  -0.4  4.54952156922
-0.42  -0.38  5.40732545095
-0.42  -0.36  6.42686666886
-0.42  -0.34  7.63864049871
-0.42  -0.32  9.07889204412
-0.42  -0.3  10.790700356
-0.42  -0.28  12.8252669607
-0.42  -0.26  15.2434473376
-0.42  -0.24  18.1175711544
-0.42  -0.22  21.5336057038
-0.42  -0.2  15.2692874696
-0.42  -0.18  14.5497097925
-0.42  -0.16  13.7347235351
-0.42  -0.14  12.8459129157
-0.42  -0.12  11.9106932387
-0.42  -0.1  10.9639928165
-0.42  -0.08  10.0503661472
-0.42  -0.06  9.22587848226
-0.42  -0.04  8.55767092043
-0.42  -0.02  8.11706121862
-0.42  6.17561557e-16  7.96247332127
-0.42  0.02  8.11706121862
-0.42  0.04  8.55767092042
-0.42  0.06  9.22587848226
-0.42  0.08  10.0503661472
-0.42  0.1  10.9639928165
-0.42  0.12  11.9106932387
-0.42  0.14  12.8459129157
-0.42  0.16  13.7347235351
-0.42  0.18  14.5497097925
-0.42  0.2  25.5937272527
-0.42  0.22  21.5336057038
-0.42  0.24  18.1175711544
-0.42  0.26  15.2434473376
-0.42  0.28  12.8252669607
-0.42  0.3  10.790700356
-0.42  0.32  9.07889204412
-0.42  0.34  7.63864049871
-0.42  0.36  6.42686666886
-0.42  0.38  5.40732545095
-0.42  0.4  4.54952156922
-0.42  0.42  3.82779743822
-0.42  0.44  3.22056572436
-0.42  0.46  2.70966365183
-0.42  0.48  2.2798097398
-0.42  0.5  1.91814672134
-0.42  0.52  1.61385697251
-0.42  0.54  1.35783894879
-0.42  0.56  1.14243495071
-0.42  0.58  0.961202076116
-0.42  0.6  0.808719507885
-0.42  0.62  0.680426373065
-0.42  0.64  0.572485323586
-0.42  0.66  0.481667758182
-0.42  0.68  0.405257252393
-0.42  0.7  0.34096830819
-0.42  0.72  0.286877992938
-0.42  0.74  0.241368422974
-0.42  0.76  0.203078371445
-0.42  0.78  0.17086255294
-0.42  0.8  0.143757367117
-0.42  0.82  0.120952076654
-0.42  0.84  0.101764557464
-0.42  0.86  0.0856208958314
-0.42  0.88  0.0720382222032
-0.42  0.9  0.0606102681806
-0.42  0.92  0.0509952147148
-0.42  0.94  0.0429054680315
-0.42  0.96  0.0360990574763
-0.42  0.98  0.0303723979824
-0.4  -1  0.0285817998709
-0.4  -0.98  0.0339708454008
-0.4  -0.96  0.0403759855034
-0.4  -0.94  0.0479888029319
-0.4  -0.92  0.0570370030137
-0.4  -0.9  0.0677912244946
-0.4  -0.88  0.0805731345556
-0.4  -0.86  0.0957650501304
-0.4  -0.84  0.113821373303
-0.4  -0.82  0.135282182832
-0.4  -0.8  0.160789388325
-0.4  -0.78  0.191105930262
-0.4  -0.76  0.227138600139
-0.4  -0.74  0.269965163312
-0.4  -0.72  0.320866595803
-0.4  -0.7  0.381365399294
-0.4  -0.68  0.453271140348
-0.4  -0.66  0.538734575953
-0.4  -0.64  0.640311984356
-0.4  -0.62  0.76104162534
-0.4  -0.6  0.904534616953
-0.4  -0.58  1.07508294688
-0.4  -0.56  1.27778784914
-0.4  -0.54  1.518712386
-0.4  -0.52  1.80506279892
-0.4  -0.5  2.14540405286
-0.4  -0.48  2.54991602108
-0.4  -0.46  3.03069797314
-0.4  -0.44  3.60213047349
-0.4  -0.42  4.28130551545
-0.4  -0.4  5.08853775606
-0.4  -0.38  6.0479721434
-0.4  -0.36  7.18830611089
-0.4  -0.34  8.54364793996
-0.4  -0.32  10.1545369654
-0.4  -0.3  12.0691561388
-0.4  -0.28  14.344773218
-0.4  -0.26  17.0494536908
-0.4  -0.24  20.264096667
-0.4  -0.22  24.0848546338
-0.4  -0.2  17.0783552984
-0.4  -0.18  16.2735238184
-0.4  -0.16  15.3619799828
-0.4  -0.14  14.3678652552
-0.4  -0.12  13.3218430386
-0.4  -0.1  12.2629798662
-0.4  -0.08  11.2411089439
-0.4  -0.06  10.3189379972
-0.4  -0.04  9.57156283797
-0.4  -0.02  9.07875077649
-0.4  6.17561557e-16  8.9058476832
-0.4  0.02  9.07875077649
-0.4  0.04  9.57156283797
-0.4  0.06  10.3189379972
-0.4  0.08  11.2411089439
-0.4  0.1  12.2629798662
-0.4  0.12  13.3218430386
-0.4  0.14  14.3678652552
-0.4  0.16  15.3619799828
-0.4  0.18  16.2735238184
-0.4  0.2  28.6260094523
-0.4  0.22  24.0848546338
-0.4  0.24  20.264096667
-0.4  0.26  17.0494536908
-0.4  0.28  14.344773218
-0.4  0.3  12.0691561388
-0.4  0.32  10.1545369654
-0.4  0.34  8.54364793996
-0.4  0.36  7.18830611089
-0.4  0.38  6.0479721434
-0.4  0.4  5.08853775606
-0.4  0.42  4.28130551545
-0.4  0.44  3.60213047349
-0.4  0.46  3.03069797314
-0.4  0.48  2.54991602108
-0.4  0.5  2.14540405286
-0.4  0.52  1.80506279892
-0.4  0.54  1.518712386
-0.4  0.56  1.27778784914
-0.4  0.58  1.07508294688
-0.4  0.6  0.904534616953
-0.4  0.62  0.76104162534
-0.4  0.64  0.640311984356
-0.4  0.66  0.538734575953
-0.4  0.68  0.453271140348
-0.4  0.7  0.381365399294
-0.4  0.72  0.320866595803
-0.4  0.74  0.269965163312
-0.4  0.76  0.227138600139
-0.4  0.78  0.191105930262
-0.4  0.8  0.160789388325
-0.4  0.82  0.135282182832
-0.4  0.84  0.113821373303
-0.4  0.86  0.0957650501304
-0.4  0.88  0.0805731345556
-0.4  0.9  0.0677912244946
-0.4  0.92  0.0570370030137
-0.4  0.94  0.0479888029319
-0.4  0.96  0.0403759855034
-0.4  0.98  0.0339708454008
-0.38  -1  0.031968101605
-0.38  -0.98  0.0379956280671
-0.38  -0.96  0.0451596335013
-0.38  -0.94  0.0536743989168
-0.38  -0.92  0.0637946076113
-0.38  -0.9  0.0758229629471
-0.38  -0.88  0.0901192424461
-0.38  -0.86  0.107111059017
-0.38  -0.84  0.127306651191
-0.38  -0.82  0.151310084937
-0.38  -0.8  0.179839321744
-0.38  -0.78  0.213747693411
-0.38  -0.76  0.254049425875
-0.38  -0.74  0.301949975493
-0.38  -0.72  0.358882085195
-0.38  -0.7  0.426548638937
-0.38  -0.68  0.5069735963
-0.38  -0.66  0.602562530702
-0.38  -0.64  0.716174581982
-0.38  -0.62  0.85120797551
-0.38  -0.6  1.01170166577
-0.38  -0.58  1.20245614464
-0.38  -0.56  1.42917702788
-0.38  -0.54  1.69864571454
-0.38  -0.52  2.01892222394
-0.38  -0.5  2.39958627712
-0.38  -0.48  2.85202383385
-0.38  -0.46  3.38976765554
-0.38  -0.44  4.02890208074
-0.38  -0.42  4.78854412032
-0.38  -0.4  5.69141526221
-0.38  -0.38  6.76452108888
-0.38  -0.36  8.03995903544
-0.38  -0.34  9.55587844908
-0.38  -0.32  11.3576216659
-0.38  -0.3  13.4990802355
-0.38  -0.28  16.0443068598
-0.38  -0.26  19.0694312591
-0.38  -0.24  22.6649372717
-0.38  -0.22  26.9383692963
-0.38  -0.2  19.1017570584
-0.38  -0.18  18.2015711134
-0.38  -0.16  17.1820297939
-0.38  -0.14  16.0701347851
-0.38  -0.12  14.900182415
-0.38  -0.1  13.715867724
-0.38  -0.08  12.5729280345
-0.38  -0.06  11.5415005298
-0.38  -0.04  10.7055781898
-0.38  -0.02  10.1543789608
-0.38  6.17561557e-16  9.96099073192
-0.38  0.02  10.1543789608
-0.38  0.04  10.7055781898
-0.38  0.06  11.5415005297
-0.38  0.08  12.5729280345
-0.38  0.1  13.715867724
-0.38  0.12  14.900182415
-0.38  0.14  16.0701347851
-0.38  0.16  17.1820297939
-0.38  0.18  18.2015711134
-0.38  0.2  32.0175490295
-0.38  0.22  26.9383692963
-0.38  0.24  22.6649372717
-0.38  0.26  19.0694312591
-0.38  0.28  16.0443068598
-0.38  0.3  13.4990802355
-0.38  0.32  11.3576216659
-0.38  0.34  9.55587844908
-0.38  0.36  8.03995903544
-0.38  0.38  6.76452108888
-0.38  0.4  5.69141526221
-0.38  0.42  4.78854412032
-0.38  0.44  4.02890208074
-0.38  0.46  3.38976765554
-0.38  0.48  2.85202383385
-0.38  0.5  2.39958627712
-0.38  0.52  2.01892222394
-0.38  0.54  1.69864571454
-0.38  0.56  1.42917702788
-0.38  0.58  1.20245614464
-0.38  0.6  1.01170166577
-0.38  0.62  0.85120797551
-0.38  0.64  0.716174581982
-0.38  0.66  0.602562530702
-0.38  0.68  0.5069735963
-0.38  0.7  0.426548638937
-0.38  0.72  0.358882085195
-0.38  0.74  0.301949975493
-0.38  0.76  0.254049425875
-0.38  0.78  0.213747693411
-0.38  0.8  0.179839321744
-0.38  0.82  0.151310084937
-0.38  0.84  0.127306651191
-0.38  0.86  0.107111059017
-0.38  0.88  0.0901192424461
-0.38  0.9  0.0758229629471
-0.38  0.92  0.0637946076113
-0.38  0.94  0.0536743989168
-0.38  0.96  0.0451596335013
-0.38  0.98  0.0379956280671
-0.36  -1  0.0357556040853
-0.36  -0.98  0.0424972571386
-0.36  -0.96  0.0505100364125
-0.36  -0.94  0.0600336104064
-0.36  -0.92  0.0713528366717
-0.36  -0.9  0.0848062821249
-0.36  -0.88  0.100796349849
-0.36  -0.86  0.119801315283
-0.36  -0.84  0.142389631817
-0.36  -0.82  0.169236933678
-0.36  -0.8  0.201146244675
-0.36  -0.78  0.239071997274
-0.36  -0.76  0.284148580417
-0.36  -0.74  0.337724269984
-0.36  -0.72  0.401401556779
-0.36  -0.7  0.477085078288
-0.36  -0.68  0.56703858787
-0.36  -0.66  0.673952665398
-0.36  -0.64  0.801025194605
-0.36  -0.62  0.95205701429
-0.36  -0.6  1.13156560438
-0.36  -0.58  1.3449202073
-0.36  -0.56  1.5985024262
-0.36  -0.54  1.8998971037
-0.36  -0.52  2.2581191905
-0.36  -0.5  2.68388338956
-0.36  -0.48  3.18992464129
-0.36  -0.46  3.79137903558
-0.36  -0.44  4.50623654408
-0.36  -0.42  5.35587911434
-0.36  -0.4  6.36572022059
-0.36  -0.38  7.56596500065
-0.36  -0.36  8.99251371524
-0.36  -0.34  10.6880355529
-0.36  -0.32  12.7032448987
-0.36  -0.3  15.0984182414
-0.36  -0.28  17.9451970903
-0.36  -0.26  21.3287308285
-0.36  -0.24  25.3502235984
-0.36  -0.22  30.129961396
-0.36  -0.2  21.3648865095
-0.36  -0.18  20.3580487356
-0.36  -0.16  19.2177146545
-0.36  -0.14  17.974085045
-0.36  -0.12  16.6655195799
-0.36  -0.1  15.3408901812
-0.36  -0.08  14.0625377931
-0.36  -0.06  12.9089092806
-0.36  -0.04  11.9739489066
-0.36  -0.02  11.3574449412
-0.36  6.17561557e-16  11.141144548
-0.36  0.02  11.3574449412
-0.36  0.04  11.9739489066
-0.36  0.06  12.9089092806
-0.36  0.08  14.0625377931
-0.36  0.1  15.3408901812
-0.36  0.12  16.6655195799
-0.36  0.14  17.974085045
-0.36  0.16  19.2177146545
-0.36  0.18  20.3580487356
-0.36  0.2  35.8109099197
-0.36  0.22  30.129961396
-0.36  0.24  25.3502235984
-0.36  0.26  21.3287308285
-0.36  0.28  17.9451970903
-0.36  0.3  15.0984182414
-0.36  0.32  12.7032448987
-0.36  0.34  10.6880355529
-0.36  0.36  8.99251371524
-0.36  0.38  7.56596500065
-0.36  0.4  6.36572022059
-0.36  0.42  5.35587911434
-0.36  0.44  4.50623654408
-0.36  0.46  3.79137903558
-0.36  0.48  3.18992464129
-0.36  0.5  2.68388338956
-0.36  0.52  2.2581191905
-0.36  0.54  1.8998971037
-0.36  0.56  1.5985024262
-0.36  0.58  1.3449202073
-0.36  0.6  1.13156560438
-0.36  0.62  0.95205701429
-0.36  0.64  0.801025194605
-0.36  0.66  0.673952665398
-0.36  0.68  0.56703858787
-0.36  0.7  0.477085078288
-0.36  0.72  0.401401556779
-0.36  0.74  0.337724269984
-0.36  0.76  0.284148580417
-0.36  0.78  0.239071997274
-0.36  0.8  0.201146244675
-0.36  0.82  0.169236933678
-0.36  0.84  0.142389631817
-0.36  0.86  0.119801315283
-0.36  0.88  0.100796349849
-0.36  0.9  0.0848062821249
-0.36  0.92  0.0713528366717
-0.36  0.94  0.0600336104064
-0.36  0.96  0.0505100364125
-0.36  0.98  0.0424972571386
-0.34  -1  0.0399918405948
-0.34  -0.98  0.0475322282109
-0.34  -0.96  0.056494341973
-0.34  -0.94  0.0671462457178
-0.34  -0.92  0.0798065462229
-0.34  -0.9  0.0948539229846
-0.34  -0.88  0.112738454818
-0.34  -0.86  0.133995082069
-0.34  -0.84  0.159259607092
-0.34  -0.82  0.189287711606
-0.34  -0.8  0.224977559716
-0.34  -0.78  0.267396662712
-0.34  -0.76  0.317813809163
-0.34  -0.74  0.377737015377
-0.34  -0.72  0.44895863135
-0.34  -0.7  0.533608951355
-0.34  -0.68  0.634219932716
-0.34  -0.66  0.753800928624
-0.34  -0.64  0.895928700257
-0.34  -0.62  1.0648544005
-0.34  -0.6  1.26563072924
-0.34  -0.58  1.50426306363
-0.34  -0.56  1.78788908352
-0.34  -0.54  2.12499226517
-0.34  -0.52  2.52565562855
-0.34  -0.5  3.00186332845
-0.34  -0.48  3.56785910985
-0.34  -0.46  4.24057234954
-0.34  -0.44  5.04012442702
-0.34  -0.42  5.99043057067
-0.34  -0.4  7.119915181
-0.34  -0.38  8.46236202665
-0.34  -0.36  10.0579247434
-0.34  -0.34  11.954327861
-0.34  -0.32  14.2082942806
-0.34  -0.3  16.8872419021
-0.34  -0.28  20.0713001454
-0.34  -0.26  23.8557066844
-0.34  -0.24  28.3536560806
-0.34  -0.22  33.6996855207
-0.34  -0.2  23.896146002
-0.34  -0.18  22.7700205516
-0.34  -0.16  21.4945824779
-0.34  -0.14  20.1036106743
-0.34  -0.12  18.6400095738
-0.34  -0.1  17.1584413242
-0.34  -0.08  15.7286328721
-0.34  -0.06  14.4383252754
-0.34  -0.04  13.3925930833
-0.34  -0.02  12.7030472361
-0.34  6.17561557e-16  12.4611201015
-0.34  0.02  12.7030472361
-0.34  0.04  13.3925930833
-0.34  0.06  14.4383252754
-0.34  0.08  15.7286328721
-0.34  0.1  17.1584413242
-0.34  0.12  18.6400095738
-0.34  0.14  20.1036106743
-0.34  0.16  21.4945824779
-0.34  0.18  22.7700205516
-0.34  0.2  40.0536989291
-0.34  0.22  33.6996855207
-0.34  0.24  28.3536560806
-0.34  0.26  23.8557066844
-0.34  0.28  20.0713001454
-0.34  0.3  16.8872419021
-0.34  0.32  14.2082942806
-0.34  0.34  11.954327861
-0.34  0.36  10.0579247434
-0.34  0.38  8.46236202665
-0.34  0.4  7.119915181
-0.34  0.42  5.99043057067
-0.34  0.44  5.04012442702
-0.34  0.46  4.24057234954
-0.34  0.48  3.56785910985
-0.34  0.5  3.00186332845
-0.34  0.52  2.52565562855
-0.34  0.54  2.12499226517
-0.34  0.56  1.78788908352
-0.34  0.58  1.50426306363
-0.34  0.6  1.26563072924
-0.34  0.62  1.0648544005
-0.34  0.64  0.895928700257
-0.34  0.66  0.753800928624
-0.34  0.68  0.634219932716
-0.34  0.7  0.533608951355
-0.34  0.72  0.44895863135
-0.34  0.74  0.377737015377
-0.34  0.76  0.317813809163
-0.34  0.78  0.267396662712
-0.34  0.8  0.224977559716
-0.34  0.82  0.189287711606
-0.34  0.84  0.159259607092
-0.34  0.86  0.133995082069
-0.34  0.88  0.112738454818
-0.34  0.9  0.0948539229846
-0.34  0.92  0.0798065462229
-0.34  0.94  0.0671462457178
-0.34  0.96  0.056494341973
-0.34  0.98  0.0475322282109
-0.32  -1  0.0447299760435
-0.32  -0.98  0.0531637303397
-0.32  -0.96  0.063187653418
-0.32  -0.94  0.0751015686626
-0.32  -0.92  0.0892618306028
-0.32  -0.9  0.106091983756
-0.32  -0.88  0.126095431173
-0.32  -0.86  0.149870491624
-0.32  -0.84  0.178128295772
-0.32  -0.82  0.211714056656
-0.32  -0.8  0.251632350669
-0.32  -0.78  0.299077165225
-0.32  -0.76  0.355467611861
-0.32  -0.74  0.422490372968
-0.32  -0.72  0.502150151784
-0.32  -0.7  0.59682963464
-0.32  -0.68  0.709360758965
-0.32  -0.66  0.843109418759
-0.32  -0.64  1.00207614111
-0.32  -0.62  1.1910157451
-0.32  -0.6  1.41557956216
-0.32  -0.58  1.68248447179
-0.32  -0.56  1.99971380875
-0.32  -0.54  2.37675615076
-0.32  -0.52  2.82488912936
-0.32  -0.5  3.35751675268
-0.32  -0.48  3.99057032976
-0.32  -0.46  4.74298498856
-0.32  -0.44  5.63726604038
-0.32  -0.42  6.70016213137
-0.32  -0.4  7.96346531546
-0.32  -0.38  9.46496197961
-0.32  -0.36  11.2495630641
-0.32  -0.34  13.3706473842
-0.32  -0.32  15.8916582318
-0.32  -0.3  18.8880010144
-0.32  -0.28  22.4492986898
-0.32  -0.26  26.6820724584
-0.32  -0.24  31.7129278966
-0.32  -0.22  37.6923418277
-0.32  -0.2  26.7273029275
-0.32  -0.18  25.4677568883
-0.32  -0.16  24.0412080315
-0.32  -0.14  22.4854372911
-0.32  -0.12  20.8484323124
-0.32  -0.1  19.1913314807
-0.32  -0.08  17.5921228207
-0.32  -0.06  16.1489427361
-0.32  -0.04  14.9793147519
-0.32  -0.02  14.2080731995
-0.32  6.17561557e-16  13.9374831297
-0.32  0.02  14.2080731995
-0.32  0.04  14.9793147519
-0.32  0.06  16.1489427361
-0.32  0.08  17.5921228207
-0.32  0.1  19.1913314807
-0.32  0.12  20.8484323124
-0.32  0.14  22.4854372911
-0.32  0.16  24.0412080315
-0.32  0.18  25.4677568883
-0.32  0.2  44.799163202
-0.32  0.22  37.6923418277
-0.32  0.24  31.7129278966
-0.32  0.26  26.6820724584
-0.32  0.28  22.4492986898
-0.32  0.3  18.8880010144
-0.32  0.32  15.8916582318
-0.32  0.34  13.3706473842
-0.32  0.36  11.2495630641
-0.32  0.38  9.46496197961
-0.32  0.4  7.96346531546
-0.32  0.42  6.70016213137
-0.32  0.44  5.63726604038
-0.32  0.46  4.74298498856
-0.32  0.48  3.99057032976
-0.32  0.5  3.35751675268
-0.32  0.52  2.82488912936
-0.32  0.54  2.37675615076
-0.32  0.56  1.99971380875
-0.32  0.58  1.68248447179
-0.32  0.6  1.41557956216
-0.32  0.62  1.1910157451
-0.32  0.64  1.00207614111
-0.32  0.66  0.843109418759
-0.32  0.68  0.709360758965
-0.32  0.7  0.59682963464
-0.32  0.72  0.502150151784
-0.32  0.74  0.422490372968
-0.32  0.76  0.355467611861
-0.32  0.78  0.299077165225
-0.32  0.8  0.251632350669
-0.32  0.82  0.211714056656
-0.32  0.84  0.178128295772
-0.32  0.86  0.149870491624
-0.32  0.88  0.126095431173
-0.32  0.9  0.106091983756
-0.32  0.92  0.0892618306028
-0.32  0.94  0.0751015686626
-0.32  0.96  0.063187653418
-0.32  0.98  0.0531637303397
-0.3  -1  0.0500294741902
-0.3  -0.98  0.0594624390654
-0.3  -0.96  0.0706739720302
-0.3  -0.94  0.0839994188102
-0.3  -0.92  0.0998373539474
-0.3  -0.9  0.118661502477
-0.3  -0.88  0.141034909414
-0.3  -0.86  0.16762678087
-0.3  -0.84  0.199232500532
-0.3  -0.82  0.23679742021
-0.3  -0.8  0.281445136053
-0.3  -0.78  0.334511096182
-0.3  -0.76  0.397582544997
-0.3  -0.74  0.472545998894
-0.3  -0.72  0.561643673448
-0.3  -0.7  0.667540549834
-0.3  -0.68  0.793404086505
-0.3  -0.66  0.942998960346
-0.3  -0.64  1.12079967111
-0.3  -0.62  1.33212437721
-0.3  -0.6  1.583293966
-0.3  -0.58  1.88182111645
-0.3  -0.56  2.23663500926
-0.3  -0.54  2.65834840567
-0.3  -0.52  3.15957508339
-0.3  -0.5  3.75530712464
-0.3  -0.48  4.46336334102
-0.3  -0.46  5.30492224809
-0.3  -0.44  6.3051555314
-0.3  -0.42  7.49398095128
-0.3  -0.4  8.90695720643
-0.3  -0.38  10.5863475225
-0.3  -0.36  12.5823837782
-0.3  -0.34  14.95476898
-0.3  -0.32  17.7744630262
-0.3  -0.3  21.1258051723
-0.3  -0.28  25.1090366848
-0.3  -0.26  29.8432991357
-0.3  -0.24  35.4701980201
-0.3  -0.22  42.1580382874
-0.3  -0.2  29.8938884001
-0.3  -0.18  28.4851144272
-0.3  -0.16  26.8895515514
-0.3  -0.14  25.1494568993
-0.3  -0.12  23.318503575
-0.3  -0.1  21.4650734902
-0.3  -0.08  19.6763945
-0.3  -0.06  18.0622299692
-0.3  -0.04  16.7540273225
-0.3  -0.02  15.8914109575
-0.3  6.17561557e-16  15.5887620381
-0.3  0.02  15.8914109575
-0.3  0.04  16.7540273225
-0.3  0.06  18.0622299692
-0.3  0.08  19.6763945
-0.3  0.1  21.4650734902
-0.3  0.12  23.318503575
-0.3  0.14  25.1494568993
-0.3  0.16  26.8895515514
-0.3  0.18  28.4851144272
-0.3  0.2  50.106858474
-0.3  0.22  42.1580382874
-0.3  0.24  35.4701980201
-0.3  0.26  29.8432991357
-0.3  0.28  25.1090366848
-0.3  0.3  21.1258051723
-0.3  0.32  17.7744630262
-0.3  0.34  14.95476898
-0.3  0.36  12.5823837782
-0.3  0.38  10.5863475225
-0.3  0.4  8.90695720643
-0.3  0.42  7.49398095128
-0.3  0.44  6.3051555314
-0.3  0.46  5.30492224809
-0.3  0.48  4.46336334102
-0.3  0.5  3.75530712464
-0.3  0.52  3.15957508339
-0.3  0.54  2.65834840567
-0.3  0.56  2.23663500926
-0.3  0.58  1.88182111645
-0.3  0.6  1.583293966
-0.3  0.62  1.33212437721
-0.3  0.64  1.12079967111
-0.3  0.66  0.942998960346
-0.3  0.68  0.793404086505
-0.3  0.7  0.667540549834
-0.3  0.72  0.561643673448
-0.3  0.74  0.472545998894
-0.3  0.76  0.397582544997
-0.3  0.78  0.334511096182
-0.3  0.8  0.281445136053
-0.3  0.82  0.23679742021
-0.3  0.84  0.199232500532
-0.3  0.86  0.16762678087
-0.3  0.88  0.141034909414
-0.3  0.9  0.118661502477
-0.3  0.92  0.0998373539474
-0.3  0.94  0.0839994188102
-0.3  0.96  0.0706739720302
-0.3  0.98  0.0594624390654
-0.28  -1  0.0559568439141
-0.28  -0.98  0.0665074033935
-0.28  -0.96  0.0790472513593
-0.28  -0.94  0.093951464478
-0.28  -0.92  0.111665839429
-0.28  -0.9  0.13272022703
-0.28  -0.88  0.157744380493
-0.28  -0.86  0.187486791832
-0.28  -0.84  0.222837079848
-0.28  -0.82  0.264852599322
-0.28  -0.8  0.314790067323
-0.28  -0.78  0.374143152603
-0.28  -0.76  0.444687152393
-0.28  -0.74  0.528532092938
-0.28  -0.72  0.628185842029
-0.28  -0.7  0.746629121293
-0.28  -0.68  0.887404661911
-0.28  -0.66  1.05472317048
-0.28  -0.64  1.25358927453
-0.28  -0.62  1.48995121489
-0.28  -0.6  1.77087876216
-0.28  -0.58  2.10477467916
-0.28  -0.56  2.50162605408
-0.28  -0.54  2.97330302213
-0.28  -0.52  3.53391381057
-0.28  -0.5  4.20022672683
-0.28  -0.48  4.99217171173
-0.28  -0.46  5.93343645956
-0.28  -0.44  7.05217493559
-0.28  -0.42  8.3818494832
-0.28  -0.4  9.96223170875
-0.28  -0.38  11.8405920815
-0.28  -0.36  14.0731138302
-0.28  -0.34  16.7265734276
-0.28  -0.32  19.880337927
-0.28  -0.3  23.6287388928
-0.28  -0.28  28.0838939315
-0.28  -0.26  33.379060217
-0.28  -0.24  39.6726203171
-0.28  -0.22  47.15281954
-0.28  -0.2  33.4356431737
-0.28  -0.18  31.8599611064
-0.28  -0.16  30.0753598441
-0.28  -0.14  28.1291030341
-0.28  -0.12  26.0812228387
-0.28  -0.1  24.0082028911
-0.28  -0.08  22.0076055895
-0.28  -0.06  20.2021987936
-0.28  -0.04  18.7390034973
-0.28  -0.02  17.7741864554
-0.28  6.17561557e-16  17.4356804324
-0.28  0.02  17.7741864554
-0.28  0.04  18.7390034973
-0.28  0.06  20.2021987936
-0.28  0.08  22.0076055895
-0.28  0.1  24.0082028911
-0.28  0.12  26.0812228387
-0.28  0.14  28.1291030341
-0.28  0.16  30.0753598441
-0.28  0.18  31.8599611064
-0.28  0.2  56.0433964986
-0.28  0.22  47.15281954
-0.28  0.24  39.6726203171
-0.28  0.26  33.379060217
-0.28  0.28  28.0838939315
-0.28  0.3  23.6287388928
-0.28  0.32  19.880337927
-0.28  0.34  16.7265734276
-0.28  0.36  14.0731138302
-0.28  0.38  11.8405920815
-0.28  0.4  9.96223170875
-0.28  0.42  8.3818494832
-0.28  0.44  7.05217493559
-0.28  0.46  5.93343645956
-0.28  0.48  4.99217171173
-0.28  0.5  4.20022672683
-0.28  0.52  3.53391381057
-0.28  0.54  2.97330302213
-0.28  0.56  2.50162605408
-0.28  0.58  2.10477467916
-0.28  0.6  1.77087876216
-0.28  0.62  1.48995121489
-0.28  0.64  1.25358927453
-0.28  0.66  1.05472317048
-0.28  0.68  0.887404661911
-0.28  0.7  0.746629121293
-0.28  0.72  0.628185842029
-0.28  0.74  0.528532092938
-0.28  0.76  0.444687152393
-0.28  0.78  0.374143152603
-0.28  0.8  0.314790067323
-0.28  0.82  0.264852599322
-0.28  0.84  0.222837079848
-0.28  0.86  0.187486791832
-0.28  0.88  0.157744380493
-0.28  0.9  0.13272022703
-0.28  0.92  0.111665839429
-0.28  0.94  0.093951464478
-0.28  0.96  0.0790472513593
-0.28  0.98  0.0665074033935
-0.26  -1  0.0625864739038
-0.26  -0.98  0.0743870378624
-0.26  -0.96  0.0884125763411
-0.26  -0.94  0.105082604173
-0.26  -0.92  0.124895734936
-0.26  -0.9  0.148444594879
-0.26  -0.88  0.176433548832
-0.26  -0.86  0.209699768313
-0.26  -0.84  0.249238271982
-0.26  -0.82  0.296231687428
-0.26  -0.8  0.352085624485
-0.26  -0.78  0.418470718124
-0.26  -0.76  0.49737259845
-0.26  -0.74  0.591151282456
-0.26  -0.72  0.702611763974
-0.26  -0.7  0.835087913238
-0.26  -0.68  0.992542195554
-0.26  -0.66  1.17968419173
-0.26  -0.64  1.40211146535
-0.26  -0.62  1.66647699023
-0.26  -0.6  1.98068814612
-0.26  -0.58  2.35414323462
-0.26  -0.56  2.79801258969
-0.26  -0.54  3.32557269113
-0.26  -0.52  3.95260327446
-0.26  -0.5  4.69785931516
-0.26  -0.48  5.58363200468
-0.26  -0.46  6.63641549738
-0.26  -0.44  7.88769937148
-0.26  -0.42  9.37491050695
-0.26  -0.4  11.1425325528
-0.26  -0.38  13.2434364678
-0.26  -0.36  15.7404619322
-0.26  -0.34  18.7082969321
-0.26  -0.32  22.2357117349
-0.26  -0.3  26.4282140781
-0.26  -0.28  31.4112049879
-0.26  -0.26  37.3337296223
-0.26  -0.24  44.3729353282
-0.26  -0.22  52.7393702575
-0.26  -0.2  37.3970163892
-0.26  -0.18  35.634651365
-0.26  -0.16  33.6386149104
-0.26  -0.14  31.4617703543
-0.26  -0.12  29.1712623227
-0.26  -0.1  26.8526360427
-0.26  -0.08  24.6150128665
-0.26  -0.06  22.5957058896
-0.26  -0.04  20.9591547938
-0.26  -0.02  19.8800285888
-0.26  6.17561557e-16  19.5014172003
-0.26  0.02  19.8800285888
-0.26  0.04  20.9591547938
-0.26  0.06  22.5957058896
-0.26  0.08  24.6150128665
-0.26  0.1  26.8526360427
-0.26  0.12  29.1712623227
-0.26  0.14  31.4617703543
-0.26  0.16  33.6386149104
-0.26  0.18  35.634651365
-0.26  0.2  62.6832810268
-0.26  0.22  52.7393702575
-0.26  0.24  44.3729353282
-0.26  0.26  37.3337296223
-0.26  0.28  31.4112049879
-0.26  0.3  26.4282140781
-0.26  0.32  22.2357117349
-0.26  0.34  18.7082969321
-0.26  0.36  15.7404619322
-0.26  0.38  13.2434364678
-0.26  0.4  11.1425325528
-0.26  0.42  9.37491050695
-0.26  0.44  7.88769937148
-0.26  0.46  6.63641549738
-0.26  0.48  5.58363200468
-0.26  0.5  4.69785931516
-0.26  0.52  3.95260327446
-0.26  0.54  3.32557269113
-0.26  0.56  2.79801258969
-0.26  0.58  2.35414323462
-0.26  0.6  1.98068814612
-0.26  0.62  1.66647699023
-0.26  0.64  1.40211146535
-0.26  0.66  1.17968419173
-0.26  0.68  0.992542195554
-0.26  0.7  0.835087913238
-0.26  0.72  0.702611763974
-0.26  0.74  0.591151282456
-0.26  0.76  0.49737259845
-0.26  0.78  0.418470718124
-0.26  0.8  0.352085624485
-0.26  0.82  0.296231687428
-0.26  0.84  0.249238271982
-0.26  0.86  0.209699768313
-0.26  0.88  0.176433548832
-0.26  0.9  0.148444594879
-0.26  0.92  0.124895734936
-0.26  0.94  0.105082604173
-0.26  0.96  0.0884125763411
-0.26  0.98  0.0743870378624
-0.24  -1  0.0700015662378
-0.24  -0.98  0.0832002321486
-0.24  -0.96  0.0988874821181
-0.24  -0.94  0.11753253407
-0.24  -0.92  0.139693076101
-0.24  -0.9  0.166031947366
-0.24  -0.88  0.197336964119
-0.24  -0.86  0.234544483911
-0.24  -0.84  0.278767412779
-0.24  -0.82  0.331328493135
-0.24  -0.8  0.39379986803
-0.24  -0.78  0.468050105177
-0.24  -0.76  0.556300087281
-0.24  -0.74  0.661189440373
-0.24  -0.72  0.785855487096
-0.24  -0.7  0.934027086472
-0.24  -0.68  1.110136167
-0.24  -0.66  1.31945028912
-0.24  -0.64  1.56823020203
-0.24  -0.62  1.86391710762
-0.24  -0.6  2.21535523267
-0.24  -0.58  2.63305636653
-0.24  -0.56  3.12951427703
-0.24  -0.54  3.71957840882
-0.24  -0.52  4.42089804187
-0.24  -0.5  5.25445019529
-0.24  -0.48  6.24516706635
-0.24  -0.46  7.42268177203
-0.24  -0.44  8.82221469874
-0.24  -0.42  10.4856269716
-0.24  -0.4  12.4626725536
-0.24  -0.38  14.8124864254
-0.24  -0.36  17.6053533589
-0.24  -0.34  20.9248101898
-0.24  -0.32  24.87014447
-0.24  -0.3  29.5593642354
-0.24  -0.28  35.1327277192
-0.24  -0.26  41.7569385851
-0.24  -0.24  49.6301321643
-0.24  -0.22  58.9878018387
-0.24  -0.2  41.8277234134
-0.24  -0.18  39.856557692
-0.24  -0.16  37.6240357209
-0.24  -0.14  35.1892839466
-0.24  -0.12  32.6274021263
-0.24  -0.1  30.0340706762
-0.24  -0.08  27.5313393796
-0.24  -0.06  25.2727898516
-0.24  -0.04  23.4423441851
-0.24  -0.02  22.235365747
-0.24  6.17561557e-16  21.8118974073
-0.24  0.02  22.235365747
-0.24  0.04  23.4423441851
-0.24  0.06  25.2727898516
-0.24  0.08  27.5313393796
-0.24  0.1  30.0340706762
-0.24  0.12  32.6274021263
-0.24  0.14  35.1892839466
-0.24  0.16  37.6240357209
-0.24  0.18  39.856557692
-0.24  0.2  70.1098428319
-0.24  0.22  58.9878018387
-0.24  0.24  49.6301321643
-0.24  0.26  41.7569385851
-0.24  0.28  35.1327277192
-0.24  0.3  29.5593642354
-0.24  0.32  24.87014447
-0.24  0.34  20.9248101898
-0.24  0.36  17.6053533589
-0.24  0.38  14.8124864254
-0.24  0.4  12.4626725536
-0.24  0.42  10.4856269716
-0.24  0.44  8.82221469874
-0.24  0.46  7.42268177203
-0.24  0.48  6.24516706635
-0.24  0.5  5.25445019529
-0.24  0.52  4.42089804187
-0.24  0.54  3.71957840882
-0.24  0.56  3.12951427703
-0.24  0.58  2.63305636653
-0.24  0.6  2.21535523267
-0.24  0.62  1.86391710762
-0.24  0.64  1.56823020203
-0.24  0.66  1.31945028912
-0.24  0.68  1.110136167
-0.24  0.7  0.934027086472
-0.24  0.72  0.785855487096
-0.24  0.74  0.661189440373
-0.24  0.76  0.556300087281
-0.24  0.78  0.468050105177
-0.24  0.8  0.39379986803
-0.24  0.82  0.331328493135
-0.24  0.84  0.278767412779
-0.24  0.86  0.234544483911
-0.24  0.88  0.197336964119
-0.24  0.9  0.166031947366
-0.24  0.92  0.139693076101
-0.24  0.94  0.11753253407
-0.24  0.96  0.0988874821181
-0.24  0.98  0.0832002321486
-0.22  -1  0.0782951805733
-0.22  -0.98  0.0930575921357
-0.22  -0.96  0.110603429109
-0.22  -0.94  0.131457501208
-0.22  -0.92  0.156243570051
-0.22  -0.9  0.185703006356
-0.22  -0.88  0.220716964918
-0.22  -0.86  0.262332740641
-0.22  -0.84  0.311795093946
-0.22  -0.82  0.370583482532
-0.22  -0.8  0.440456313111
-0.22  -0.78  0.523503536731
-0.22  -0.76  0.622209160844
-0.22  -0.74  0.739525547919
-0.22  -0.72  0.878961722909
-0.22  -0.7  1.04468833093
-0.22  -0.68  1.24166238454
-0.22  -0.66  1.47577553184
-0.22  -0.64  1.75403028028
-0.22  -0.62  2.08474944717
-0.22  -0.6  2.47782510161
-0.22  -0.58  2.94501444406
-0.22  -0.56  3.5002914734
-0.22  -0.54  4.16026496015
-0.22  -0.52  4.94467522782
-0.22  -0.5  5.8769846014
-0.22  -0.48  6.98507918393
-0.22  -0.46  8.3021029516
-0.22  -0.44  9.86744911604
-0.22  -0.42  11.7279384061
-0.22  -0.4  13.9392195126
-0.22  -0.38  16.5674335839
-0.22  -0.36  19.69119256
-0.22  -0.34  23.4039305165
-0.22  -0.32  27.8166983514
-0.22  -0.3  33.0614854042
-0.22  -0.28  39.2951673604
-0.22  -0.26  46.7041985261
-0.22  -0.24  55.5101888218
-0.22  -0.22  65.9765323093
-0.22  -0.2  46.7833697677
-0.22  -0.18  44.5786651534
-0.22  -0.16  42.0816394401
-0.22  -0.14  39.3584242313
-0.22  -0.12  36.4930169196
-0.22  -0.1  33.5924339029
-0.22  -0.08  30.7931851243
-0.22  -0.06  28.2670481729
-0.22  -0.04  26.2197357813
-0.22  -0.02  24.8697574903
-0.22  6.17561557e-16  24.3961176576
-0.22  0.02  24.8697574903
-0.22  0.04  26.2197357813
-0.22  0.06  28.2670481729
-0.22  0.08  30.7931851243
-0.22  0.1  33.5924339029
-0.22  0.12  36.4930169196
-0.22  0.14  39.3584242313
-0.22  0.16  42.0816394401
-0.22  0.18  44.5786651534
-0.22  0.2  78.4162855134
-0.22  0.22  65.9765323093
-0.22  0.24  55.5101888218
-0.22  0.26  46.7041985261
-0.22  0.28  39.2951673604
-0.22  0.3  33.0614854042
-0.22  0.32  27.8166983514
-0.22  0.34  23.4039305165
-0.22  0.36  19.69119256
-0.22  0.38  16.5674335839
-0.22  0.4  13.9392195126
-0.22  0.42  11.7279384061
-0.22  0.44  9.86744911604
-0.22  0.46  8.3021029516
-0.22  0.48  6.98507918393
-0.22  0.5  5.8769846014
-0.22  0.52  4.94467522782
-0.22  0.54  4.16026496015
-0.22  0.56  3.5002914734
-0.22  0.58  2.94501444406
-0.22  0.6  2.47782510161
-0.22  0.62  2.08474944717
-0.22  0.64  1.75403028028
-0.22  0.66  1.47577553184
-0.22  0.68  1.24166238454
-0.22  0.7  1.04468833093
-0.22  0.72  0.878961722909
-0.22  0.74  0.739525547919
-0.22  0.76  0.622209160844
-0.22  0.78  0.523503536731
-0.22  0.8  0.440456313111
-0.22  0.82  0.370583482532
-0.22  0.84  0.311795093946
-0.22  0.86  0.262332740641
-0.22  0.88  0.220716964918
-0.22  0.9  0.185703006356
-0.22  0.92  0.156243570051
-0.22  0.94  0.131457501208
-0.22  0.96  0.110603429109
-0.22  0.98  0.0930575921357
-0.2  -1  0.0875714020481
-0.2  -0.98  0.104082828022
-0.2  -0.96  0.12370745284
-0.2  -0.94  0.14703226439
-0.2  -0.92  0.17475492604
-0.2  -0.9  0.207704644297
-0.2  -0.88  0.246866971021
-0.2  -0.86  0.293413282054
-0.2  -0.84  0.348735813988
-0.2  -0.82  0.41448930705
-0.2  -0.8  0.492640499679
-0.2  -0.78  0.585526955209
-0.2  -0.76  0.695926980222
-0.2  -0.74  0.827142725867
-0.2  -0.72  0.983098957792
-0.2  -0.7  1.16846044895
-0.2  -0.68  1.38877150661
-0.2  -0.66  1.65062180693
-0.2  -0.64  1.96184349732
-0.2  -0.62  2.33174546212
-0.2  -0.6  2.77139175859
-0.2  -0.58  3.29393255153
-0.2  -0.56  3.91499744503
-0.2  -0.54  4.65316297612
-0.2  -0.52  5.53050825353
-0.2  -0.5  6.57327536116
-0.2  -0.48  7.81265427929
-0.2  -0.46  9.28571580135
-0.2  -0.44  11.0365203503
-0.2  -0.42  13.1174358605
-0.2  -0.4  15.5907041434
-0.2  -0.38  18.530302589
-0.2  -0.36  22.0241568875
-0.2  -0.34  26.1767709552
-0.2  -0.32  31.112352729
-0.2  -0.3  36.9785293225
-0.2  -0.28  43.9507626686
-0.2  -0.26  52.2375977233
-0.2  -0.24  62.0869002088
-0.2  -0.22  73.7932704706
-0.2  -0.2  52.32614898
-0.2  -0.18  49.8602363559
-0.2  -0.16  47.0673691442
-0.2  -0.14  44.0215140588
-0.2  -0.12  40.8166202979
-0.2  -0.1  37.5723833006
-0.2  -0.08  34.4414863739
-0.2  -0.06  31.6160588958
-0.2  -0.04  29.32618594
-0.2  -0.02  27.8162655233
-0.2  6.17561557e-16  27.2865100018
-0.2  0.02  27.8162655233
-0.2  0.04  29.32618594
-0.2  0.06  31.6160588958
-0.2  0.08  34.4414863739
-0.2  0.1  37.5723833006
-0.2  0.12  40.8166202979
-0.2  0.14  44.0215140588
-0.2  0.16  47.0673691442
-0.2  0.18  49.8602363559
-0.2  0.2  87.7068552053
-0.2  0.22  73.7932704706
-0.2  0.24  62.0869002088
-0.2  0.26  52.2375977233
-0.2  0.28  43.9507626686
-0.2  0.3  36.9785293225
-0.2  0.32  31.112352729
-0.2  0.34  26.1767709552
-0.2  0.36  22.0241568875
-0.2  0.38  18.530302589
-0.2  0.4  15.5907041434
-0.2  0.42  13.1174358605
-0.2  0.44  11.0365203503
-0.2  0.46  9.28571580135
-0.2  0.48  7.81265427929
-0.2  0.5  6.57327536116
-0.2  0.52  5.53050825353
-0.2  0.54  4.65316297612
-0.2  0.56  3.91499744503
-0.2  0.58  3.29393255153
-0.2  0.6  2.77139175859
-0.2  0.62  2.33174546212
-0.2  0.64  1.96184349732
-0.2  0.66  1.65062180693
-0.2  0.68  1.38877150661
-0.2  0.7  1.16846044895
-0.2  0.72  0.983098957792
-0.2  0.74  0.827142725867
-0.2  0.76  0.695926980222
-0.2  0.78  0.585526955209
-0.2  0.8  0.492640499679
-0.2  0.82  0.41448930705
-0.2  0.84  0.348735813988
-0.2  0.86  0.293413282054
-0.2  0.88  0.246866971021
-0.2  0.9  0.207704644297
-0.2  0.92  0.17475492604
-0.2  0.94  0.14703226439
-0.2  0.96  0.12370745284
-0.2  0.98  0.104082828022
-0.18  -1  0.0979466475525
-0.18  -0.98  0.116414306887
-0.18  -0.96  0.138364009249
-0.18  -0.94  0.164452287416
-0.18  -0.92  0.195459462206
-0.18  -0.9  0.232312982483
-0.18  -0.88  0.276115165881
-0.18  -0.86  0.328176169988
-0.18  -0.84  0.390053180179
-0.18  -0.82  0.463596986259
-0.18  -0.8  0.551007341023
-0.18  -0.78  0.654898756592
-0.18  -0.76  0.778378706516
-0.18  -0.74  0.925140572736
-0.18  -0.72  1.09957411753
-0.18  -0.7  1.30689678474
-0.18  -0.68  1.55330975761
-0.18  -0.66  1.84618344099
-0.18  -0.64  2.19427791597
-0.18  -0.62  2.60800496074
-0.18  -0.6  3.09973947498
-0.18  -0.58  3.68418962288
-0.18  -0.56  4.37883676576
-0.18  -0.54  5.20445834333
-0.18  -0.52  6.18574934311
-0.18  -0.5  7.35206094692
-0.18  -0.48  8.7382784476
-0.18  -0.46  10.3858646955
-0.18  -0.44  12.3441002848
-0.18  -0.42  14.6715575744
-0.18  -0.4  17.4378526336
-0.18  -0.38  20.7257275124
-0.18  -0.36  24.6335251217
-0.18  -0.34  29.2781307464
-0.18  -0.32  34.7984681758
-0.18  -0.3  41.3596550226
-0.18  -0.28  49.1579415206
-0.18  -0.26  58.426580522
-0.18  -0.24  69.4428042734
-0.18  -0.22  82.5361166487
-0.18  -0.2  58.525623115
-0.18  -0.18  55.7675551952
-0.18  -0.16  52.6437959079
-0.18  -0.14  49.2370753625
-0.18  -0.12  45.6524736284
-0.18  -0.1  42.0238673674
-0.18  -0.08  38.5220294315
-0.18  -0.06  35.361852217
-0.18  -0.04  32.8006807148
-0.18  -0.02  31.1118686206
-0.18  6.17561557e-16  30.5193489607
-0.18  0.02  31.1118686206
-0.18  0.04  32.8006807148
-0.18  0.06  35.361852217
-0.18  0.08  38.5220294315
-0.18  0.1  42.0238673674
-0.18  0.12  45.6524736284
-0.18  0.14  49.2370753625
-0.18  0.16  52.6437959079
-0.18  0.18  55.7675551952
-0.18  0.2  98.0981488684
-0.18  0.22  82.5361166487
-0.18  0.24  69.4428042734
-0.18  0.26  58.426580522
-0.18  0.28  49.1579415206
-0.18  0.3  41.3596550226
-0.18  0.32  34.7984681758
-0.18  0.34  29.2781307464
-0.18  0.36  24.6335251217
-0.18  0.38  20.7257275124
-0.18  0.4  17.4378526336
-0.18  0.42  14.6715575744
-0.18  0.44  12.3441002848
-0.18  0.46  10.3858646955
-0.18  0.48  8.7382784476
-0.18  0.5  7.35206094692
-0.18  0.52  6.18574934311
-0.18  0.54  5.20445834333
-0.18  0.56  4.37883676576
-0.18  0.58  3.68418962288
-0.18  0.6  3.09973947498
-0.18  0.62  2.60800496074
-0.18  0.64  2.19427791597
-0.18  0.66  1.84618344099
-0.18  0.68  1.55330975761
-0.18  0.7  1.30689678474
-0.18  0.72  1.09957411753
-0.18  0.74  0.925140572736
-0.18  0.76  0.778378706516
-0.18  0.78  0.654898756592
-0.18  0.8  0.551007341023
-0.18  0.82  0.463596986259
-0.18  0.84  0.390053180179
-0.18  0.86  0.328176169988
-0.18  0.88  0.276115165881
-0.18  0.9  0.232312982483
-0.18  0.92  0.195459462206
-0.18  0.94  0.164452287416
-0.18  0.96  0.138364009249
-0.18  0.98  0.116414306887
-0.16  -1  0.109551126765
-0.16  -0.98  0.130206789203
-0.16  -0.96  0.15475703861
-0.16  -0.94  0.183936192159
-0.16  -0.92  0.21861702117
-0.16  -0.9  0.259836856381
-0.16  -0.88  0.308828615323
-0.16  -0.86  0.367057679849
-0.16  -0.84  0.43626572685
-0.16  -0.82  0.518522823176
-0.16  -0.8  0.616289342956
-0.16  -0.78  0.732489559311
-0.16  -0.76  0.870599111656
-0.16  -0.74  1.03474896479
-0.16  -0.72  1.22984896928
-0.16  -0.7  1.46173471897
-0.16  -0.68  1.7373420981
-0.16  -0.66  2.06491473909
-0.16  -0.64  2.45425059599
-0.16  -0.62  2.91699500899
-0.16  -0.6  3.46698902564
-0.16  -0.58  4.12068339742
-0.16  -0.56  4.8976306346
-0.16  -0.54  5.82106983711
-0.16  -0.52  6.91862179419
-0.16  -0.5  8.22311514387
-0.16  -0.48  9.77356830318
-0.16  -0.46  11.6163565395
-0.16  -0.44  13.8065990913
-0.16  -0.42  16.4098078274
-0.16  -0.4  19.5038467585
-0.16  -0.38  23.1812610104
-0.16  -0.36  27.5520449216
-0.16  -0.34  32.7469320594
-0.16  -0.32  38.921305564
-0.16  -0.3  46.259845779
-0.16  -0.28  54.9820541857
-0.16  -0.26  65.3488188638
-0.16  -0.24  77.6702178582
-0.16  -0.22  92.3147938559
-0.16  -0.2  65.4595957809
-0.16  -0.18  62.3747587205
-0.16  -0.16  58.880904074
-0.16  -0.14  55.0705636116
-0.16  -0.12  51.0612670324
-0.16  -0.1  47.0027523776
-0.16  -0.08  43.0860252489
-0.16  -0.06  39.5514379683
-0.16  -0.04  36.6868251314
-0.16  -0.02  34.7979267113
-0.16  6.17561557e-16  34.1352067715
-0.16  0.02  34.7979267113
-0.16  0.04  36.6868251314
-0.16  0.06  39.5514379683
-0.16  0.08  43.0860252489
-0.16  0.1  47.0027523776
-0.16  0.12  51.0612670324
-0.16  0.14  55.0705636116
-0.16  0.16  58.880904074
-0.16  0.18  62.3747587205
-0.16  0.2  109.720577586
-0.16  0.22  92.3147938559
-0.16  0.24  77.6702178582
-0.16  0.26  65.3488188638
-0.16  0.28  54.9820541857
-0.16  0.3  46.259845779
-0.16  0.32  38.921305564
-0.16  0.34  32.7469320594
-0.16  0.36  27.5520449216
-0.16  0.38  23.1812610104
-0.16  0.4  19.5038467585
-0.16  0.42  16.4098078274
-0.16  0.44  13.8065990913
-0.16  0.46  11.6163565395
-0.16  0.48  9.77356830318
-0.16  0.5  8.22311514387
-0.16  0.52  6.91862179419
-0.16  0.54  5.82106983711
-0.16  0.56  4.8976306346
-0.16  0.58  4.12068339742
-0.16  0.6  3.46698902564
-0.16  0.62  2.91699500899
-0.16  0.64  2.45425059599
-0.16  0.66  2.06491473909
-0.16  0.68  1.7373420981
-0.16  0.7  1.46173471897
-0.16  0.72  1.22984896928
-0.16  0.74  1.03474896479
-0.16  0.76  0.870599111656
-0.16  0.78  0.732489559311
-0.16  0.8  0.616289342956
-0.16  0.82  0.518522823176
-0.16  0.84  0.43626572685
-0.16  0.86  0.367057679849
-0.16  0.88  0.308828615323
-0.16  0.9  0.259836856381
-0.16  0.92  0.21861702117
-0.16  0.94  0.183936192159
-0.16  0.96  0.15475703861
-0.16  0.98  0.130206789203
-0.14  -1  0.122530476289
-0.14  -0.98  0.145633371086
-0.14  -0.96  0.17309227399
-0.14  -0.94  0.205728502276
-0.14  -0.92  0.244518231075
-0.14  -0.9  0.290621691533
-0.14  -0.88  0.345417874235
-0.14  -0.86  0.41054577589
-0.14  -0.84  0.487953423008
-0.14  -0.82  0.579956138896
-0.14  -0.8  0.689305796791
-0.14  -0.78  0.81927313054
-0.14  -0.76  0.973745564813
-0.14  -0.74  1.15734349101
-0.14  -0.72  1.37555846681
-0.14  -0.7  1.63491747289
-0.14  -0.68  1.94317814014
-0.14  -0.66  2.30956078634
-0.14  -0.64  2.7450242032
-0.14  -0.62  3.26259344233
-0.14  -0.6  3.87774940472
-0.14  -0.58  4.60889188666
-0.14  -0.56  5.47788993199
-0.14  -0.54  6.51073595236
-0.14  -0.52  7.73832318058
-0.14  -0.5  9.19736971138
-0.14  -0.48  10.9315167684
-0.14  -0.46  12.9926340473
-0.14  -0.44  15.4423711791
-0.14  -0.42  18.3540017184
-0.14  -0.4  21.8146148137
-0.14  -0.38  25.9277201107
-0.14  -0.36  30.8163438082
-0.14  -0.34  36.6267084668
-0.14  -0.32  43.5326066409
-0.14  -0.3  51.7405991497
-0.14  -0.28  61.4961934728
-0.14  -0.26  73.0911870716
-0.14  -0.24  86.8723952792
-0.14  -0.22  103.252024819
-0.14  -0.2  73.2150885669
-0.14  -0.18  69.7647675575
-0.14  -0.16  65.8569695588
-0.14  -0.14  61.595189279
-0.14  -0.12  57.1108810483
-0.14  -0.1  52.5715235049
-0.14  -0.08  48.1907521268
-0.14  -0.06  44.2373955912
-0.14  -0.04  41.0333904326
-0.14  -0.02  38.9206999481
-0.14  6.17561557e-16  38.1794625709
-0.14  0.02  38.9206999481
-0.14  0.04  41.0333904326
-0.14  0.06  44.2373955912
-0.14  0.08  48.1907521268
-0.14  0.1  52.5715235049
-0.14  0.12  57.1108810483
-0.14  0.14  61.595189279
-0.14  0.16  65.8569695588
-0.14  0.18  69.7647675575
-0.14  0.2  122.720003229
-0.14  0.22  103.252024819
-0.14  0.24  86.8723952792
-0.14  0.26  73.0911870716
-0.14  0.28  61.4961934728
-0.14  0.3  51.7405991497
-0.14  0.32  43.5326066409
-0.14  0.34  36.6267084668
-0.14  0.36  30.8163438082
-0.14  0.38  25.9277201107
-0.14  0.4  21.8146148137
-0.14  0.42  18.3540017184
-0.14  0.44  15.4423711791
-0.14  0.46  12.9926340473
-0.14  0.48  10.9315167684
-0.14  0.5  9.19736971138
-0.14  0.52  7.73832318058
-0.14  0.54  6.51073595236
-0.14  0.56  5.47788993199
-0.14  0.58  4.60889188666
-0.14  0.6  3.87774940472
-0.14  0.62  3.26259344233
-0.14  0.64  2.7450242032
-0.14  0.66  2.30956078634
-0.14  0.68  1.94317814014
-0.14  0.7  1.63491747289
-0.14  0.72  1.37555846681
-0.14  0.74  1.15734349101
-0.14  0.76  0.973745564813
-0.14  0.78  0.81927313054
-0.14  0.8  0.689305796791
-0.14  0.82  0.579956138896
-0.14  0.84  0.487953423008
-0.14  0.86  0.41054577589
-0.14  0.88  0.345417874235
-0.14  0.9  0.290621691533
-0.14  0.92  0.244518231075
-0.14  0.94  0.205728502276
-0.14  0.96  0.17309227399
-0.14  0.98  0.145633371086
-0.12  -1  0.137047587395
-0.12  -0.98  0.162887656655
-0.12  -0.96  0.193599823207
-0.12  -0.94  0.230102711989
-0.12  -0.92  0.273488152971
-0.12  -0.9  0.32505383865
-0.12  -0.88  0.38634213904
-0.12  -0.86  0.459186235172
-0.12  -0.84  0.545764950972
-0.12  -0.82  0.648667923589
-0.12  -0.8  0.770973061469
-0.12  -0.78  0.916338607005
-0.12  -0.76  1.08911255743
-0.12  -0.74  1.29446271683
-0.12  -0.72  1.53853126917
-0.12  -0.7  1.82861849588
-0.12  -0.68  2.17340113293
-0.12  -0.66  2.58319189884
-0.12  -0.64  3.07024795614
-0.12  -0.62  3.64913753267
-0.12  -0.6  4.33717566875
-0.12  -0.58  5.15494212348
-0.12  -0.56  6.12689693155
-0.12  -0.54  7.28211202195
-0.12  -0.52  8.65514078213
-0.12  -0.5  10.2870515769
-0.12  -0.48  12.2266561353
-0.12  -0.46  14.5319695477
-0.12  -0.44  17.2719455424
-0.12  -0.42  20.5285389459
-0.12  -0.4  24.3991570156
-0.12  -0.38  28.9995729671
-0.12  -0.36  34.4673888421
-0.12  -0.34  40.9661512926
-0.12  -0.32  48.6902433897
-0.12  -0.3  57.8706987731
-0.12  -0.28  68.7821120483
-0.12  -0.26  81.7508521259
-0.12  -0.24  97.1648241715
-0.12  -0.22  115.485072152
-0.12  -0.2  81.8894331673
-0.12  -0.18  78.0303265646
-0.12  -0.16  73.659542218
-0.12  -0.14  68.8928366354
-0.12  -0.12  63.8772385348
-0.12  -0.1  58.8000690134
-0.12  -0.08  53.9002745583
-0.12  -0.06  49.4785340108
-0.12  -0.04  45.8949261583
-0.12  -0.02  43.5319292732
-0.12  6.17561557e-16  42.7028719047
-0.12  0.02  43.5319292732
-0.12  0.04  45.8949261583
-0.12  0.06  49.4785340108
-0.12  0.08  53.9002745583
-0.12  0.1  58.8000690134
-0.12  0.12  63.8772385348
-0.12  0.14  68.8928366354
-0.12  0.16  73.659542218
-0.12  0.18  78.0303265646
-0.12  0.2  137.259569023
-0.12  0.22  115.485072152
-0.12  0.24  97.1648241714
-0.12  0.26  81.7508521259
-0.12  0.28  68.7821120483
-0.12  0.3  57.8706987731
-0.12  0.32  48.6902433897
-0.12  0.34  40.9661512926
-0.12  0.36  34.4673888421
-0.12  0.38  28.9995729671
-0.12  0.4  24.3991570156
-0.12  0.42  20.5285389459
-0.12  0.44  17.2719455424
-0.12  0.46  14.5319695477
-0.12  0.48  12.2266561353
-0.12  0.5  10.2870515769
-0.12  0.52  8.65514078213
-0.12  0.54  7.28211202195
-0.12  0.56  6.12689693155
-0.12  0.58  5.15494212348
-0.12  0.6  4.33717566875
-0.12  0.62  3.64913753267
-0.12  0.64  3.07024795614
-0.12  0.66  2.58319189884
-0.12  0.68  2.17340113293
-0.12  0.7  1.82861849588
-0.12  0.72  1.53853126917
-0.12  0.74  1.29446271683
-0.12  0.76  1.08911255743
-0.12  0.78  0.916338607005
-0.12  0.8  0.770973061469
-0.12  0.82  0.648667923589
-0.12  0.84  0.545764950972
-0.12  0.86  0.459186235172
-0.12  0.88  0.38634213904
-0.12  0.9  0.32505383865
-0.12  0.92  0.273488152971
-0.12  0.94  0.230102711989
-0.12  0.96  0.193599823207
-0.12  0.98  0.162887656655
-0.1  -1  0.153284650315
-0.1  -0.98  0.182186187773
-0.1  -0.96  0.216537056692
-0.1  -0.94  0.257364718446
-0.1  -0.92  0.30589036035
-0.1  -0.9  0.363565422332
-0.1  -0.88  0.432115010633
-0.1  -0.86  0.51358949709
-0.1  -0.84  0.610425847356
-0.1  -0.82  0.725520512456
-0.1  -0.8  0.862316063898
-0.1  -0.78  1.02490416369
-0.1  -0.76  1.21814794914
-0.1  -0.74  1.4478274931
-0.1  -0.72  1.72081269051
-0.1  -0.7  2.04526874224
-0.1  -0.68  2.43090038276
-0.1  -0.66  2.88924215622
-0.1  -0.64  3.43400342378
-0.1  -0.62  4.08147842131
-0.1  -0.6  4.85103363272
-0.1  -0.58  5.76568705665
-0.1  -0.56  6.85279669287
-0.1  -0.54  8.14487884138
-0.1  -0.52  9.68058069047
-0.1  -0.5  11.5058362844
-0.1  -0.48  13.6752404463
-0.1  -0.46  16.2536817527
-0.1  -0.44  19.318283401
-0.1  -0.42  22.9607100249
-0.1  -0.4  27.2899094555
-0.1  -0.38  32.4353714358
-0.1  -0.36  38.5510007607
-0.1  -0.34  45.8197206896
-0.1  -0.32  54.4589443243
-0.1  -0.3  64.727077605
-0.1  -0.28  76.9312484344
-0.1  -0.26  91.4364931133
-0.1  -0.24  108.676674862
-0.1  -0.22  129.16746101
-0.1  -0.2  91.5914928975
-0.1  -0.18  87.2751687843
-0.1  -0.16  82.3865445998
-0.1  -0.14  77.0550913998
-0.1  -0.12  71.4452575049
-0.1  -0.1  65.766557358
-0.1  -0.08  60.2862472414
-0.1  -0.06  55.3406296898
-0.1  -0.04  51.332444745
-0.1  -0.02  48.6894857691
-0.1  6.17561557e-16  47.7622037116
-0.1  0.02  48.6894857691
-0.1  0.04  51.332444745
-0.1  0.06  55.3406296898
-0.1  0.08  60.2862472414
-0.1  0.1  65.766557358
-0.1  0.12  71.4452575049
-0.1  0.14  77.0550913997
-0.1  0.16  82.3865445998
-0.1  0.18  87.2751687843
-0.1  0.2  153.521747008
-0.1  0.22  129.16746101
-0.1  0.24  108.676674862
-0.1  0.26  91.4364931133
-0.1  0.28  76.9312484344
-0.1  0.3  64.727077605
-0.1  0.32  54.4589443243
-0.1  0.34  45.8197206896
-0.1  0.36  38.5510007607
-0.1  0.38  32.4353714358
-0.1  0.4  27.2899094555
-0.1  0.42  22.9607100249
-0.1  0.44  19.318283401
-0.1  0.46  16.2536817527
-0.1  0.48  13.6752404463
-0.1  0.5  11.5058362844
-0.1  0.52  9.68058069047
-0.1  0.54  8.14487884138
-0.1  0.56  6.85279669287
-0.1  0.58  5.76568705665
-0.1  0.6  4.85103363272
-0.1  0.62  4.08147842131
-0.1  0.64  3.43400342378
-0.1  0.66  2.88924215622
-0.1  0.68  2.43090038276
-0.1  0.7  2.04526874224
-0.1  0.72  1.72081269051
-0.1  0.74  1.4478274931
-0.1  0.76  1.21814794914
-0.1  0.78  1.02490416369
-0.1  0.8  0.862316063898
-0.1  0.82  0.725520512456
-0.1  0.84  0.610425847356
-0.1  0.86  0.51358949709
-0.1  0.88  0.432115010633
-0.1  0.9  0.363565422332
-0.1  0.92  0.30589036035
-0.1  0.94  0.257364718446
-0.1  0.96  0.216537056692
-0.1  0.98  0.182186187773
-0.08  -1  0.171445440731
-0.08  -0.98  0.203771161651
-0.08  -0.96  0.242191837493
-0.08  -0.94  0.287856660742
-0.08  -0.92  0.342131501999
-0.08  -0.9  0.406639764245
-0.08  -0.88  0.483310940088
-0.08  -0.86  0.574438324403
-0.08  -0.84  0.682747608575
-0.08  -0.82  0.81147840806
-0.08  -0.8  0.964481161819
-0.08  -0.78  1.14633230196
-0.08  -0.76  1.36247113841
-0.08  -0.74  1.61936255292
-0.08  -0.72  1.92469036876
-0.08  -0.7  2.28758717985
-0.08  -0.68  2.71890751383
-0.08  -0.66  3.23155249945
-0.08  -0.64  3.84085574944
-0.08  -0.62  4.56504200088
-0.08  -0.6  5.42577223131
-0.08  -0.58  6.44879155556
-0.08  -0.56  7.66469928226
-0.08  -0.54  9.10986416314
-0.08  -0.52  10.8275122108
-0.08  -0.5  12.8690196227
-0.08  -0.48  15.2954494831
-0.08  -0.46  18.1793782083
-0.08  -0.44  21.6070663635
-0.08  -0.42  25.681038784
-0.08  -0.4  30.5231511733
-0.08  -0.38  36.2782349026
-0.08  -0.36  43.1184290304
-0.08  -0.34  51.2483291163
-0.08  -0.32  60.9111068346
