0.44  -0.68  0.301178977527
0.44  -0.66  0.381397782692
0.44  -0.64  0.482982809213
0.44  -0.62  0.611624934863
0.44  -0.6  0.774530798633
0.44  -0.58  0.980826522656
0.44  -0.56  1.24206896516
0.44  -0.54  1.57289314531
0.44  -0.52  1.99183210912
0.44  -0.5  2.52235516619
0.44  -0.48  3.1941826599
0.44  -0.46  4.04495092586
0.44  -0.44  5.12232071072
0.44  -0.42  6.48664716689
0.44  -0.4  8.21436099846
0.44  -0.38  10.4022501728
0.44  -0.36  13.1728820633
0.44  -0.34  16.6814697754
0.44  -0.32  21.1245673142
0.44  -0.3  26.7510807032
0.44  -0.28  33.8762119076
0.44  -0.26  42.89911671
0.44  -0.24  54.3252657505
0.44  -0.22  68.7947614123
0.44  -0.2  36.8022659864
0.44  -0.18  33.7928424619
0.44  -0.16  30.7568076307
0.44  -0.14  27.7194265302
0.44  -0.12  24.7147846312
0.44  -0.1  21.7912442599
0.44  -0.08  19.020711372
0.44  -0.06  16.5134926379
0.44  -0.04  14.4374201376
0.44  -0.02  13.0244549933
0.44  6.17561557e-16  12.5164134464
0.44  0.02  13.0244549933
0.44  0.04  14.4374201376
0.44  0.06  16.5134926379
0.44  0.08  19.020711372
0.44  0.1  21.7912442599
0.44  0.12  24.7147846312
0.44  0.14  27.7194265302
0.44  0.16  30.7568076307
0.44  0.18  33.7928424619
0.44  0.2  87.1181968903
0.44  0.22  68.7947614123
0.44  0.24  54.3252657505
0.44  0.26  42.89911671
0.44  0.28  33.8762119076
0.44  0.3  26.7510807032
0.44  0.32  21.1245673142
0.44  0.34  16.6814697754
0.44  0.36  13.1728820633
0.44  0.38  10.4022501728
0.44  0.4  8.21436099845
0.44  0.42  6.48664716689
0.44  0.44  5.12232071072
0.44  0.46  4.04495092586
0.44  0.48  3.1941826599
0.44  0.5  2.52235516619
0.44  0.52  1.99183210912
0.44  0.54  1.57289314531
0.44  0.56  1.24206896516
0.44  0.58  0.980826522656
0.44  0.6  0.774530798633
0.44  0.62  0.611624934863
0.44  0.64  0.482982809213
0.44  0.66  0.381397782692
0.44  0.68  0.301178977527
0.44  0.7  0.237832469461
0.44  0.72  0.187809534364
0.44  0.74  0.148307845763
0.44  0.76  0.11711448617
0.44  0.78  0.0924819776068
0.44  0.8  0.0730303864347
0.44  0.82  0.0576700183194
0.44  0.84  0.0455403726494
0.44  0.86  0.0359619365743
0.44  0.88  0.0283981181299
0.44  0.9  0.0224251859088
0.44  0.92  0.0177085312746
0.44  0.94  0.0139839233075
0.44  0.96  0.0110427063677
0.44  0.98  0.0087201110334
0.46  -1  0.00573013290309
0.46  -0.98  0.00725634970179
0.46  -0.96  0.00918907325279
0.46  -0.94  0.0116365763387
0.46  -0.92  0.0147359701203
0.46  -0.9  0.0186608852179
0.46  -0.88  0.0236311986435
0.46  -0.86  0.0299253514935
0.46  -0.84  0.0378959474516
0.46  -0.82  0.04798950594
0.46  -0.8  0.0607714765096
0.46  -0.78  0.0769579157946
0.46  -0.76  0.0974556016015
0.46  -0.74  0.123412831357
0.46  -0.72  0.156283750684
0.46  -0.7  0.197909815854
0.46  -0.68  0.250622953698
0.46  -0.66  0.31737619809
0.46  -0.64  0.401909121361
0.46  -0.62  0.508957328261
0.46  -0.6  0.644517748474
0.46  -0.58  0.816184589614
0.46  -0.56  1.03357477106
0.46  -0.54  1.30886667179
0.46  -0.52  1.6574823733
0.46  -0.5  2.09895161746
0.46  -0.48  2.65800587893
0.46  -0.46  3.36596384292
0.46  -0.44  4.26248590406
0.46  -0.42  5.39779597471
0.46  -0.4  6.83549507033
0.46  -0.38  8.65612429138
0.46  -0.36  10.9616768027
0.46  -0.34  13.8813115758
0.46  -0.32  17.5785889817
0.46  -0.3  22.2606335791
0.46  -0.28  28.189737405
0.46  -0.26  35.6980537924
0.46  -0.24  45.2062048773
0.46  -0.22  57.2468452004
0.46  -0.2  30.6246228739
0.46  -0.18  28.1203623878
0.46  -0.16  25.5939575797
0.46  -0.14  23.0664324876
0.46  -0.12  20.5661509815
0.46  -0.1  18.1333572682
0.46  -0.08  15.8278871408
0.46  -0.06  13.7415311479
0.46  -0.04  12.0139490092
0.46  -0.02  10.8381647602
0.46  6.17561557e-16  10.4154032709
0.46  0.02  10.8381647602
0.46  0.04  12.0139490092
0.46  0.06  13.7415311479
0.46  0.08  15.8278871408
0.46  0.1  18.1333572682
0.46  0.12  20.5661509815
0.46  0.14  23.0664324876
0.46  0.16  25.5939575797
0.46  0.18  28.1203623878
0.46  0.2  72.4945014581
0.46  0.22  57.2468452004
0.46  0.24  45.2062048773
0.46  0.26  35.6980537924
0.46  0.28  28.189737405
0.46  0.3  22.2606335791
0.46  0.32  17.5785889817
0.46  0.34  13.8813115758
0.46  0.36  10.9616768027
0.46  0.38  8.65612429137
0.46  0.4  6.83549507033
0.46  0.42  5.39779597471
0.46  0.44  4.26248590406
0.46  0.46  3.36596384292
0.46  0.48  2.65800587893
0.46  0.5  2.09895161746
0.46  0.52  1.6574823733
0.46  0.54  1.30886667179
0.46  0.56  1.03357477106
0.46  0.58  0.816184589614
0.46  0.6  0.644517748474
0.46  0.62  0.508957328261
0.46  0.64  0.401909121361
0.46  0.66  0.31737619809
0.46  0.68  0.250622953698
0.46  0.7  0.197909815854
0.46  0.72  0.156283750684
0.46  0.74  0.123412831356
0.46  0.76  0.0974556016015
0.46  0.78  0.0769579157946
0.46  0.8  0.0607714765096
0.46  0.82  0.04798950594
0.46  0.84  0.0378959474516
0.46  0.86  0.0299253514935
0.46  0.88  0.0236311986435
0.46  0.9  0.0186608852179
0.46  0.92  0.0147359701203
0.46  0.94  0.0116365763387
0.46  0.96  0.00918907325279
0.46  0.98  0.00725634970179
0.48  -1  0.00476827049831
0.48  -0.98  0.00603829593374
0.48  -0.96  0.00764659173516
0.48  -0.94  0.00968325597252
0.48  -0.92  0.0122623842722
0.48  -0.9  0.0155284615491
0.48  -0.88  0.0196644561718
0.48  -0.86  0.0249020700028
0.48  -0.84  0.0315347185301
0.48  -0.82  0.0399339682468
0.48  -0.8  0.0505703521158
0.48  -0.78  0.0640397292177
0.48  -0.76  0.081096665273
0.48  -0.74  0.102696704042
0.48  -0.72  0.130049897682
0.48  -0.7  0.164688594876
0.48  -0.68  0.208553284283
0.48  -0.66  0.264101302328
0.48  -0.64  0.334444495233
0.48  -0.62  0.423523547236
0.48  -0.6  0.536328741002
0.48  -0.58  0.679179517413
0.48  -0.56  0.860078495909
0.48  -0.54  1.08915978789
0.48  -0.52  1.37925671808
0.48  -0.5  1.74662075805
0.48  -0.48  2.21183194721
0.48  -0.46  2.80095180374
0.48  -0.44  3.54698331252
0.48  -0.42  4.49171977987
0.48  -0.4  5.68808612932
0.48  -0.38  7.20310379992
0.48  -0.36  9.12164534306
0.48  -0.34  11.5511890534
0.48  -0.32  14.6278399927
0.48  -0.3  18.5239547082
0.48  -0.28  23.4577967905
0.48  -0.26  29.7057641811
0.48  -0.24  37.6178732156
0.48  -0.22  47.6373668302
0.48  -0.2  25.4839614091
0.48  -0.18  23.4000670915
0.48  -0.16  21.2977456067
0.48  -0.14  19.1944918891
0.48  -0.12  17.1139086383
0.48  -0.1  15.0894846524
0.48  -0.08  13.1710116642
0.48  -0.06  11.4348722241
0.48  -0.04  9.99728271537
0.48  -0.02  9.01886608143
0.48  6.17561557e-16  8.6670695051
0.48  0.02  9.01886608143
0.48  0.04  9.99728271537
0.48  0.06  11.4348722241
0.48  0.08  13.1710116642
0.48  0.1  15.0894846524
0.48  0.12  17.1139086383
0.48  0.14  19.1944918891
0.48  0.16  21.2977456067
0.48  0.18  23.4000670915
0.48  0.2  60.3255453999
0.48  0.22  47.6373668302
0.48  0.24  37.6178732156
0.48  0.26  29.7057641811
0.48  0.28  23.4577967905
0.48  0.3  18.5239547082
0.48  0.32  14.6278399927
0.48  0.34  11.5511890534
0.48  0.36  9.12164534306
0.48  0.38  7.20310379992
0.48  0.4  5.68808612932
0.48  0.42  4.49171977987
0.48  0.44  3.54698331252
0.48  0.46  2.80095180374
0.48  0.48  2.21183194721
0.48  0.5  1.74662075805
0.48  0.52  1.37925671808
0.48  0.54  1.08915978789
0.48  0.56  0.860078495909
0.48  0.58  0.679179517413
0.48  0.6  0.536328741002
0.48  0.62  0.423523547236
0.48  0.64  0.334444495233
0.48  0.66  0.264101302328
0.48  0.68  0.208553284283
0.48  0.7  0.164688594876
0.48  0.72  0.130049897682
0.48  0.74  0.102696704042
0.48  0.76  0.081096665273
0.48  0.78  0.0640397292177
0.48  0.8  0.0505703521158
0.48  0.82  0.0399339682468
0.48  0.84  0.0315347185301
0.48  0.86  0.0249020700028
0.48  0.88  0.0196644561718
0.48  0.9  0.0155284615491
0.48  0.92  0.0122623842722
0.48  0.94  0.00968325597252
0.48  0.96  0.00764659173516
0.48  0.98  0.00603829593374
0.5  -1  0.00396786670215
0.5  -0.98  0.00502470515918
0.5  -0.96  0.00636303178304
0.5  -0.94  0.00805782074557
0.5  -0.92  0.0102040155356
0.5  -0.9  0.0129218477723
0.5  -0.88  0.0163635726806
0.5  -0.86  0.0207219985556
0.5  -0.84  0.0262412880439
0.5  -0.82  0.0332306363382
0.5  -0.8  0.0420815925496
0.5  -0.78  0.0532899946149
0.5  -0.76  0.0674837465505
0.5  -0.74  0.0854579941582
0.5  -0.72  0.108219669755
0.5  -0.7  0.137043901361
0.5  -0.68  0.173545446431
0.5  -0.66  0.219769151912
0.5  -0.64  0.278304508274
0.5  -0.62  0.352430714921
0.5  -0.6  0.446300383668
0.5  -0.58  0.56517217152
0.5  -0.56  0.715705375012
0.5  -0.54  0.906332989544
0.5  -0.52  1.14773413281
0.5  -0.5  1.45343229785
0.5  -0.48  1.84055295043
0.5  -0.46  2.33078291182
0.5  -0.44  2.95158527266
0.5  -0.42  3.73773789811
0.5  -0.4  4.73328171284
0.5  -0.38  5.99398791029
0.5  -0.36  7.59048230136
0.5  -0.34  9.61220183118
0.5  -0.32  12.1724049112
0.5  -0.3  15.4145162497
0.5  -0.28  19.5201616233
0.5  -0.26  24.7193427046
0.5  -0.24  31.3033219468
0.5  -0.22  39.6409393491
0.5  -0.2  21.2062134373
0.5  -0.18  19.4721224548
0.5  -0.16  17.7226974966
0.5  -0.14  15.9724967907
0.5  -0.12  14.2411610779
0.5  -0.1  12.5565577133
0.5  -0.08  10.9601203696
0.5  -0.06  9.51540999142
0.5  -0.04  8.31913483355
0.5  -0.02  7.50495560777
0.5  6.17561557e-16  7.21221174568
0.5  0.02  7.50495560777
0.5  0.04  8.31913483355
0.5  0.06  9.51540999142
0.5  0.08  10.9601203696
0.5  0.1  12.5565577133
0.5  0.12  14.2411610779
0.5  0.14  15.9724967907
0.5  0.16  17.7226974966
0.5  0.18  19.4721224548
0.5  0.2  50.1992751808
0.5  0.22  39.6409393491
0.5  0.24  31.3033219468
0.5  0.26  24.7193427046
0.5  0.28  19.5201616233
0.5  0.3  15.4145162497
0.5  0.32  12.1724049112
0.5  0.34  9.61220183118
0.5  0.36  7.59048230136
0.5  0.38  5.99398791028
0.5  0.4  4.73328171283
0.5  0.42  3.73773789811
0.5  0.44  2.95158527266
0.5  0.46  2.33078291182
0.5  0.48  1.84055295043
0.5  0.5  1.45343229785
0.5  0.52  1.14773413281
0.5  0.54  0.906332989544
0.5  0.56  0.715705375012
0.5  0.58  0.56517217152
0.5  0.6  0.446300383668
0.5  0.62  0.35243071492
0.5  0.64  0.278304508274
0.5  0.66  0.219769151912
0.5  0.68  0.173545446431
0.5  0.7  0.137043901361
0.5  0.72  0.108219669755
0.5  0.74  0.0854579941582
0.5  0.76  0.0674837465505
0.5  0.78  0.0532899946149
0.5  0.8  0.0420815925496
0.5  0.82  0.0332306363382
0.5  0.84  0.0262412880439
0.5  0.86  0.0207219985556
0.5  0.88  0.0163635726806
0.5  0.9  0.0129218477723
0.5  0.92  0.0102040155356
0.5  0.94  0.00805782074557
0.5  0.96  0.00636303178304
0.5  0.98  0.00502470515918
0.52  -1  0.00330181900788
0.52  -0.98  0.00418125613811
0.52  -0.96  0.00529493071872
0.52  -0.94  0.00670523172701
0.52  -0.92  0.00849116539976
0.52  -0.9  0.0107527812284
0.52  -0.88  0.0136167768147
0.52  -0.86  0.0172435955762
0.52  -0.84  0.0218364149198
0.52  -0.82  0.0276525284093
0.52  -0.8  0.0350177595651
0.52  -0.78  0.0443447147693
0.52  -0.76  0.0561558978185
0.52  -0.74  0.0711129810217
0.52  -0.72  0.090053872634
0.52  -0.7  0.114039657175
0.52  -0.68  0.144414038265
0.52  -0.66  0.182878614026
0.52  -0.64  0.231588202018
0.52  -0.62  0.29327155392
0.52  -0.6  0.371384222464
0.52  -0.58  0.470302144384
0.52  -0.56  0.59556678403
0.52  -0.54  0.754195570815
0.52  -0.52  0.955075021459
0.52  -0.5  1.20945857005
0.52  -0.48  1.53159699479
0.52  -0.46  1.93953675846
0.52  -0.44  2.45613098629
0.52  -0.42  3.11031971708
0.52  -0.4  3.93875114822
0.52  -0.38  4.98783469829
0.52  -0.36  6.31634090128
0.52  -0.34  7.99869378086
0.52  -0.32  10.1291401462
0.52  -0.3  12.8270293765
0.52  -0.28  16.2434994729
0.52  -0.26  20.5699439349
0.52  -0.24  26.0487337837
0.52  -0.22  32.9867953886
0.52  -0.2  17.6465299539
0.52  -0.18  16.2035241784
0.52  -0.16  14.7477583946
0.52  -0.14  13.2913470804
0.52  -0.12  11.850634074
0.52  -0.1  10.448808905
0.52  -0.08  9.12035017338
0.52  -0.06  7.9181494581
0.52  -0.04  6.9226815275
0.52  -0.02  6.24517075274
0.52  6.17561557e-16  6.00156699262
0.52  0.02  6.24517075274
0.52  0.04  6.9226815275
0.52  0.06  7.9181494581
0.52  0.08  9.12035017338
0.52  0.1  10.448808905
0.52  0.12  11.850634074
0.52  0.14  13.2913470804
0.52  0.16  14.7477583946
0.52  0.18  16.2035241784
0.52  0.2  41.7728047376
0.52  0.22  32.9867953886
0.52  0.24  26.0487337837
0.52  0.26  20.5699439349
0.52  0.28  16.2434994729
0.52  0.3  12.8270293765
0.52  0.32  10.1291401462
0.52  0.34  7.99869378086
0.52  0.36  6.31634090128
0.52  0.38  4.98783469829
0.52  0.4  3.93875114822
0.52  0.42  3.11031971708
0.52  0.44  2.45613098629
0.52  0.46  1.93953675846
0.52  0.48  1.53159699479
0.52  0.5  1.20945857005
0.52  0.52  0.955075021459
0.52  0.54  0.754195570815
0.52  0.56  0.59556678403
0.52  0.58  0.470302144384
0.52  0.6  0.371384222464
0.52  0.62  0.29327155392
0.52  0.64  0.231588202018
0.52  0.66  0.182878614026
0.52  0.68  0.144414038265
0.52  0.7  0.114039657175
0.52  0.72  0.090053872634
0.52  0.74  0.0711129810217
0.52  0.76  0.0561558978185
0.52  0.78  0.0443447147693
0.52  0.8  0.0350177595651
0.52  0.82  0.0276525284093
0.52  0.84  0.0218364149198
0.52  0.86  0.0172435955762
0.52  0.88  0.0136167768147
0.52  0.9  0.0107527812284
0.52  0.92  0.00849116539976
0.52  0.94  0.00670523172701
0.52  0.96  0.00529493071871
0.52  0.98  0.00418125613811
0.54  -1  0.00274757434641
0.54  -0.98  0.00347938880763
0.54  -0.96  0.00440612152696
0.54  -0.94  0.005579688843
0.54  -0.92  0.00706583497394
0.54  -0.9  0.0089478150635
0.54  -0.88  0.0113310592033
0.54  -0.86  0.0143490787145
0.54  -0.84  0.018170945563
0.54  -0.82  0.023010763912
0.54  -0.8  0.0291396644153
0.54  -0.78  0.0369009931823
0.54  -0.76  0.046729546313
0.54  -0.74  0.0591759275374
0.54  -0.72  0.0749373934954
0.54  -0.7  0.0948969146336
0.54  -0.68  0.120172639945
0.54  -0.66  0.152180536609
0.54  -0.64  0.192713713646
0.54  -0.62  0.244042873385
0.54  -0.6  0.309043518093
0.54  -0.58  0.39135703801
0.54  -0.56  0.49559470506
0.54  -0.54  0.627596000145
0.54  -0.52  0.794755745725
0.54  -0.5  1.00643836993
0.54  -0.48  1.27450250964
0.54  -0.46  1.61396534115
0.54  -0.44  2.04384385493
0.54  -0.42  2.58822020328
0.54  -0.4  3.2775908025
0.54  -0.38  4.15057476756
0.54  -0.36  5.25607738707
0.54  -0.34  6.65602983829
0.54  -0.32  8.42885862318
0.54  -0.3  10.6738790864
0.54  -0.28  13.5168591437
0.54  -0.26  17.1170649051
0.54  -0.24  21.6761828949
0.54  -0.22  27.4496186992
0.54  -0.2  14.6843763661
0.54  -0.18  13.4835941182
0.54  -0.16  12.2721937621
0.54  -0.14  11.0602562345
0.54  -0.12  9.86138189058
0.54  -0.1  8.69486765612
0.54  -0.08  7.58940453939
0.54  -0.06  6.58900571781
0.54  -0.04  5.76063743286
0.54  -0.02  5.19685388818
0.54  6.17561557e-16  4.99414155283
0.54  0.02  5.19685388818
0.54  0.04  5.76063743286
0.54  0.06  6.58900571781
0.54  0.08  7.58940453939
0.54  0.1  8.69486765611
0.54  0.12  9.86138189058
0.54  0.14  11.0602562345
0.54  0.16  12.2721937621
0.54  0.18  13.4835941182
0.54  0.2  34.7608049989
0.54  0.22  27.4496186992
0.54  0.24  21.6761828949
0.54  0.26  17.1170649051
0.54  0.28  13.5168591437
0.54  0.3  10.6738790864
0.54  0.32  8.42885862318
0.54  0.34  6.65602983829
0.54  0.36  5.25607738707
0.54  0.38  4.15057476756
0.54  0.4  3.2775908025
0.54  0.42  2.58822020328
0.54  0.44  2.04384385493
0.54  0.46  1.61396534115
0.54  0.48  1.27450250964
0.54  0.5  1.00643836993
0.54  0.52  0.794755745725
0.54  0.54  0.627596000145
0.54  0.56  0.49559470506
0.54  0.58  0.39135703801
0.54  0.6  0.309043518093
0.54  0.62  0.244042873385
0.54  0.64  0.192713713646
0.54  0.66  0.152180536609
0.54  0.68  0.120172639945
0.54  0.7  0.0948969146336
0.54  0.72  0.0749373934954
0.54  0.74  0.0591759275374
0.54  0.76  0.046729546313
0.54  0.78  0.0369009931823
0.54  0.8  0.0291396644153
0.54  0.82  0.023010763912
0.54  0.84  0.018170945563
0.54  0.86  0.0143490787145
0.54  0.88  0.0113310592033
0.54  0.9  0.0089478150635
0.54  0.92  0.00706583497394
0.54  0.94  0.005579688843
0.54  0.96  0.00440612152696
0.54  0.98  0.00347938880763
0.56  -1  0.00228636541586
0.56  -0.98  0.00289533720843
0.56  -0.96  0.00366650820222
0.56  -0.94  0.00464308003842
0.56  -0.92  0.00587976108443
0.56  -0.9  0.00744583124217
0.56  -0.88  0.00942902306587
0.56  -0.86  0.0119404366128
0.56  -0.84  0.015120763361
0.56  -0.82  0.019148167863
0.56  -0.8  0.0242482686723
0.56  -0.78  0.0307067776831
0.56  -0.76  0.0388855059476
0.56  -0.74  0.0492426326333
0.56  -0.72  0.0623583726011
0.56  -0.7  0.0789674805246
0.56  -0.68  0.100000412459
0.56  -0.66  0.126635450766
0.56  -0.64  0.160364712467
0.56  -0.62  0.203077738888
0.56  -0.6  0.257167349334
0.56  -0.58  0.325663688821
0.56  -0.56  0.412403979319
0.56  -0.54  0.522247484126
0.56  -0.52  0.661347727844
0.56  -0.5  0.837497221947
0.56  -0.48  1.06056400777
0.56  -0.46  1.34304447238
0.56  -0.44  1.70076340662
0.56  -0.42  2.15376052304
0.56  -0.4  2.72741309729
0.56  -0.38  3.45385762423
0.56  -0.36  4.37379013114
0.56  -0.34  5.53874600303
0.56  -0.32  7.01398703784
0.56  -0.3  8.88215746671
0.56  -0.28  11.2479137526
0.56  -0.26  14.2437875325
0.56  -0.24  18.03761015
0.56  -0.22  22.8419147072
0.56  -0.2  12.2194510663
0.56  -0.18  11.2202326076
0.56  -0.16  10.2121784006
0.56  -0.14  9.20367719193
0.56  -0.12  8.20604637566
0.56  -0.1  7.23534368793
0.56  -0.08  6.31544405286
0.56  -0.06  5.48297257827
0.56  -0.04  4.79365452549
0.56  -0.02  4.32450791249
0.56  6.17561557e-16  4.15582295097
0.56  0.02  4.32450791249
0.56  0.04  4.79365452549
0.56  0.06  5.48297257827
0.56  0.08  6.31544405286
0.56  0.1  7.23534368793
0.56  0.12  8.20604637566
0.56  0.14  9.20367719193
0.56  0.16  10.2121784006
0.56  0.18  11.2202326076
0.56  0.2  28.9258423456
0.56  0.22  22.8419147072
0.56  0.24  18.03761015
0.56  0.26  14.2437875325
0.56  0.28  11.2479137526
0.56  0.3  8.88215746671
0.56  0.32  7.01398703784
0.56  0.34  5.53874600303
0.56  0.36  4.37379013114
0.56  0.38  3.45385762423
0.56  0.4  2.72741309729
0.56  0.42  2.15376052304
0.56  0.44  1.70076340662
0.56  0.46  1.34304447238
0.56  0.48  1.06056400777
0.56  0.5  0.837497221947
0.56  0.52  0.661347727844
0.56  0.54  0.522247484126
0.56  0.56  0.412403979319
0.56  0.58  0.325663688821
0.56  0.6  0.257167349334
0.56  0.62  0.203077738888
0.56  0.64  0.160364712467
0.56  0.66  0.126635450766
0.56  0.68  0.100000412459
0.56  0.7  0.0789674805246
0.56  0.72  0.0623583726011
0.56  0.74  0.0492426326333
0.56  0.76  0.0388855059476
0.56  0.78  0.0307067776831
0.56  0.8  0.0242482686723
0.56  0.82  0.019148167863
0.56  0.84  0.015120763361
0.56  0.86  0.0119404366128
0.56  0.88  0.00942902306587
0.56  0.9  0.00744583124217
0.56  0.92  0.00587976108443
0.56  0.94  0.00464308003842
0.56  0.96  0.00366650820222
0.56  0.98  0.00289533720843
0.58  -1  0.00190257520117
0.58  -0.98  0.00240932474466
0.58  -0.96  0.00305104666648
0.58  -0.94  0.00386369076301
0.58  -0.92  0.00489278203319
0.58  -0.9  0.00619597102684
0.58  -0.88  0.00784626347649
0.58  -0.86  0.00993611013928
0.58  -0.84  0.0125825859654
0.58  -0.82  0.0159339487342
0.58  -0.8  0.0201779445784
0.58  -0.78  0.0255523256791
0.58  -0.76  0.0323581693405
0.58  -0.74  0.0409767445914
0.58  -0.72  0.0518908711936
0.58  -0.7  0.065711967607
0.58  -0.68  0.0832143031608
0.58  -0.66  0.105378373266
0.58  -0.64  0.133445827585
0.58  -0.62  0.168989028279
0.58  -0.6  0.213999135046
0.58  -0.58  0.270997651544
0.58  -0.56  0.343177682129
0.58  -0.54  0.434582812213
0.58  -0.52  0.550333633293
0.58  -0.5  0.696914602745
0.58  -0.48  0.882537308528
0.58  -0.46  1.11760048918
0.58  -0.44  1.41527257981
0.58  -0.42  1.79222941878
0.58  -0.4  2.2695884421
0.58  -0.38  2.87409169971
0.58  -0.36  3.63960396745
0.58  -0.34  4.60900987997
0.58  -0.32  5.83661636365
0.58  -0.3  7.39119495589
0.58  -0.28  9.35983444384
0.58  -0.26  11.8528196508
0.58  -0.24  15.0098096838
0.58  -0.22  19.0076617533
0.58  -0.2  10.1682891148
0.58  -0.18  9.3367998669
0.58  -0.16  8.49795804293
0.58  -0.14  7.65874425122
0.58  -0.12  6.82857614345
0.58  -0.1  6.02081599778
0.58  -0.08  5.25533108399
0.58  -0.06  4.56259860463
0.58  -0.04  3.98898975636
0.58  -0.02  3.59859428177
0.58  6.17561557e-16  3.45822484547
0.58  0.02  3.59859428177
0.58  0.04  3.98898975636
0.58  0.06  4.56259860463
0.58  0.08  5.25533108399
0.58  0.1  6.02081599778
0.58  0.12  6.82857614345
0.58  0.14  7.65874425122
0.58  0.16  8.49795804293
0.58  0.18  9.3367998669
0.58  0.2  24.0703388609
0.58  0.22  19.0076617533
0.58  0.24  15.0098096838
0.58  0.26  11.8528196508
0.58  0.28  9.35983444384
0.58  0.3  7.39119495589
0.58  0.32  5.83661636365
0.58  0.34  4.60900987997
0.58  0.36  3.63960396745
0.58  0.38  2.87409169971
0.58  0.4  2.2695884421
0.58  0.42  1.79222941878
0.58  0.44  1.41527257981
0.58  0.46  1.11760048918
0.58  0.48  0.882537308528
0.58  0.5  0.696914602745
0.58  0.52  0.550333633293
0.58  0.54  0.434582812213
0.58  0.56  0.343177682129
0.58  0.58  0.270997651544
0.58  0.6  0.213999135046
0.58  0.62  0.168989028279
0.58  0.64  0.133445827585
0.58  0.66  0.105378373266
0.58  0.68  0.0832143031608
0.58  0.7  0.065711967607
0.58  0.72  0.0518908711936
0.58  0.74  0.0409767445914
0.58  0.76  0.0323581693405
0.58  0.78  0.0255523256791
0.58  0.8  0.0201779445784
0.58  0.82  0.0159339487341
0.58  0.84  0.0125825859654
0.58  0.86  0.00993611013928
0.58  0.88  0.00784626347649
0.58  0.9  0.00619597102684
0.58  0.92  0.00489278203319
0.58  0.94  0.00386369076301
0.58  0.96  0.00305104666648
0.58  0.98  0.00240932474466
0.6  -1  0.00158320816567
0.6  -0.98  0.00200489452778
0.6  -0.96  0.00253889675071
0.6  -0.94  0.00321513008362
0.6  -0.92  0.0040714776809
0.6  -0.9  0.00515591284798
0.6  -0.88  0.00652918654587
0.6  -0.86  0.00826823071059
0.6  -0.84  0.0104704680443
0.6  -0.82  0.013259269716
0.6  -0.8  0.0167908667176
0.6  -0.78  0.0212631020536
0.6  -0.76  0.0269265140714
0.6  -0.74  0.0340983718278
0.6  -0.72  0.043180448766
0.6  -0.7  0.0546815303983
0.6  -0.68  0.0692459168941
0.6  -0.66  0.0876895173119
0.6  -0.64  0.111045557504
0.6  -0.62  0.14062246229
0.6  -0.6  0.178077154503
0.6  -0.58  0.225507877186
0.6  -0.56  0.285571738919
0.6  -0.54  0.361633567248
0.6  -0.52  0.457954409128
0.6  -0.5  0.579930238323
0.6  -0.48  0.734394242348
0.6  -0.46  0.929999623322
0.6  -0.44  1.17770435756
0.6  -0.42  1.49138507052
0.6  -0.4  1.88861441694
0.6  -0.38  2.39164551555
0.6  -0.36  3.02865858734
0.6  -0.34  3.83533963501
0.6  -0.32  4.85687960253
0.6  -0.3  6.15050600946
0.6  -0.28  7.78868888426
0.6  -0.26  9.86320059561
0.6  -0.24  12.4902570169
0.6  -0.22  15.8170280363
0.6  -0.2  8.46143603028
0.6  -0.18  7.76952090064
0.6  -0.16  7.07148740131
0.6  -0.14  6.37314437289
0.6  -0.12  5.68232861628
0.6  -0.1  5.01015941227
0.6  -0.08  4.37316910279
0.6  -0.06  3.79671897495
0.6  -0.04  3.31939633775
0.6  -0.02  2.99453280393
0.6  6.17561557e-16  2.87772583744
0.6  0.02  2.99453280393
0.6  0.04  3.31939633775
0.6  0.06  3.79671897495
0.6  0.08  4.37316910279
0.6  0.1  5.01015941227
0.6  0.12  5.68232861628
0.6  0.14  6.37314437289
0.6  0.16  7.07148740131
0.6  0.18  7.76952090064
0.6  0.2  20.0298821364
0.6  0.22  15.8170280363
0.6  0.24  12.4902570169
0.6  0.26  9.86320059561
0.6  0.28  7.78868888426
0.6  0.3  6.15050600946
0.6  0.32  4.85687960253
0.6  0.34  3.83533963501
0.6  0.36  3.02865858734
0.6  0.38  2.39164551555
0.6  0.4  1.88861441694
0.6  0.42  1.49138507052
0.6  0.44  1.17770435756
0.6  0.46  0.929999623322
0.6  0.48  0.734394242348
0.6  0.5  0.579930238323
0.6  0.52  0.457954409128
0.6  0.54  0.361633567248
0.6  0.56  0.285571738919
0.6  0.58  0.225507877186
0.6  0.6  0.178077154503
0.6  0.62  0.14062246229
0.6  0.64  0.111045557504
0.6  0.66  0.0876895173119
0.6  0.68  0.0692459168941
0.6  0.7  0.0546815303983
0.6  0.72  0.043180448766
0.6  0.74  0.0340983718278
0.6  0.76  0.0269265140714
0.6  0.78  0.0212631020536
0.6  0.8  0.0167908667176
0.6  0.82  0.013259269716
0.6  0.84  0.0104704680443
0.6  0.86  0.00826823071059
0.6  0.88  0.00652918654587
0.6  0.9  0.00515591284798
0.6  0.92  0.0040714776809
0.6  0.94  0.00321513008362
0.6  0.96  0.00253889675071
0.6  0.98  0.00200489452778
0.62  -1  0.0013174502087
0.62  -0.98  0.00166835212912
0.62  -0.96  0.00211271652497
0.62  -0.94  0.00267543705971
0.62  -0.92  0.00338803780623
0.62  -0.9  0.0042904392517
0.62  -0.88  0.00543319467649
0.62  -0.86  0.00688032219101
0.62  -0.84  0.00871289108357
0.62  -0.82  0.0110335633894
0.62  -0.8  0.0139723451034
0.62  -0.78  0.0176938692242
0.62  -0.76  0.0224066186318
0.62  -0.74  0.0283746054719
0.62  -0.72  0.0359321613368
0.62  -0.7  0.0455026667986
0.62  -0.68  0.0576222695422
0.62  -0.66  0.0729699198049
0.62  -0.64  0.0924054057334
0.62  -0.62  0.117017519432
0.62  -0.6  0.148185052005
0.62  -0.58  0.187654034577
0.62  -0.56  0.237635552416
0.62  -0.54  0.300929611768
0.62  -0.52  0.381081998541
0.62  -0.5  0.48258291618
0.62  -0.48  0.611118530607
0.62  -0.46  0.773889513966
0.62  -0.44  0.980014432276
0.62  -0.42  1.24104057509
0.62  -0.4  1.57159084428
0.62  -0.38  1.99018294114
0.62  -0.36  2.5202667435
0.62  -0.34  3.19153798732
0.62  -0.32  4.04160184663
0.62  -0.3  5.11807960663
0.62  -0.28  6.48127644777
0.62  -0.26  8.20755979214
0.62  -0.24  10.3936374701
0.62  -0.22  13.1619753734
0.62  -0.2  7.04109598833
0.62  -0.18  6.46532600955
0.62  -0.16  5.88446469307
0.62  -0.14  5.30334580518
0.62  -0.12  4.72849065824
0.62  -0.1  4.16915204611
0.62  -0.08  3.63908718517
0.62  -0.06  3.15940020673
0.62  -0.04  2.76220113864
0.62  -0.02  2.49186932776
0.62  6.17561557e-16  2.39466962547
0.62  0.02  2.49186932776
0.62  0.04  2.76220113864
0.62  0.06  3.15940020673
0.62  0.08  3.63908718517
0.62  0.1  4.16915204611
0.62  0.12  4.72849065824
0.62  0.14  5.30334580518
0.62  0.16  5.88446469307
0.62  0.18  6.46532600955
0.62  0.2  16.6676580964
0.62  0.22  13.1619753734
0.62  0.24  10.3936374701
0.62  0.26  8.20755979214
0.62  0.28  6.48127644777
0.62  0.3  5.11807960663
0.62  0.32  4.04160184663
0.62  0.34  3.19153798732
0.62  0.36  2.5202667435
0.62  0.38  1.99018294114
0.62  0.4  1.57159084428
0.62  0.42  1.24104057509
0.62  0.44  0.980014432276
0.62  0.46  0.773889513966
0.62  0.48  0.611118530607
0.62  0.5  0.48258291618
0.62  0.52  0.381081998541
0.62  0.54  0.300929611768
0.62  0.56  0.237635552416
0.62  0.58  0.187654034577
0.62  0.6  0.148185052005
0.62  0.62  0.117017519432
0.62  0.64  0.0924054057334
0.62  0.66  0.0729699198049
0.62  0.68  0.0576222695422
0.62  0.7  0.0455026667986
0.62  0.72  0.0359321613368
0.62  0.74  0.0283746054719
0.62  0.76  0.0224066186318
0.62  0.78  0.0176938692242
0.62  0.8  0.0139723451034
0.62  0.82  0.0110335633894
0.62  0.84  0.00871289108357
0.62  0.86  0.00688032219101
0.62  0.88  0.00543319467649
0.62  0.9  0.0042904392517
0.62  0.92  0.00338803780623
0.62  0.94  0.00267543705971
0.62  0.96  0.00211271652497
0.62  0.98  0.00166835212912
0.64  -1  0.00109630248886
0.64  -0.98  0.00138830187234
0.64  -0.96  0.00175807508267
0.64  -0.94  0.002226337123
0.64  -0.92  0.00281932042272
0.64  -0.9  0.00357024440003
0.64  -0.88  0.0045211764414
0.64  -0.86  0.00572538855156
0.64  -0.84  0.00725034169564
0.64  -0.82  0.00918146501849
0.64  -0.8  0.0116269416566
0.64  -0.78  0.0147237692476
0.64  -0.76  0.0186454346515
0.64  -0.74  0.0236116328297
0.64  -0.72  0.0299005743393
0.64  -0.7  0.03786457092
0.64  -0.68  0.0479497722917
0.64  -0.66  0.0607211598325
0.64  -0.64  0.0768941973066
0.64  -0.62  0.0973749117397
0.64  -0.6  0.123310649808
0.64  -0.58  0.156154353153
0.64  -0.56  0.197745953383
0.64  -0.54  0.250415446575
0.64  -0.52  0.317113421593
0.64  -0.5  0.401576354533
0.64  -0.48  0.508535929227
0.64  -0.46  0.643984110108
0.64  -0.44  0.815508817051
0.64  -0.42  1.03271900696
0.64  -0.4  1.30778297553
0.64  -0.38  1.65611003532
0.64  -0.36  2.09721375824
0.64  -0.34  2.65580514215
0.64  -0.32  3.36317694147
0.64  -0.3  4.25895671341
0.64  -0.28  5.39332678665
0.64  -0.26  6.82983551723
0.64  -0.24  8.64895732036
0.64  -0.22  10.9526009141
0.64  -0.2  5.85917479485
0.64  -0.18  5.38005379539
0.64  -0.16  4.8966960922
0.64  -0.14  4.41312405364
0.64  -0.12  3.93476432197
0.64  -0.1  3.46931651336
0.64  -0.08  3.02822855234
0.64  -0.06  2.62906202228
0.64  -0.04  2.29853694889
0.64  -0.02  2.07358314409
0.64  6.17561557e-16  1.99269942276
0.64  0.02  2.07358314409
0.64  0.04  2.29853694889
0.64  0.06  2.62906202228
0.64  0.08  3.02822855234
0.64  0.1  3.46931651336
0.64  0.12  3.93476432197
0.64  0.14  4.41312405364
0.64  0.16  4.8966960922
0.64  0.18  5.38005379539
0.64  0.2  13.8698183308
0.64  0.22  10.9526009141
0.64  0.24  8.64895732036
0.64  0.26  6.82983551723
0.64  0.28  5.39332678665
0.64  0.3  4.25895671341
0.64  0.32  3.36317694147
0.64  0.34  2.65580514215
0.64  0.36  2.09721375824
0.64  0.38  1.65611003531
0.64  0.4  1.30778297553
0.64  0.42  1.03271900696
0.64  0.44  0.815508817051
0.64  0.46  0.643984110108
0.64  0.48  0.508535929227
0.64  0.5  0.401576354533
0.64  0.52  0.317113421593
0.64  0.54  0.250415446575
0.64  0.56  0.197745953383
0.64  0.58  0.156154353153
0.64  0.6  0.123310649808
0.64  0.62  0.0973749117397
0.64  0.64  0.0768941973066
0.64  0.66  0.0607211598325
0.64  0.68  0.0479497722917
0.64  0.7  0.03786457092
0.64  0.72  0.0299005743393
0.64  0.74  0.0236116328297
0.64  0.76  0.0186454346515
0.64  0.78  0.0147237692476
0.64  0.8  0.0116269416566
0.64  0.82  0.00918146501849
0.64  0.84  0.00725034169564
0.64  0.86  0.00572538855156
0.64  0.88  0.0045211764414
0.64  0.9  0.00357024440003
0.64  0.92  0.00281932042272
0.64  0.94  0.002226337123
0.64  0.96  0.00175807508267
0.64  0.98  0.00138830187234
0.66  -1  0.000912276713866
0.66  -0.98  0.00115526096385
0.66  -0.96  0.00146296389496
0.66  -0.94  0.0018526232816
0.66  -0.92  0.00234606816706
0.66  -0.9  0.0029709417447
0.66  -0.88  0.00376224995262
0.66  -0.86  0.00476432253554
0.66  -0.84  0.0060332964339
0.66  -0.82  0.00764026062212
0.66  -0.8  0.00967523857205
0.66  -0.78  0.0122522314429
0.66  -0.76  0.015515604521
0.66  -0.74  0.0196481746834
0.66  -0.72  0.0248814519516
0.66  -0.7  0.0315086088757
0.66  -0.68  0.0399009043047
0.66  -0.66  0.0505284816163
0.66  -0.64  0.0639867065406
0.66  -0.62  0.0810295200438
0.66  -0.6  0.102611674729
0.66  -0.58  0.129942220872
0.66  -0.56  0.164552238425
0.66  -0.54  0.208380609389
0.66  -0.52  0.263882635599
0.66  -0.5  0.334167586778
0.66  -0.48  0.423172884412
0.66  -0.46  0.535884679386
0.66  -0.44  0.678617180303
0.66  -0.42  0.859366380712
0.66  -0.4  1.08825800132
0.66  -0.38  1.3781147413
0.66  -0.36  1.74517461657
0.66  -0.34  2.21000062699
0.66  -0.32  2.79863271269
0.66  -0.3  3.54404653323
0.66  -0.28  4.48800079151
0.66  -0.26  5.68337659107
0.66  -0.24  7.19713987953
0.66  -0.22  9.11409293673
0.66  -0.2  4.87565136643
0.66  -0.18  4.47695580988
0.66  -0.16  4.0747347244
0.66  -0.14  3.67233528197
0.66  -0.12  3.2742732065
0.66  -0.1  2.88695565351
0.66  -0.08  2.51990889434
0.66  -0.06  2.18774661794
0.66  -0.04  1.91270361579
0.66  -0.02  1.72551064678
0.66  6.17561557e-16  1.65820409932
0.66  0.02  1.72551064678
0.66  0.04  1.91270361579
0.66  0.06  2.18774661794
0.66  0.08  2.51990889434
0.66  0.1  2.88695565351
0.66  0.12  3.2742732065
0.66  0.14  3.67233528197
0.66  0.16  4.0747347244
0.66  0.18  4.47695580988
0.66  0.2  11.5416250691
0.66  0.22  9.11409293673
0.66  0.24  7.19713987953
0.66  0.26  5.68337659107
0.66  0.28  4.48800079151
0.66  0.3  3.54404653323
0.66  0.32  2.79863271269
0.66  0.34  2.21000062699
0.66  0.36  1.74517461657
0.66  0.38  1.3781147413
0.66  0.4  1.08825800132
0.66  0.42  0.859366380712
0.66  0.44  0.678617180303
0.66  0.46  0.535884679386
0.66  0.48  0.423172884412
0.66  0.5  0.334167586778
0.66  0.52  0.263882635599
0.66  0.54  0.208380609389
0.66  0.56  0.164552238425
0.66  0.58  0.129942220872
0.66  0.6  0.102611674729
0.66  0.62  0.0810295200438
0.66  0.64  0.0639867065406
0.66  0.66  0.0505284816163
0.66  0.68  0.0399009043047
0.66  0.7  0.0315086088757
0.66  0.72  0.0248814519516
0.66  0.74  0.0196481746834
0.66  0.76  0.015515604521
0.66  0.78  0.0122522314429
0.66  0.8  0.00967523857205
0.66  0.82  0.00764026062212
0.66  0.84  0.0060332964339
0.66  0.86  0.00476432253553
0.66  0.88  0.00376224995262
0.66  0.9  0.0029709417447
0.66  0.92  0.00234606816706
0.66  0.94  0.0018526232816
0.66  0.96  0.00146296389496
0.66  0.98  0.00115526096385
0.68  -1  0.00075914157919
0.68  -0.98  0.000961338395626
0.68  -0.96  0.00121739018944
0.68  -0.94  0.00154164119533
0.68  -0.92  0.00195225622463
0.68  -0.9  0.00247223827318
0.68  -0.88  0.00313071716831
0.68  -0.86  0.00396458144599
0.68  -0.84  0.00502054487739
0.68  -0.82  0.00635776341317
0.68  -0.8  0.00805114914915
0.68  -0.78  0.0101955669643
0.68  -0.76  0.01291114893
0.68  -0.74  0.0163500242094
0.68  -0.72  0.0207048414587
0.68  -0.7  0.0262195611665
0.68  -0.68  0.0332031225226
0.68  -0.66  0.0420467504489
0.68  -0.64  0.0532458723457
0.68  -0.62  0.0674278723464
0.68  -0.6  0.0853872378997
0.68  -0.58  0.108130067618
0.68  -0.56  0.136930433759
0.68  -0.54  0.173401756814
0.68  -0.52  0.219587190668
0.68  -0.5  0.278074081783
0.68  -0.48  0.352138914499
0.68  -0.46  0.445930862412
0.68  -0.44  0.564704228543
0.68  -0.42  0.715112795758
0.68  -0.4  0.905582577229
0.68  -0.38  1.14678384871
0.68  -0.36  1.45222890627
0.68  -0.34  1.83902903635
0.68  -0.32  2.32885310432
0.68  -0.3  2.94914146231
0.68  -0.28  3.73464318062
0.68  -0.26  4.72936271956
0.68  -0.24  5.98902509596
0.68  -0.22  7.58419764499
0.68  -0.2  4.05722257472
0.68  -0.18  3.72545221403
0.68  -0.16  3.3907481211
0.68  -0.14  3.05589561029
0.68  -0.12  2.72465239428
0.68  -0.1  2.40235012091
0.68  -0.08  2.09691597779
0.68  -0.06  1.82051059417
0.68  -0.04  1.59163642055
0.68  -0.02  1.43586573832
0.68  6.17561557e-16  1.37985729488
0.68  0.02  1.43586573832
0.68  0.04  1.59163642055
0.68  0.06  1.82051059417
0.68  0.08  2.09691597779
0.68  0.1  2.40235012091
0.68  0.12  2.72465239428
0.68  0.14  3.05589561029
0.68  0.16  3.3907481211
0.68  0.18  3.72545221403
0.68  0.2  9.60424326108
0.68  0.22  7.58419764499
0.68  0.24  5.98902509596
0.68  0.26  4.72936271956
0.68  0.28  3.73464318062
0.68  0.3  2.94914146231
0.68  0.32  2.32885310432
0.68  0.34  1.83902903635
0.68  0.36  1.45222890627
0.68  0.38  1.14678384871
0.68  0.4  0.905582577229
0.68  0.42  0.715112795757
0.68  0.44  0.564704228543
0.68  0.46  0.445930862412
0.68  0.48  0.352138914499
0.68  0.5  0.278074081783
0.68  0.52  0.219587190668
0.68  0.54  0.173401756814
0.68  0.56  0.136930433759
0.68  0.58  0.108130067618
0.68  0.6  0.0853872378997
0.68  0.62  0.0674278723464
0.68  0.64  0.0532458723456
0.68  0.66  0.0420467504489
0.68  0.68  0.0332031225226
0.68  0.7  0.0262195611665
0.68  0.72  0.0207048414587
0.68  0.74  0.0163500242094
0.68  0.76  0.01291114893
0.68  0.78  0.0101955669643
0.68  0.8  0.00805114914915
0.68  0.82  0.00635776341317
0.68  0.84  0.00502054487739
0.68  0.86  0.00396458144599
0.68  0.88  0.00313071716831
0.68  0.9  0.00247223827318
0.68  0.92  0.00195225622463
0.68  0.94  0.00154164119533
0.68  0.96  0.00121739018944
0.68  0.98  0.000961338395626
0.7  -1  0.000631711769573
0.7  -0.98  0.000799967747395
0.7  -0.96  0.00101303858452
0.7  -0.94  0.00128286068666
0.7  -0.92  0.00162454971263
0.7  -0.9  0.00205724736619
0.7  -0.88  0.00260519373017
0.7  -0.86  0.00329908521613
0.7  -0.84  0.00417779420289
0.7  -0.82  0.00529054669952
0.7  -0.8  0.00669968002744
0.7  -0.78  0.00848413500899
0.7  -0.76  0.0107438782981
0.7  -0.74  0.0136055025953
0.7  -0.72  0.0172293184765
0.7  -0.7  0.0218183351248
0.7  -0.68  0.0276296330738
0.7  -0.66  0.0349887660734
0.7  -0.64  0.0443079988818
0.7  -0.62  0.0561094026807
0.7  -0.6  0.0710541019372
0.7  -0.58  0.0899793111474
0.7  -0.56  0.113945236289
0.7  -0.54  0.144294468445
0.7  -0.52  0.182727196869
0.7  -0.5  0.23139645501
0.7  -0.48  0.293028735233
0.7  -0.46  0.371076729195
0.7  -0.44  0.469912750502
0.7  -0.42  0.595073675366
0.7  -0.4  0.753571123012
0.7  -0.38  0.95428425243
0.7  -0.36  1.20845718025
0.7  -0.34  1.53032888554
0.7  -0.32  1.93793088922
0.7  -0.3  2.45409739493
0.7  -0.28  3.10774448011
0.7  -0.26  3.93548999873
0.7  -0.24  4.98370494397
0.7  -0.22  6.31111118985
0.7  -0.2  3.37617556789
0.7  -0.18  3.10009631285
0.7  -0.16  2.82157578306
0.7  -0.14  2.54293174886
0.7  -0.12  2.2672911518
0.7  -0.1  1.99909066716
0.7  -0.08  1.74492682167
0.7  -0.06  1.51491895648
0.7  -0.04  1.32446369334
0.7  -0.02  1.19484074023
0.7  6.17561557e-16  1.14823389655
0.7  0.02  1.19484074023
0.7  0.04  1.32446369334
0.7  0.06  1.51491895648
0.7  0.08  1.74492682167
0.7  0.1  1.99909066716
0.7  0.12  2.2672911518
0.7  0.14  2.54293174886
0.7  0.16  2.82157578306
0.7  0.18  3.10009631285
0.7  0.2  7.99207113953
0.7  0.22  6.31111118985
0.7  0.24  4.98370494397
0.7  0.26  3.93548999873
0.7  0.28  3.10774448011
0.7  0.3  2.45409739493
0.7  0.32  1.93793088922
0.7  0.34  1.53032888554
0.7  0.36  1.20845718025
0.7  0.38  0.95428425243
0.7  0.4  0.753571123012
0.7  0.42  0.595073675366
0.7  0.44  0.469912750502
0.7  0.46  0.371076729195
0.7  0.48  0.293028735233
0.7  0.5  0.23139645501
0.7  0.52  0.182727196869
0.7  0.54  0.144294468445
0.7  0.56  0.113945236289
0.7  0.58  0.0899793111474
0.7  0.6  0.0710541019372
0.7  0.62  0.0561094026807
0.7  0.64  0.0443079988818
0.7  0.66  0.0349887660734
0.7  0.68  0.0276296330738
0.7  0.7  0.0218183351248
0.7  0.72  0.0172293184765
0.7  0.74  0.0136055025953
0.7  0.76  0.0107438782981
0.7  0.78  0.00848413500899
0.7  0.8  0.00669968002744
0.7  0.82  0.00529054669952
0.7  0.84  0.00417779420289
0.7  0.86  0.00329908521613
0.7  0.88  0.00260519373017
0.7  0.9  0.00205724736619
0.7  0.92  0.00162454971263
0.7  0.94  0.00128286068666
0.7  0.96  0.00101303858452
0.7  0.98  0.000799967747395
0.72  -1  0.000525672378849
0.72  -0.98  0.000665684840826
0.72  -0.96  0.000842989521868
0.72  -0.94  0.00106751917784
0.72  -0.92  0.00135185214703
0.72  -0.9  0.00171191699911
0.72  -0.88  0.00216788486691
0.72  -0.86  0.00274529945004
0.72  -0.84  0.00347650799424
0.72  -0.82  0.00440247341099
0.72  -0.8  0.00557506905394
0.72  -0.78  0.00705998470738
0.72  -0.76  0.00894040658262
0.72  -0.74  0.0113216774789
0.72  -0.72  0.0143371981744
0.72  -0.7  0.0181559006496
0.72  -0.68  0.0229917117967
0.72  -0.66  0.0291155377827
0.72  -0.64  0.0368704404384
0.72  -0.62  0.0466908558676
0.72  -0.6  0.0591269319196
0.72  -0.58  0.0748753479298
0.72  -0.56  0.094818343276
0.72  -0.54  0.120073141163
0.72  -0.52  0.152054536397
0.72  -0.5  0.192554153368
0.72  -0.48  0.243840814341
0.72  -0.46  0.308787640767
0.72  -0.44  0.391033007942
0.72  -0.42  0.495184369815
0.72  -0.4  0.6270763724
0.72  -0.38  0.794097715502
0.72  -0.36  1.00560507383
0.72  -0.34  1.27344726572
0.72  -0.32  1.61262903376
0.72  -0.3  2.04215162303
0.72  -0.28  2.58607724662
0.72  -0.26  3.27487707087
0.72  -0.24  4.14713823545
0.72  -0.22  5.2517255371
0.72  -0.2  2.80944938446
0.72  -0.18  2.57971290379
0.72  -0.16  2.3479449417
0.72  -0.14  2.11607420672
0.72  -0.12  1.88670275071
0.72  -0.1  1.66352250688
0.72  -0.08  1.45202270631
0.72  -0.06  1.26062405353
0.72  -0.04  1.10213868716
0.72  -0.02  0.994274294889
0.72  6.17561557e-16  0.955490894657
0.72  0.02  0.994274294889
0.72  0.04  1.10213868716
0.72  0.06  1.26062405353
0.72  0.08  1.45202270631
0.72  0.1  1.66352250688
0.72  0.12  1.88670275071
0.72  0.14  2.11607420672
0.72  0.16  2.3479449417
0.72  0.18  2.57971290379
0.72  0.2  6.65051887618
0.72  0.22  5.2517255371
0.72  0.24  4.14713823545
0.72  0.26  3.27487707087
0.72  0.28  2.58607724662
0.72  0.3  2.04215162303
0.72  0.32  1.61262903376
0.72  0.34  1.27344726572
0.72  0.36  1.00560507383
0.72  0.38  0.794097715502
0.72  0.4  0.6270763724
0.72  0.42  0.495184369814
0.72  0.44  0.391033007942
0.72  0.46  0.308787640767
0.72  0.48  0.243840814341
0.72  0.5  0.192554153368
0.72  0.52  0.152054536397
0.72  0.54  0.120073141163
0.72  0.56  0.094818343276
0.72  0.58  0.0748753479298
0.72  0.6  0.0591269319196
0.72  0.62  0.0466908558676
0.72  0.64  0.0368704404384
0.72  0.66  0.0291155377827
0.72  0.68  0.0229917117967
0.72  0.7  0.0181559006496
0.72  0.72  0.0143371981744
0.72  0.74  0.0113216774789
0.72  0.76  0.00894040658262
0.72  0.78  0.00705998470738
0.72  0.8  0.00557506905394
0.72  0.82  0.00440247341099
0.72  0.84  0.00347650799424
0.72  0.86  0.00274529945004
0.72  0.88  0.00216788486691
0.72  0.9  0.00171191699911
0.72  0.92  0.00135185214703
0.72  0.94  0.00106751917784
0.72  0.96  0.000842989521868
0.72  0.98  0.000665684840826
0.74  -1  0.000437432802735
0.74  -0.98  0.000553942716752
0.74  -0.96  0.000701484963001
0.74  -0.94  0.000888324980968
0.74  -0.92  0.00112492970403
0.74  -0.9  0.00142455392579
0.74  -0.88  0.00180398284463
0.74  -0.86  0.00228447238451
0.74  -0.84  0.00289293996953
0.74  -0.82  0.00366347246046
0.74  -0.8  0.00463923572901
0.74  -0.78  0.00587489284596
0.74  -0.76  0.00743966635187
0.74  -0.74  0.00942121616145
0.74  -0.72  0.011930550345
0.74  -0.7  0.0151082438928
0.74  -0.68  0.0191323138434
0.74  -0.66  0.024228191946
0.74  -0.64  0.030681353535
0.74  -0.62  0.0388533100959
0.74  -0.6  0.0492018614395
0.74  -0.58  0.062306742029
0.74  -0.56  0.0789020981866
0.74  -0.54  0.0999176155825
0.74  -0.52  0.126530601
0.74  -0.5  0.160231936041
0.74  -0.48  0.202909597556
0.74  -0.46  0.256954423679
0.74  -0.44  0.325394050569
0.74  -0.42  0.412062523112
0.74  -0.4  0.521815081303
0.74  -0.38  0.660800154838
0.74  -0.36  0.836803803263
0.74  -0.34  1.05968589751
0.74  -0.32  1.34193247809
0.74  -0.3  1.69935523344
0.74  -0.28  2.15197728394
0.74  -0.26  2.72515489374
0.74  -0.24  3.45099794978
0.74  -0.22  4.37016878444
0.74  -0.2  2.33785408524
0.74  -0.18  2.14668126225
0.74  -0.16  1.95381796313
0.74  -0.14  1.76086914262
0.74  -0.12  1.57000007111
0.74  -0.1  1.38428295242
0.74  -0.08  1.20828559311
0.74  -0.06  1.04901519486
0.74  -0.04  0.917133245581
0.74  -0.02  0.827375013413
0.74  6.17561557e-16  0.795101810282
0.74  0.02  0.827375013413
0.74  0.04  0.917133245581
0.74  0.06  1.04901519486
0.74  0.08  1.20828559311
0.74  0.1  1.38428295242
0.74  0.12  1.57000007111
0.74  0.14  1.76086914262
0.74  0.16  1.95381796313
0.74  0.18  2.14668126225
0.74  0.2  5.53416011323
0.74  0.22  4.37016878444
0.74  0.24  3.45099794978
0.74  0.26  2.72515489374
0.74  0.28  2.15197728394
0.74  0.3  1.69935523344
0.74  0.32  1.34193247809
0.74  0.34  1.05968589751
0.74  0.36  0.836803803263
0.74  0.38  0.660800154838
0.74  0.4  0.521815081303
0.74  0.42  0.412062523112
0.74  0.44  0.325394050569
0.74  0.46  0.256954423679
0.74  0.48  0.202909597556
0.74  0.5  0.160231936041
0.74  0.52  0.126530601
0.74  0.54  0.0999176155825
0.74  0.56  0.0789020981866
0.74  0.58  0.062306742029
0.74  0.6  0.0492018614395
0.74  0.62  0.0388533100959
0.74  0.64  0.030681353535
0.74  0.66  0.024228191946
0.74  0.68  0.0191323138434
0.74  0.7  0.0151082438928
0.74  0.72  0.011930550345
0.74  0.74  0.00942121616145
0.74  0.76  0.00743966635187
0.74  0.78  0.00587489284596
0.74  0.8  0.00463923572901
0.74  0.82  0.00366347246046
0.74  0.84  0.00289293996953
0.74  0.86  0.00228447238451
0.74  0.88  0.00180398284463
0.74  0.9  0.00142455392579
0.74  0.92  0.00112492970403
0.74  0.94  0.000888324980968
0.74  0.96  0.000701484963001
0.74  0.98  0.000553942716752
0.76  -1  0.00036400515722
0.76  -0.98  0.000460957670391
0.76  -0.96  0.000583733416075
0.76  -0.94  0.000739210393773
0.76  -0.92  0.000936098553234
0.76  -0.9  0.00118542773309
0.76  -0.88  0.0015011655616
0.76  -0.86  0.00190099993482
0.76  -0.84  0.00240732990725
0.76  -0.82  0.00304852050555
0.76  -0.8  0.00386049176092
0.76  -0.78  0.00488873097918
0.76  -0.76  0.00619084097749
0.76  -0.74  0.00783976704216
0.76  -0.72  0.00992788338432
0.76  -0.7  0.0125721680201
0.76  -0.68  0.0159207559766
0.76  -0.66  0.0201612379394
0.76  -0.64  0.0255311692387
0.76  -0.62  0.0323313778974
0.76  -0.6  0.0409428172665
0.76  -0.58  0.05184790735
0.76  -0.56  0.0656575603744
0.76  -0.54  0.0831454046008
0.76  -0.52  0.105291123624
0.76  -0.5  0.133335339063
0.76  -0.48  0.168849111218
0.76  -0.46  0.213821951176
0.76  -0.44  0.270773274878
0.76  -0.42  0.342893542897
0.76  -0.4  0.434222992701
0.76  -0.38  0.549877976111
0.76  -0.36  0.696337581598
0.76  -0.34  0.881806598213
0.76  -0.32  1.1166751547
0.76  -0.3  1.41410078314
0.76  -0.28  1.79074551491
0.76  -0.26  2.2677093015
0.76  -0.24  2.87171205135
0.76  -0.22  3.63659050146
0.76  -0.2  1.94542096187
0.76  -0.18  1.78633848554
0.76  -0.16  1.62584929708
0.76  -0.14  1.46528894288
0.76  -0.12  1.30645923018
0.76  -0.1  1.15191666144
0.76  -0.08  1.00546228937
0.76  -0.06  0.872927083981
0.76  -0.04  0.763182891546
0.76  -0.02  0.68849151219
0.76  6.17561557e-16  0.661635701866
0.76  0.02  0.68849151219
0.76  0.04  0.763182891546
0.76  0.06  0.872927083981
0.76  0.08  1.00546228937
0.76  0.1  1.15191666144
0.76  0.12  1.30645923018
0.76  0.14  1.46528894288
0.76  0.16  1.62584929708
0.76  0.18  1.78633848554
0.76  0.2  4.60519377947
0.76  0.22  3.63659050146
0.76  0.24  2.87171205135
0.76  0.26  2.2677093015
0.76  0.28  1.79074551491
0.76  0.3  1.41410078314
0.76  0.32  1.1166751547
0.76  0.34  0.881806598213
0.76  0.36  0.696337581598
0.76  0.38  0.549877976111
0.76  0.4  0.434222992701
0.76  0.42  0.342893542897
0.76  0.44  0.270773274878
0.76  0.46  0.213821951176
0.76  0.48  0.168849111218
0.76  0.5  0.133335339063
0.76  0.52  0.105291123624
0.76  0.54  0.0831454046008
0.76  0.56  0.0656575603744
0.76  0.58  0.05184790735
0.76  0.6  0.0409428172665
0.76  0.62  0.0323313778974
0.76  0.64  0.0255311692387
0.76  0.66  0.0201612379394
0.76  0.68  0.0159207559766
0.76  0.7  0.0125721680201
0.76  0.72  0.00992788338432
0.76  0.74  0.00783976704216
0.76  0.76  0.00619084097749
0.76  0.78  0.00488873097918
0.76  0.8  0.00386049176092
0.76  0.82  0.00304852050555
0.76  0.84  0.00240732990725
0.76  0.86  0.00190099993482
0.76  0.88  0.0015011655616
0.76  0.9  0.00118542773309
0.76  0.92  0.000936098553234
0.76  0.94  0.000739210393773
0.76  0.96  0.000583733416075
0.76  0.98  0.000460957670391
0.78  -1  0.000302903105697
0.78  -0.98  0.000383581131166
0.78  -0.96  0.000485747690992
0.78  -0.94  0.000615126240924
0.78  -0.92  0.000778964675059
0.78  -0.9  0.000986441358895
0.78  -0.88  0.00124917930902
0.78  -0.86  0.00158189732416
0.78  -0.84  0.00200323454457
0.78  -0.82  0.00253679463216
0.78  -0.8  0.0032124680673
0.78  -0.78  0.00406810663844
0.78  -0.76  0.00515164393077
0.78  -0.74  0.00652378060562
0.78  -0.72  0.00826138490202
0.78  -0.7  0.0104617988595
0.78  -0.68  0.0132482915001
0.78  -0.66  0.0167769644617
0.78  -0.64  0.0212454969418
0.78  -0.62  0.0269042198506
0.78  -0.6  0.0340701395573
0.78  -0.58  0.0431446968504
0.78  -0.56  0.0546362559856
0.78  -0.54  0.0691885836739
0.78  -0.52  0.0876169134296
0.78  -0.5  0.11095361563
0.78  -0.48  0.140506031763
0.78  -0.46  0.177929712788
0.78  -0.44  0.225321164477
0.78  -0.42  0.285335295413
0.78  -0.4  0.361334147183
0.78  -0.38  0.457575238743
0.78  -0.36  0.579450076177
0.78  -0.34  0.733786189358
0.78  -0.32  0.929229615854
0.78  -0.3  1.17672925915
0.78  -0.28  1.49015025535
0.78  -0.26  1.88705070963
0.78  -0.24  2.38966531592
0.78  -0.22  3.02615096296
0.78  -0.2  1.61886181982
0.78  -0.18  1.4864829917
0.78  -0.16  1.35293358271
0.78  -0.14  1.21932495389
0.78  -0.12  1.0871564604
0.78  -0.1  0.958555469156
0.78  -0.08  0.83668498666
0.78  -0.06  0.726397193943
0.78  -0.04  0.635074705617
0.78  -0.02  0.572921051123
0.78  6.17561557e-16  0.55057326788
0.78  0.02  0.572921051123
0.78  0.04  0.635074705617
0.78  0.06  0.726397193943
0.78  0.08  0.83668498666
0.78  0.1  0.958555469156
0.78  0.12  1.0871564604
0.78  0.14  1.21932495389
0.78  0.16  1.35293358271
0.78  0.18  1.4864829917
0.78  0.2  3.83216410667
0.78  0.22  3.02615096296
0.78  0.24  2.38966531592
0.78  0.26  1.88705070963
0.78  0.28  1.49015025535
0.78  0.3  1.17672925915
0.78  0.32  0.929229615854
0.78  0.34  0.733786189358
0.78  0.36  0.579450076177
0.78  0.38  0.457575238743
0.78  0.4  0.361334147183
0.78  0.42  0.285335295413
0.78  0.44  0.225321164477
0.78  0.46  0.177929712788
0.78  0.48  0.140506031763
0.78  0.5  0.11095361563
0.78  0.52  0.0876169134296
0.78  0.54  0.0691885836739
0.78  0.56  0.0546362559856
