-0.08  -0.52  4.41290927805
-0.08  -0.5  5.52335888664
-0.08  -0.48  6.91323828984
-0.08  -0.46  8.65286225882
-0.08  -0.44  10.8302393366
-0.08  -0.42  13.5555242393
-0.08  -0.4  16.9665906441
-0.08  -0.38  21.2360062954
-0.08  -0.36  26.5797633031
-0.08  -0.34  33.2682053028
-0.08  -0.32  41.6397042912
-0.08  -0.3  52.1177790529
-0.08  -0.28  65.2325212112
-0.08  -0.26  81.647412858
-0.08  -0.24  102.192892481
-0.08  -0.22  127.908367309
-0.08  -0.2  75.552292688
-0.08  -0.18  69.8651269871
-0.08  -0.16  63.9842671185
-0.08  -0.14  57.9758784923
-0.08  -0.12  51.9257609471
-0.08  -0.1  45.9508772938
-0.08  -0.08  40.2190511197
-0.08  -0.06  34.9807250966
-0.08  -0.04  30.6100921512
-0.08  -0.02  27.6194401719
-0.08  6.17561557e-16  26.541038008
-0.08  0.02  27.6194401719
-0.08  0.04  30.6100921512
-0.08  0.06  34.9807250966
-0.08  0.08  40.2190511197
-0.08  0.1  45.9508772938
-0.08  0.12  51.9257609471
-0.08  0.14  57.9758784923
-0.08  0.16  63.9842671185
-0.08  0.18  69.8651269871
-0.08  0.2  160.094797499
-0.08  0.22  127.908367309
-0.08  0.24  102.192892481
-0.08  0.26  81.647412858
-0.08  0.28  65.2325212112
-0.08  0.3  52.1177790529
-0.08  0.32  41.6397042912
-0.08  0.34  33.2682053028
-0.08  0.36  26.5797633031
-0.08  0.38  21.2360062954
-0.08  0.4  16.9665906441
-0.08  0.42  13.5555242393
-0.08  0.44  10.8302393366
-0.08  0.46  8.65286225882
-0.08  0.48  6.91323828984
-0.08  0.5  5.52335888664
-0.08  0.52  4.41290927805
-0.08  0.54  3.52571120146
-0.08  0.56  2.81688081328
-0.08  0.58  2.25055799039
-0.08  0.6  1.79809214654
-0.08  0.62  1.43659278332
-0.08  0.64  1.14777144712
-0.08  0.66  0.917016506087
-0.08  0.68  0.732653939549
-0.08  0.7  0.585356742843
-0.08  0.72  0.467673068956
-0.08  0.74  0.373649235447
-0.08  0.76  0.298528524342
-0.08  0.78  0.238510537133
-0.08  0.8  0.190558930504
-0.08  0.82  0.152247806035
-0.08  0.84  0.121638982656
-0.08  0.86  0.0971839429872
-0.08  0.88  0.0776454929849
-0.08  0.9  0.0620351716092
-0.08  0.92  0.0495632440293
-0.08  0.94  0.0395987485
-0.08  0.96  0.0316375756566
-0.08  0.98  0.0252769653422
-0.06  -1  0.0235846897502
-0.06  -0.98  0.0295194615417
-0.06  -0.96  0.0369476392923
-0.06  -0.94  0.0462450186412
-0.06  -0.92  0.0578819591749
-0.06  -0.9  0.07244718018
-0.06  -0.88  0.0906775442789
-0.06  -0.86  0.113495335719
-0.06  -0.84  0.142054919247
-0.06  -0.82  0.177801140059
-0.06  -0.8  0.222542419325
-0.06  -0.78  0.278542243219
-0.06  -0.76  0.348633673944
-0.06  -0.74  0.43636267592
-0.06  -0.72  0.546167508094
-0.06  -0.7  0.68360325793
-0.06  -0.68  0.855622876365
-0.06  -0.66  1.07092893146
-0.06  -0.64  1.34041387616
-0.06  -0.62  1.67771110354
-0.06  -0.6  2.0998846677
-0.06  -0.58  2.62829256381
-0.06  -0.56  3.28966724088
-0.06  -0.54  4.11746801127
-0.06  -0.52  5.15357377584
-0.06  -0.5  6.45040170082
-0.06  -0.48  8.07355903142
-0.06  -0.46  10.1051621987
-0.06  -0.44  12.6479911357
-0.06  -0.42  15.8306889708
-0.06  -0.4  19.8142701559
-0.06  -0.38  24.8002662761
-0.06  -0.36  31.0409216451
-0.06  -0.34  38.8519544851
-0.06  -0.32  48.6285292871
-0.06  -0.3  60.8652484015
-0.06  -0.28  76.1811742467
-0.06  -0.26  95.3511480199
-0.06  -0.24  119.344989344
-0.06  -0.22  149.376559983
-0.06  -0.2  88.2330203882
-0.06  -0.18  81.5913184704
-0.06  -0.16  74.7234126766
-0.06  -0.14  67.7065736464
-0.06  -0.12  60.6410018984
-0.06  -0.1  53.6632913294
-0.06  -0.08  46.9694331063
-0.06  -0.06  40.8519043014
-0.06  -0.04  35.7477025351
-0.06  -0.02  32.2550983047
-0.06  6.17561557e-16  30.9956966806
-0.06  0.02  32.2550983047
-0.06  0.04  35.7477025351
-0.06  0.06  40.8519043014
-0.06  0.08  46.9694331063
-0.06  0.1  53.6632913294
-0.06  0.12  60.6410018984
-0.06  0.14  67.7065736464
-0.06  0.16  74.7234126766
-0.06  0.18  81.5913184704
-0.06  0.2  186.965173778
-0.06  0.22  149.376559983
-0.06  0.24  119.344989344
-0.06  0.26  95.3511480199
-0.06  0.28  76.1811742467
-0.06  0.3  60.8652484015
-0.06  0.32  48.6285292871
-0.06  0.34  38.8519544851
-0.06  0.36  31.0409216451
-0.06  0.38  24.8002662761
-0.06  0.4  19.8142701559
-0.06  0.42  15.8306889708
-0.06  0.44  12.6479911357
-0.06  0.46  10.1051621987
-0.06  0.48  8.07355903142
-0.06  0.5  6.45040170082
-0.06  0.52  5.15357377584
-0.06  0.54  4.11746801127
-0.06  0.56  3.28966724088
-0.06  0.58  2.62829256381
-0.06  0.6  2.0998846677
-0.06  0.62  1.67771110354
-0.06  0.64  1.34041387616
-0.06  0.66  1.07092893146
-0.06  0.68  0.855622876365
-0.06  0.7  0.68360325793
-0.06  0.72  0.546167508094
-0.06  0.74  0.43636267592
-0.06  0.76  0.348633673944
-0.06  0.78  0.278542243219
-0.06  0.8  0.222542419325
-0.06  0.82  0.177801140059
-0.06  0.84  0.142054919247
-0.06  0.86  0.113495335719
-0.06  0.88  0.0906775442789
-0.06  0.9  0.07244718018
-0.06  0.92  0.0578819591749
-0.06  0.94  0.0462450186412
-0.06  0.96  0.0369476392923
-0.06  0.98  0.0295194615417
-0.04  -1  0.0275431537223
-0.04  -0.98  0.0344740200382
-0.04  -0.96  0.04314894618
-0.04  -0.94  0.0540068014808
-0.04  -0.92  0.0675968908724
-0.04  -0.9  0.084606744527
-0.04  -0.88  0.105896900391
-0.04  -0.86  0.132544439278
-0.04  -0.84  0.165897474983
-0.04  -0.82  0.207643356114
-0.04  -0.8  0.259894029988
-0.04  -0.78  0.325292887225
-0.04  -0.76  0.407148492345
-0.04  -0.74  0.509601965887
-0.04  -0.72  0.637836485996
-0.04  -0.7  0.798339508286
-0.04  -0.68  0.999230969822
-0.04  -0.66  1.25067408125
-0.04  -0.64  1.56538948927
-0.04  -0.62  1.95929882122
-0.04  -0.6  2.45233016903
-0.04  -0.58  3.0694262625
-0.04  -0.56  3.84180633583
-0.04  -0.54  4.80854552603
-0.04  -0.52  6.01855170581
-0.04  -0.5  7.53303976004
-0.04  -0.48  9.42862848075
-0.04  -0.46  11.8012167544
-0.04  -0.44  14.77083514
-0.04  -0.42  18.4877182813
-0.04  -0.4  23.1399053614
-0.04  -0.38  28.9627531093
-0.04  -0.36  36.2508426275
-0.04  -0.34  45.3728824136
-0.04  -0.32  56.7903615281
-0.04  -0.3  71.0808965827
-0.04  -0.28  88.9674536848
-0.04  -0.26  111.354923695
-0.04  -0.24  139.37590116
-0.04  -0.22  174.447982895
-0.04  -0.2  103.042086611
-0.04  -0.18  95.2856387274
-0.04  -0.16  87.2650208167
-0.04  -0.14  79.0704726543
-0.04  -0.12  70.8190124548
-0.04  -0.1  62.6701600906
-0.04  -0.08  54.852801966
-0.04  -0.06  47.7085046248
-0.04  -0.04  41.7476115468
-0.04  -0.02  37.6688071942
-0.04  6.17561557e-16  36.1980270865
-0.04  0.02  37.6688071942
-0.04  0.04  41.7476115468
-0.04  0.06  47.7085046248
-0.04  0.08  54.852801966
-0.04  0.1  62.6701600906
-0.04  0.12  70.8190124548
-0.04  0.14  79.0704726543
-0.04  0.16  87.2650208167
-0.04  0.18  95.2856387274
-0.04  0.2  218.345485
-0.04  0.22  174.447982895
-0.04  0.24  139.37590116
-0.04  0.26  111.354923695
-0.04  0.28  88.9674536848
-0.04  0.3  71.0808965827
-0.04  0.32  56.7903615281
-0.04  0.34  45.3728824136
-0.04  0.36  36.2508426275
-0.04  0.38  28.9627531093
-0.04  0.4  23.1399053614
-0.04  0.42  18.4877182813
-0.04  0.44  14.77083514
-0.04  0.46  11.8012167544
-0.04  0.48  9.42862848075
-0.04  0.5  7.53303976004
-0.04  0.52  6.01855170581
-0.04  0.54  4.80854552603
-0.04  0.56  3.84180633583
-0.04  0.58  3.0694262625
-0.04  0.6  2.45233016903
-0.04  0.62  1.95929882122
-0.04  0.64  1.56538948927
-0.04  0.66  1.25067408125
-0.04  0.68  0.999230969822
-0.04  0.7  0.798339508286
-0.04  0.72  0.637836485996
-0.04  0.74  0.509601965887
-0.04  0.76  0.407148492345
-0.04  0.78  0.325292887225
-0.04  0.8  0.259894029988
-0.04  0.82  0.207643356114
-0.04  0.84  0.165897474983
-0.04  0.86  0.132544439278
-0.04  0.88  0.105896900391
-0.04  0.9  0.084606744527
-0.04  0.92  0.0675968908724
-0.04  0.94  0.0540068014808
-0.04  0.96  0.04314894618
-0.04  0.98  0.0344740200382
-0.02  -1  0.0321660079062
-0.02  -0.98  0.0402601536587
-0.02  -0.96  0.0503910829517
-0.02  -0.94  0.0630713251262
-0.02  -0.92  0.0789423806786
-0.02  -0.9  0.0988071751265
-0.02  -0.88  0.123670679457
-0.02  -0.86  0.154790752167
-0.02  -0.84  0.193741775025
-0.02  -0.82  0.242494301915
-0.02  -0.8  0.303514750259
-0.02  -0.78  0.379890178438
-0.02  -0.76  0.475484461794
-0.02  -0.74  0.595133768232
-0.02  -0.72  0.744891222634
-0.02  -0.7  0.932333137819
-0.02  -0.68  1.16694230441
-0.02  -0.66  1.46058773048
-0.02  -0.64  1.82812510128
-0.02  -0.62  2.28814833658
-0.02  -0.6  2.86393026742
-0.02  -0.58  3.58460002157
-0.02  -0.56  4.48661668226
-0.02  -0.54  5.61561377347
-0.02  -0.52  7.02870788527
-0.02  -0.5  8.79738823383
-0.02  -0.48  11.0111333406
-0.02  -0.46  13.7819378004
-0.02  -0.44  17.2499781501
-0.02  -0.42  21.5907044778
-0.02  -0.4  27.0237165399
-0.02  -0.38  33.8238734349
-0.02  -0.36  42.3351988781
-0.02  -0.34  52.9882855521
-0.02  -0.32  66.3220790302
-0.02  -0.3  83.0111433321
-0.02  -0.28  103.899787493
-0.02  -0.26  130.044779624
-0.02  -0.24  162.768809405
-0.02  -0.22  203.72740368
-0.02  -0.2  120.336712565
-0.02  -0.18  111.278419296
-0.02  -0.16  101.911617596
-0.02  -0.14  92.3416931187
-0.02  -0.12  82.7053044651
-0.02  -0.1  73.1887453877
-0.02  -0.08  64.0593186788
-0.02  -0.06  55.7159195503
-0.02  -0.04  48.7545477406
-0.02  -0.02  43.9911551975
-0.02  6.17561557e-16  42.273518755
-0.02  0.02  43.9911551975
-0.02  0.04  48.7545477406
-0.02  0.06  55.7159195503
-0.02  0.08  64.0593186788
-0.02  0.1  73.1887453877
-0.02  0.12  82.7053044651
-0.02  0.14  92.3416931187
-0.02  0.16  101.911617596
-0.02  0.18  111.278419296
-0.02  0.2  254.99268049
-0.02  0.22  203.72740368
-0.02  0.24  162.768809405
-0.02  0.26  130.044779624
-0.02  0.28  103.899787493
-0.02  0.3  83.0111433321
-0.02  0.32  66.3220790302
-0.02  0.34  52.9882855521
-0.02  0.36  42.3351988781
-0.02  0.38  33.8238734349
-0.02  0.4  27.0237165399
-0.02  0.42  21.5907044778
-0.02  0.44  17.2499781501
-0.02  0.46  13.7819378004
-0.02  0.48  11.0111333406
-0.02  0.5  8.79738823383
-0.02  0.52  7.02870788527
-0.02  0.54  5.61561377347
-0.02  0.56  4.48661668226
-0.02  0.58  3.58460002157
-0.02  0.6  2.86393026742
-0.02  0.62  2.28814833658
-0.02  0.64  1.82812510128
-0.02  0.66  1.46058773048
-0.02  0.68  1.16694230441
-0.02  0.7  0.932333137819
-0.02  0.72  0.744891222634
-0.02  0.74  0.595133768232
-0.02  0.76  0.475484461794
-0.02  0.78  0.379890178438
-0.02  0.8  0.303514750259
-0.02  0.82  0.242494301915
-0.02  0.84  0.193741775025
-0.02  0.86  0.154790752167
-0.02  0.88  0.123670679457
-0.02  0.9  0.0988071751265
-0.02  0.92  0.0789423806786
-0.02  0.94  0.0630713251262
-0.02  0.96  0.0503910829517
-0.02  0.98  0.0402601536587
2.8449465e-16  -1  0.0350993695914
2.8449465e-16  -0.98  0.0439316565859
2.8449465e-16  -0.96  0.0549864704936
2.8449465e-16  -0.94  0.0688230804917
2.8449465e-16  -0.92  0.086141488367
2.8449465e-16  -0.9  0.107817841995
2.8449465e-16  -0.88  0.134948760149
2.8449465e-16  -0.86  0.16890681105
2.8449465e-16  -0.84  0.21140995136
2.8449465e-16  -0.82  0.264608438559
2.8449465e-16  -0.8  0.33119361367
2.8449465e-16  -0.78  0.414534057693
2.8449465e-16  -0.76  0.518846009992
2.8449465e-16  -0.74  0.649406670184
2.8449465e-16  -0.72  0.812821174604
2.8449465e-16  -0.7  1.01735675381
2.8449465e-16  -0.68  1.2733609764
2.8449465e-16  -0.66  1.59378523821
2.8449465e-16  -0.64  1.99483998065
2.8449465e-16  -0.62  2.49681478596
2.8449465e-16  -0.6  3.12510483842
2.8449465e-16  -0.58  3.91149568082
2.8449465e-16  -0.56  4.89577126278
2.8449465e-16  -0.54  6.12772663279
2.8449465e-16  -0.52  7.66968709746
2.8449465e-16  -0.5  9.59966129334
2.8449465e-16  -0.48  12.0152876872
2.8449465e-16  -0.46  15.0387741603
2.8449465e-16  -0.44  18.8230805731
2.8449465e-16  -0.42  23.5596570894
2.8449465e-16  -0.4  29.4881297465
2.8449465e-16  -0.38  36.9084232699
2.8449465e-16  -0.36  46.1959344311
2.8449465e-16  -0.34  57.8205235798
2.8449465e-16  -0.32  72.3702851388
2.8449465e-16  -0.3  90.5812996289
2.8449465e-16  -0.28  113.37487239
2.8449465e-16  -0.26  141.904142932
2.8449465e-16  -0.24  177.6124229
2.8449465e-16  -0.22  222.306214017
2.8449465e-16  -0.2  92.1502160044
2.8449465e-16  -0.18  86.5505355902
2.8449465e-16  -0.16  80.8613750084
2.8449465e-16  -0.14  75.1791849771
2.8449465e-16  -0.12  69.6230867824
2.8449465e-16  -0.1  64.3411027921
2.8449465e-16  -0.08  59.5160166331
2.8449465e-16  -0.06  55.3671449961
2.8449465e-16  -0.04  52.1406980118
2.8449465e-16  -0.02  50.0793544344
2.8449465e-16  6.17561557e-16  49.3687234297
2.8449465e-16  0.02  50.0793544344
2.8449465e-16  0.04  52.1406980118
2.8449465e-16  0.06  55.3671449961
2.8449465e-16  0.08  59.5160166331
2.8449465e-16  0.1  64.3411027921
2.8449465e-16  0.12  69.6230867824
2.8449465e-16  0.14  75.1791849771
2.8449465e-16  0.16  80.8613750084
2.8449465e-16  0.18  86.5505355902
2.8449465e-16  0.2  278.246600004
2.8449465e-16  0.22  222.306214017
2.8449465e-16  0.24  177.6124229
2.8449465e-16  0.26  141.904142932
2.8449465e-16  0.28  113.37487239
2.8449465e-16  0.3  90.5812996289
2.8449465e-16  0.32  72.3702851388
2.8449465e-16  0.34  57.8205235798
2.8449465e-16  0.36  46.1959344311
2.8449465e-16  0.38  36.9084232699
2.8449465e-16  0.4  29.4881297465
2.8449465e-16  0.42  23.5596570894
2.8449465e-16  0.44  18.8230805731
2.8449465e-16  0.46  15.0387741603
2.8449465e-16  0.48  12.0152876872
2.8449465e-16  0.5  9.59966129334
2.8449465e-16  0.52  7.66968709746
2.8449465e-16  0.54  6.12772663279
2.8449465e-16  0.56  4.89577126278
2.8449465e-16  0.58  3.91149568082
2.8449465e-16  0.6  3.12510483842
2.8449465e-16  0.62  2.49681478596
2.8449465e-16  0.64  1.99483998065
2.8449465e-16  0.66  1.59378523821
2.8449465e-16  0.68  1.2733609764
2.8449465e-16  0.7  1.01735675381
2.8449465e-16  0.72  0.812821174604
2.8449465e-16  0.74  0.649406670184
2.8449465e-16  0.76  0.518846009992
2.8449465e-16  0.78  0.414534057693
2.8449465e-16  0.8  0.33119361367
2.8449465e-16  0.82  0.264608438559
2.8449465e-16  0.84  0.21140995136
2.8449465e-16  0.86  0.16890681105
2.8449465e-16  0.88  0.134948760149
2.8449465e-16  0.9  0.107817841995
2.8449465e-16  0.92  0.086141488367
2.8449465e-16  0.94  0.0688230804917
2.8449465e-16  0.96  0.0549864704936
2.8449465e-16  0.98  0.0439316565859
0.02  -1  0.0332923848223
0.02  -0.98  0.0416699682634
0.02  -0.96  0.052155658549
0.02  -0.94  0.065279932576
0.02  -0.92  0.0817067546587
0.02  -0.9  0.102267166852
0.02  -0.88  0.128001331832
0.02  -0.86  0.160211155301
0.02  -0.84  0.200526150124
0.02  -0.82  0.250985874284
0.02  -0.8  0.314143113262
0.02  -0.78  0.393193026864
0.02  -0.76  0.492134794136
0.02  -0.74  0.615973934052
0.02  -0.72  0.7709755375
0.02  -0.7  0.96498122171
0.02  -0.68  1.20780584203
0.02  -0.66  1.5117340309
0.02  -0.64  1.89214168425
0.02  -0.62  2.3682738366
0.02  -0.6  2.96421827804
0.02  -0.58  3.71012416897
0.02  -0.56  4.64372730279
0.02  -0.54  5.81225918071
0.02  -0.52  7.27483647962
0.02  -0.5  9.10545179762
0.02  -0.48  11.3967169807
0.02  -0.46  14.2645484073
0.02  -0.44  17.8540312626
0.02  -0.42  22.3467594784
0.02  -0.4  27.9700226711
0.02  -0.38  35.0083048496
0.02  -0.36  43.8176766196
0.02  -0.34  54.843808993
0.02  -0.32  68.6445201321
0.02  -0.3  85.9179956807
0.02  -0.28  107.538110363
0.02  -0.26  134.598637792
0.02  -0.24  168.468585084
0.02  -0.22  210.86145169
0.02  -0.2  91.9228777642
0.02  -0.18  86.0867106997
0.02  -0.16  80.1380340713
0.02  -0.14  74.1726451681
0.02  -0.12  68.3104054461
0.02  -0.1  62.7031403099
0.02  -0.08  57.5433118032
0.02  -0.06  53.0696639839
0.02  -0.04  49.5607720041
0.02  -0.02  47.3023264902
0.02  6.17561557e-16  46.5203127377
0.02  0.02  47.3023264902
0.02  0.04  49.5607720041
0.02  0.06  53.0696639839
0.02  0.08  57.5433118032
0.02  0.1  62.7031403099
0.02  0.12  68.3104054461
0.02  0.14  74.1726451681
0.02  0.16  80.1380340713
0.02  0.18  86.0867106997
0.02  0.2  263.921916282
0.02  0.22  210.86145169
0.02  0.24  168.468585084
0.02  0.26  134.598637792
0.02  0.28  107.538110363
0.02  0.3  85.9179956807
0.02  0.32  68.6445201321
0.02  0.34  54.843808993
0.02  0.36  43.8176766196
0.02  0.38  35.0083048496
0.02  0.4  27.9700226711
0.02  0.42  22.3467594784
0.02  0.44  17.8540312626
0.02  0.46  14.2645484073
0.02  0.48  11.3967169807
0.02  0.5  9.10545179762
0.02  0.52  7.27483647962
0.02  0.54  5.81225918071
0.02  0.56  4.64372730279
0.02  0.58  3.71012416897
0.02  0.6  2.96421827804
0.02  0.62  2.3682738366
0.02  0.64  1.89214168425
0.02  0.66  1.5117340309
0.02  0.68  1.20780584203
0.02  0.7  0.96498122171
0.02  0.72  0.7709755375
0.02  0.74  0.615973934052
0.02  0.76  0.492134794136
0.02  0.78  0.393193026864
0.02  0.8  0.314143113262
0.02  0.82  0.250985874284
0.02  0.84  0.200526150124
0.02  0.86  0.160211155301
0.02  0.88  0.128001331832
0.02  0.9  0.102267166852
0.02  0.92  0.0817067546587
0.02  0.94  0.065279932576
0.02  0.96  0.052155658549
0.02  0.98  0.0416699682634
0.04  -1  0.0304551167972
0.04  -0.98  0.038118739681
0.04  -0.96  0.0477108107823
0.04  -0.94  0.0597165983071
0.04  -0.92  0.0747434817162
0.04  -0.9  0.0935516793896
0.04  -0.88  0.117092708497
0.04  -0.86  0.146557522778
0.04  -0.84  0.183436763558
0.04  -0.82  0.229596172115
0.04  -0.8  0.287370978574
0.04  -0.78  0.35968404249
0.04  -0.76  0.450193721939
0.04  -0.74  0.56347895189
0.04  -0.72  0.705270895062
0.04  -0.7  0.882742884632
0.04  -0.68  1.10487332715
0.04  -0.66  1.38289992511
0.04  -0.64  1.73088819856
0.04  -0.62  2.16644306758
0.04  -0.6  2.71159949497
0.04  -0.58  3.39393724725
0.04  -0.56  4.2479761704
0.04  -0.54  5.31692256801
0.04  -0.52  6.65485503218
0.04  -0.5  8.32946030957
0.04  -0.48  10.4254576115
0.04  -0.46  13.048884606
0.04  -0.44  16.332461922
0.04  -0.42  20.4423075603
0.04  -0.4  25.5863408949
0.04  -0.38  32.0248014301
0.04  -0.36  40.0834144612
0.04  -0.34  50.1698696985
0.04  -0.32  62.794446516
0.04  -0.3  78.5958292687
0.04  -0.28  98.3734186885
0.04  -0.26  123.127774012
0.04  -0.24  154.111231827
0.04  -0.22  192.891262477
0.04  -0.2  91.5891413558
0.04  -0.18  85.4033422688
0.04  -0.16  79.0674653342
0.04  -0.14  72.6744045213
0.04  -0.12  66.3424338642
0.04  -0.1  60.2256577808
0.04  -0.08  54.5276664287
0.04  -0.06  49.5153988034
0.04  -0.04  45.5221106668
0.04  -0.02  42.9152876992
0.04  6.17561557e-16  42.0047638853
0.04  0.02  42.9152876992
0.04  0.04  45.5221106668
0.04  0.06  49.5153988034
0.04  0.08  54.5276664287
0.04  0.1  60.2256577808
0.04  0.12  66.3424338642
0.04  0.14  72.6744045213
0.04  0.16  79.0674653342
0.04  0.18  85.4033422688
0.04  0.2  241.429769259
0.04  0.22  192.891262477
0.04  0.24  154.111231827
0.04  0.26  123.127774012
0.04  0.28  98.3734186885
0.04  0.3  78.5958292687
0.04  0.32  62.794446516
0.04  0.34  50.1698696985
0.04  0.36  40.0834144612
0.04  0.38  32.0248014301
0.04  0.4  25.5863408949
0.04  0.42  20.4423075603
0.04  0.44  16.332461922
0.04  0.46  13.048884606
0.04  0.48  10.4254576115
0.04  0.5  8.32946030957
0.04  0.52  6.65485503218
0.04  0.54  5.31692256801
0.04  0.56  4.2479761704
0.04  0.58  3.39393724725
0.04  0.6  2.71159949497
0.04  0.62  2.16644306758
0.04  0.64  1.73088819856
0.04  0.66  1.38289992511
0.04  0.68  1.10487332715
0.04  0.7  0.882742884632
0.04  0.72  0.705270895062
0.04  0.74  0.56347895189
0.04  0.76  0.450193721939
0.04  0.78  0.35968404249
0.04  0.8  0.287370978574
0.04  0.82  0.229596172115
0.04  0.84  0.183436763558
0.04  0.86  0.146557522778
0.04  0.88  0.117092708497
0.04  0.9  0.0935516793896
0.04  0.92  0.0747434817162
0.04  0.94  0.0597165983071
0.04  0.96  0.0477108107822
0.04  0.98  0.038118739681
0.06  -1  0.0267404979347
0.06  -0.98  0.033469386655
0.06  -0.96  0.0418915102404
0.06  -0.94  0.052432948602
0.06  -0.92  0.0656269989627
0.06  -0.9  0.0821411556606
0.06  -0.88  0.102810879057
0.06  -0.86  0.128681861943
0.06  -0.84  0.161062931714
0.06  -0.82  0.20159226468
0.06  -0.8  0.252320262313
0.06  -0.78  0.315813282194
0.06  -0.76  0.395283471473
0.06  -0.74  0.494751271176
0.06  -0.72  0.619248812551
0.06  -0.7  0.77507449538
0.06  -0.68  0.970111627528
0.06  -0.66  1.21422724587
0.06  -0.64  1.51977129514
0.06  -0.62  1.90220141856
0.06  -0.6  2.38086496852
0.06  -0.58  2.97997779995
0.06  -0.56  3.72984936382
0.06  -0.54  4.66841607915
0.06  -0.52  5.84316055749
0.06  -0.5  7.31351377465
0.06  -0.48  9.15386171673
0.06  -0.46  11.4573086086
0.06  -0.44  14.3403871081
0.06  -0.42  17.9489537583
0.06  -0.4  22.4655679508
0.06  -0.38  28.1187277068
0.06  -0.36  35.194429519
0.06  -0.34  44.0506370731
0.06  -0.32  55.1353908294
0.06  -0.3  69.0094746386
0.06  -0.28  86.3747861084
0.06  -0.26  108.109845993
0.06  -0.24  135.314243048
0.06  -0.22  169.364262834
0.06  -0.2  91.195553461
0.06  -0.18  84.5935636809
0.06  -0.16  77.7910915763
0.06  -0.14  70.8740344448
0.06  -0.12  63.9534282301
0.06  -0.1  57.1785052181
0.06  -0.08  50.7569671179
0.06  -0.06  44.9830564652
0.06  -0.04  40.263915707
0.06  -0.02  37.1053097754
0.06  6.17561557e-16  35.983899598
0.06  0.02  37.1053097754
0.06  0.04  40.263915707
0.06  0.06  44.9830564652
0.06  0.08  50.7569671179
0.06  0.1  57.1785052181
0.06  0.12  63.9534282301
0.06  0.14  70.8740344448
0.06  0.16  77.7910915763
0.06  0.18  84.5935636809
0.06  0.2  211.982514768
0.06  0.22  169.364262834
0.06  0.24  135.314243048
0.06  0.26  108.109845993
0.06  0.28  86.3747861084
0.06  0.3  69.0094746386
0.06  0.32  55.1353908294
0.06  0.34  44.0506370731
0.06  0.36  35.194429519
0.06  0.38  28.1187277068
0.06  0.4  22.4655679508
0.06  0.42  17.9489537583
0.06  0.44  14.3403871081
0.06  0.46  11.4573086086
0.06  0.48  9.15386171673
0.06  0.5  7.31351377465
0.06  0.52  5.84316055749
0.06  0.54  4.66841607915
0.06  0.56  3.72984936382
0.06  0.58  2.97997779995
0.06  0.6  2.38086496852
0.06  0.62  1.90220141856
0.06  0.64  1.51977129514
0.06  0.66  1.21422724587
0.06  0.68  0.970111627528
0.06  0.7  0.77507449538
0.06  0.72  0.619248812551
0.06  0.74  0.494751271176
0.06  0.76  0.395283471473
0.06  0.78  0.315813282194
0.06  0.8  0.252320262313
0.06  0.82  0.20159226468
0.06  0.84  0.161062931714
0.06  0.86  0.128681861943
0.06  0.88  0.102810879057
0.06  0.9  0.0821411556606
0.06  0.92  0.0656269989627
0.06  0.94  0.0524329486019
0.06  0.96  0.0418915102404
0.06  0.98  0.033469386655
0.08  -1  0.0223871797555
0.08  -0.98  0.0280206141705
0.08  -0.96  0.0350716270233
0.08  -0.94  0.0438969329716
0.08  -0.92  0.0549430091461
0.08  -0.9  0.0687686826772
0.08  -0.88  0.0860734020699
0.08  -0.86  0.107732622692
0.08  -0.84  0.134842096548
0.08  -0.82  0.16877330698
0.08  -0.8  0.211242852775
0.08  -0.78  0.26439929185
0.08  -0.76  0.330931837989
0.08  -0.74  0.414206409662
0.08  -0.72  0.518435913716
0.08  -0.7  0.648893378665
0.08  -0.68  0.812178720137
0.08  -0.66  1.01655263427
0.08  -0.64  1.27235451093
0.08  -0.62  1.59252550916
0.08  -0.6  1.99326325763
0.08  -0.58  2.49484130168
0.08  -0.56  3.12263475321
0.08  -0.54  3.9084040317
0.08  -0.52  4.89190164149
0.08  -0.5  6.12288327306
0.08  -0.48  7.66362497102
0.08  -0.46  9.59207371384
0.08  -0.44  12.0057907948
0.08  -0.42  15.0268875019
0.08  -0.4  18.8082027961
0.08  -0.38  23.5410355187
0.08  -0.36  29.4648223066
0.08  -0.34  36.8792508244
0.08  -0.32  46.1594211299
0.08  -0.3  57.7748221945
0.08  -0.28  72.3130836111
0.08  -0.26  90.5097041017
0.08  -0.24  113.285260806
0.08  -0.22  141.791981791
0.08  -0.2  90.7976331703
0.08  -0.18  83.7705111942
0.08  -0.16  76.4847467778
0.08  -0.14  69.0143109382
0.08  -0.12  61.4548600122
0.08  -0.1  53.937569186
0.08  -0.08  46.6544866666
0.08  -0.06  39.9040926289
0.08  -0.04  34.1630330013
0.08  -0.02  30.1463751606
0.08  6.17561557e-16  28.6734882579
0.08  0.02  30.1463751606
0.08  0.04  34.1630330013
0.08  0.06  39.9040926289
0.08  0.08  46.6544866666
0.08  0.1  53.937569186
0.08  0.12  61.4548600122
0.08  0.14  69.0143109382
0.08  0.16  76.4847467778
0.08  0.18  83.7705111942
0.08  0.2  177.472037908
0.08  0.22  141.791981791
0.08  0.24  113.285260806
0.08  0.26  90.5097041017
0.08  0.28  72.3130836111
0.08  0.3  57.7748221945
0.08  0.32  46.1594211299
0.08  0.34  36.8792508244
0.08  0.36  29.4648223066
0.08  0.38  23.5410355187
0.08  0.4  18.8082027961
0.08  0.42  15.0268875019
0.08  0.44  12.0057907948
0.08  0.46  9.59207371384
0.08  0.48  7.66362497102
0.08  0.5  6.12288327306
0.08  0.52  4.89190164149
0.08  0.54  3.9084040317
0.08  0.56  3.12263475321
0.08  0.58  2.49484130168
0.08  0.6  1.99326325763
0.08  0.62  1.59252550916
0.08  0.64  1.27235451093
0.08  0.66  1.01655263427
0.08  0.68  0.812178720137
0.08  0.7  0.648893378665
0.08  0.72  0.518435913716
0.08  0.74  0.414206409662
0.08  0.76  0.330931837989
0.08  0.78  0.26439929185
0.08  0.8  0.211242852775
0.08  0.82  0.16877330698
0.08  0.84  0.134842096548
0.08  0.86  0.107732622692
0.08  0.88  0.0860734020699
0.08  0.9  0.0687686826772
0.08  0.92  0.0549430091461
0.08  0.94  0.0438969329716
0.08  0.96  0.0350716270233
0.08  0.98  0.0280206141705
0.1  -1  0.0177845904137
0.1  -0.98  0.0222598447684
0.1  -0.96  0.0278612370366
0.1  -0.94  0.034872144765
0.1  -0.92  0.0436472536705
0.1  -0.9  0.0546305013877
0.1  -0.88  0.0683775365205
0.1  -0.86  0.0855838292134
0.1  -0.84  0.107119855373
0.1  -0.82  0.134075134527
0.1  -0.8  0.167813349223
0.1  -0.78  0.210041334486
0.1  -0.76  0.26289542755
0.1  -0.74  0.329049546348
0.1  -0.72  0.411850464501
0.1  -0.7  0.515487126459
0.1  -0.68  0.645202568527
0.1  -0.66  0.807559166983
0.1  -0.64  1.01077063234
0.1  -0.62  1.26511754553
0.1  -0.6  1.58346745819
0.1  -0.58  1.98192586927
0.1  -0.56  2.48065101115
0.1  -0.54  3.10487366582
0.1  -0.52  3.88617360418
0.1  -0.5  4.86407722416
0.1  -0.48  6.08805721319
0.1  -0.46  7.62003539889
0.1  -0.44  9.53751540878
0.1  -0.42  11.9375036218
0.1  -0.4  14.9414167751
0.1  -0.38  18.7012245038
0.1  -0.36  23.4071375697
0.1  -0.34  29.2972307293
0.1  -0.32  36.6694870677
0.1  -0.3  45.8968731288
0.1  -0.28  57.4462074999
0.1  -0.26  71.901777423
0.1  -0.24  89.9948982114
0.1  -0.22  112.640910898
0.1  -0.2  90.4522110674
0.1  -0.18  83.0523898391
0.1  -0.16  75.3371272253
0.1  -0.14  67.3651713101
0.1  -0.12  59.2098739823
0.1  -0.1  50.969885915
0.1  -0.08  42.7919738212
0.1  -0.06  34.9228755186
0.1  -0.04  27.830896374
0.1  -0.02  22.4545564258
0.1  6.17561557e-16  20.3355114597
0.1  0.02  22.4545564258
0.1  0.04  27.830896374
0.1  0.06  34.9228755186
0.1  0.08  42.7919738212
0.1  0.1  50.969885915
0.1  0.12  59.2098739823
0.1  0.14  67.3651713101
0.1  0.16  75.3371272253
0.1  0.18  83.0523898391
0.1  0.2  140.985489845
0.1  0.22  112.640910898
0.1  0.24  89.9948982114
0.1  0.26  71.901777423
0.1  0.28  57.4462074999
0.1  0.3  45.8968731288
0.1  0.32  36.6694870677
0.1  0.34  29.2972307293
0.1  0.36  23.4071375697
0.1  0.38  18.7012245038
0.1  0.4  14.9414167751
0.1  0.42  11.9375036218
0.1  0.44  9.53751540878
0.1  0.46  7.62003539889
0.1  0.48  6.08805721319
0.1  0.5  4.86407722416
0.1  0.52  3.88617360418
0.1  0.54  3.10487366582
0.1  0.56  2.48065101115
0.1  0.58  1.98192586927
0.1  0.6  1.58346745819
0.1  0.62  1.26511754553
0.1  0.64  1.01077063234
0.1  0.66  0.807559166983
0.1  0.68  0.645202568527
0.1  0.7  0.515487126459
0.1  0.72  0.411850464501
0.1  0.74  0.329049546348
0.1  0.76  0.26289542755
0.1  0.78  0.210041334486
0.1  0.8  0.167813349223
0.1  0.82  0.134075134527
0.1  0.84  0.107119855373
0.1  0.86  0.0855838292134
0.1  0.88  0.0683775365205
0.1  0.9  0.0546305013877
0.1  0.92  0.0436472536705
0.1  0.94  0.034872144765
0.1  0.96  0.0278612370366
0.1  0.98  0.0222598447684
0.12  -1  0.0136615641822
0.12  -0.98  0.0170993141206
0.12  -0.96  0.02140212786
0.12  -0.94  0.026787687138
0.12  -0.92  0.0335284503903
0.12  -0.9  0.0419654365749
0.12  -0.88  0.0525254775099
0.12  -0.86  0.065742811533
0.12  -0.84  0.0822861109155
0.12  -0.82  0.102992310364
0.12  -0.8  0.128908948011
0.12  -0.78  0.161347160955
0.12  -0.76  0.201948016409
0.12  -0.74  0.252765534206
0.12  -0.72  0.316370600805
0.12  -0.7  0.39598103186
0.12  -0.68  0.495624363307
0.12  -0.66  0.620341606641
0.12  -0.64  0.77644227649
0.12  -0.62  0.971823592464
0.12  -0.6  1.21637000388
0.12  -0.58  1.52245324956
0.12  -0.56  1.90555825095
0.12  -0.54  2.38506650289
0.12  -0.52  2.98523659425
0.12  -0.5  3.73643146339
0.12  -0.48  4.67665447606
0.12  -0.46  5.85347203681
0.12  -0.44  7.32641999985
0.12  -0.42  9.17001562092
0.12  -0.4  11.4775274267
0.12  -0.38  14.3656937214
0.12  -0.36  17.9806284425
0.12  -0.34  22.5052131457
0.12  -0.32  28.1683490849
0.12  -0.3  35.2565374534
0.12  -0.28  44.1283736386
0.12  -0.26  55.2326887621
0.12  -0.24  69.1312562949
0.12  -0.22  86.52721249
0.12  -0.2  90.2092018148
0.12  -0.18  82.5450952615
0.12  -0.16  74.5218412075
0.12  -0.14  66.1842391876
0.12  -0.12  57.5834398955
0.12  -0.1  48.7812861959
0.12  -0.08  39.8608382311
0.12  -0.06  30.9554234427
0.12  -0.04  22.3447567952
0.12  -0.02  14.8489627777
0.12  6.17561557e-16  11.2687754342
0.12  0.02  14.8489627778
0.12  0.04  22.3447567952
0.12  0.06  30.9554234427
0.12  0.08  39.8608382311
0.12  0.1  48.7812861959
0.12  0.12  57.5834398955
0.12  0.14  66.1842391876
0.12  0.16  74.5218412075
0.12  0.18  82.5450952615
0.12  0.2  108.300628436
0.12  0.22  86.5272124899
0.12  0.24  69.1312562949
0.12  0.26  55.2326887621
0.12  0.28  44.1283736386
0.12  0.3  35.2565374534
0.12  0.32  28.1683490849
0.12  0.34  22.5052131457
0.12  0.36  17.9806284425
0.12  0.38  14.3656937214
0.12  0.4  11.4775274267
0.12  0.42  9.17001562092
0.12  0.44  7.32641999985
0.12  0.46  5.85347203681
0.12  0.48  4.67665447606
0.12  0.5  3.73643146339
0.12  0.52  2.98523659425
0.12  0.54  2.38506650289
0.12  0.56  1.90555825095
0.12  0.58  1.52245324956
0.12  0.6  1.21637000388
0.12  0.62  0.971823592464
0.12  0.64  0.77644227649
0.12  0.66  0.620341606641
0.12  0.68  0.495624363307
0.12  0.7  0.39598103186
0.12  0.72  0.316370600805
0.12  0.74  0.252765534206
0.12  0.76  0.201948016409
0.12  0.78  0.161347160955
0.12  0.8  0.128908948011
0.12  0.82  0.102992310364
0.12  0.84  0.0822861109155
0.12  0.86  0.065742811533
0.12  0.88  0.0525254775099
0.12  0.9  0.0419654365749
0.12  0.92  0.0335284503903
0.12  0.94  0.026787687138
0.12  0.96  0.02140212786
0.12  0.98  0.0170993141206
0.14  -1  0.0114299945567
0.14  -0.98  0.0143061998403
0.14  -0.96  0.0179061637218
0.14  -0.94  0.0224120103738
0.14  -0.92  0.0280516930818
0.14  -0.9  0.035110526527
0.14  -0.88  0.0439456210152
0.14  -0.86  0.0550039488848
0.14  -0.84  0.0688449570863
0.14  -0.82  0.086168869914
0.14  -0.8  0.107852113742
0.14  -0.78  0.134991655923
0.14  -0.76  0.168960500972
0.14  -0.74  0.211477151633
0.14  -0.72  0.264692548882
0.14  -0.7  0.331298889231
0.14  -0.68  0.414665824441
0.14  -0.66  0.51901093408
0.14  -0.64  0.649613095214
0.14  -0.62  0.813079543732
0.14  -0.6  1.01768013808
0.14  -0.58  1.27376573599
0.14  -0.56  1.59429185013
0.14  -0.54  1.9954740747
0.14  -0.52  2.4976084413
0.14  -0.5  3.1260982065
0.14  -0.48  3.9127390167
0.14  -0.46  4.8973274675
0.14  -0.44  6.12967443563
0.14  -0.42  7.67212503883
0.14  -0.4  9.60271271005
0.14  -0.38  12.0191069521
0.14  -0.36  15.0435544922
0.14  -0.34  18.8290638116
0.14  -0.32  23.5671459298
0.14  -0.3  29.4975030535
0.14  -0.28  36.9201552442
0.14  -0.26  46.2106185999
0.14  -0.24  57.8389028232
0.14  -0.22  72.3932892732
0.14  -0.2  90.1040504279
0.14  -0.18  82.3250427165
0.14  -0.16  74.1669715404
0.14  -0.14  65.6676623208
0.14  -0.12  56.8666485449
0.14  -0.1  47.805122236
0.14  -0.08  38.5260744213
0.14  -0.06  29.0750829473
0.14  -0.04  19.5040160544
0.14  -0.02  9.89763235019
0.14  6.17561557e-16  1.79820279525
0.14  0.02  9.8976323502
0.14  0.04  19.5040160544
0.14  0.06  29.0750829473
0.14  0.08  38.5260744213
0.14  0.1  47.805122236
0.14  0.12  56.8666485449
0.14  0.14  65.6676623208
0.14  0.16  74.1669715404
0.14  0.18  82.3250427165
0.14  0.2  90.610092446
0.14  0.22  72.3932892732
0.14  0.24  57.8389028232
0.14  0.26  46.2106185999
0.14  0.28  36.9201552442
0.14  0.3  29.4975030535
0.14  0.32  23.5671459298
0.14  0.34  18.8290638116
0.14  0.36  15.0435544922
0.14  0.38  12.0191069521
0.14  0.4  9.60271271005
0.14  0.42  7.67212503883
0.14  0.44  6.12967443563
0.14  0.46  4.8973274675
0.14  0.48  3.9127390167
0.14  0.5  3.1260982065
0.14  0.52  2.4976084413
0.14  0.54  1.9954740747
0.14  0.56  1.59429185013
0.14  0.58  1.27376573599
0.14  0.6  1.01768013808
0.14  0.62  0.813079543732
0.14  0.64  0.649613095214
0.14  0.66  0.51901093408
0.14  0.68  0.414665824441
0.14  0.7  0.331298889231
0.14  0.72  0.264692548882
0.14  0.74  0.211477151633
0.14  0.76  0.168960500972
0.14  0.78  0.134991655923
0.14  0.8  0.107852113742
0.14  0.82  0.086168869914
0.14  0.84  0.0688449570863
0.14  0.86  0.0550039488848
0.14  0.88  0.0439456210152
0.14  0.9  0.035110526527
0.14  0.92  0.0280516930818
0.14  0.94  0.0224120103738
0.14  0.96  0.0179061637218
0.14  0.98  0.0143061998403
0.16  -1  0.012500623161
0.16  -0.98  0.015646237816
0.16  -0.96  0.0195834043345
0.16  -0.94  0.0245113061579
0.16  -0.92  0.0306792485773
0.16  -0.9  0.0383992712263
0.16  -0.88  0.0480619343396
0.16  -0.86  0.0601560774123
0.16  -0.84  0.0752935498613
0.16  -0.82  0.0942401648277
0.16  -0.8  0.117954442088
0.16  -0.78  0.147636100105
0.16  -0.76  0.184786750446
0.16  -0.74  0.231285865151
0.16  -0.72  0.289485860267
0.16  -0.7  0.362331105879
0.16  -0.68  0.453506883434
0.16  -0.66  0.56762582617
0.16  -0.64  0.7104612748
0.16  -0.62  0.889239354024
0.16  -0.6  1.11300454619
0.16  -0.58  1.39307725669
0.16  -0.56  1.74362651953
0.16  -0.54  2.18238681668
0.16  -0.52  2.73155527533
0.16  -0.5  3.41891463289
0.16  -0.48  4.27923878112
0.16  -0.46  5.35605199665
0.16  -0.44  6.70383085829
0.16  -0.42  8.3907602474
0.16  -0.4  10.502182859
0.16  -0.38  13.1449167359
0.16  -0.36  16.4526592533
0.16  -0.34  20.5927509427
0.16  -0.32  25.7746413427
0.16  -0.3  32.2604851675
0.16  -0.28  40.3784048595
0.16  -0.26  50.5390904858
0.16  -0.24  63.2565767771
0.16  -0.22  79.1742484302
0.16  -0.2  90.1521794499
0.16  -0.18  82.4258043987
0.16  -0.16  74.329558435
0.16  -0.14  65.9045333231
0.16  -0.12  57.1957433923
0.16  -0.1  48.2542333333
0.16  -0.08  39.1424671416
0.16  -0.06  29.950118496
0.16  -0.04  20.8519278872
0.16  -0.02  12.4108078955
0.16  6.17561557e-16  7.73681163961
0.16  0.02  12.4108078955
0.16  0.04  20.8519278872
0.16  0.06  29.950118496
0.16  0.08  39.1424671416
0.16  0.1  48.2542333333
0.16  0.12  57.1957433923
0.16  0.14  65.9045333231
0.16  0.16  74.329558435
0.16  0.18  82.4258043987
0.16  0.2  99.0973892971
0.16  0.22  79.1742484302
0.16  0.24  63.2565767771
0.16  0.26  50.5390904858
0.16  0.28  40.3784048595
0.16  0.3  32.2604851675
0.16  0.32  25.7746413427
0.16  0.34  20.5927509427
0.16  0.36  16.4526592533
0.16  0.38  13.1449167359
0.16  0.4  10.502182859
0.16  0.42  8.3907602474
0.16  0.44  6.70383085829
0.16  0.46  5.35605199665
0.16  0.48  4.27923878112
0.16  0.5  3.41891463288
0.16  0.52  2.73155527533
0.16  0.54  2.18238681668
0.16  0.56  1.74362651953
0.16  0.58  1.39307725669
0.16  0.6  1.11300454619
0.16  0.62  0.889239354024
0.16  0.64  0.7104612748
0.16  0.66  0.56762582617
0.16  0.68  0.453506883434
0.16  0.7  0.362331105879
0.16  0.72  0.289485860267
0.16  0.74  0.231285865151
0.16  0.76  0.184786750446
0.16  0.78  0.147636100105
0.16  0.8  0.117954442088
0.16  0.82  0.0942401648277
0.16  0.84  0.0752935498613
0.16  0.86  0.0601560774123
0.16  0.88  0.0480619343396
0.16  0.9  0.0383992712263
0.16  0.92  0.0306792485773
0.16  0.94  0.0245113061579
0.16  0.96  0.0195834043345
0.16  0.98  0.015646237816
0.18  -1  0.0161202041944
0.18  -0.98  0.0201766380139
0.18  -0.96  0.0252538191598
0.18  -0.94  0.0316086050469
0.18  -0.92  0.0395624878237
0.18  -0.9  0.0495178588388
0.18  -0.88  0.0619783658424
0.18  -0.86  0.0775743928065
0.18  -0.84  0.0970949513997
0.18  -0.82  0.121527597526
0.18  -0.8  0.152108392326
0.18  -0.78  0.1903844352
0.18  -0.76  0.238292132419
0.18  -0.74  0.298255161002
0.18  -0.72  0.373307083878
0.18  -0.7  0.46724481952
0.18  -0.68  0.584820730163
0.18  -0.66  0.731983046445
0.18  -0.64  0.916176791706
0.18  -0.62  1.14672042985
0.18  -0.6  1.4352772916
0.18  -0.58  1.79644562892
0.18  -0.56  2.24849714863
0.18  -0.54  2.81430138825
0.18  -0.52  3.52248269861
0.18  -0.5  4.40886836563
0.18  -0.48  5.51830113265
0.18  -0.46  6.90690781969
0.18  -0.44  8.64493881051
0.18  -0.42  10.8203220585
0.18  -0.4  13.5431114108
0.18  -0.38  16.9510542932
0.18  -0.36  21.2165604297
0.18  -0.34  26.5554241452
0.18  -0.32  33.2377415214
0.18  -0.3  41.6015747065
0.18  -0.28  52.0700546681
0.18  -0.26  65.1727876232
0.18  -0.24  81.5726481113
0.18  -0.22  102.099314186
0.18  -0.2  90.3465233759
0.18  -0.18  82.8319753763
0.18  -0.16  74.9833693496
0.18  -0.14  66.8537429868
0.18  -0.12  58.5075373322
0.18  -0.1  50.0290822605
0.18  -0.08  41.5416445619
0.18  -0.06  33.2542969284
0.18  -0.04  25.5880681745
0.18  -0.02  19.5120992742
0.18  6.17561557e-16  16.9945636666
0.18  0.02  19.5120992742
0.18  0.04  25.5880681745
0.18  0.06  33.2542969284
0.18  0.08  41.5416445619
0.18  0.1  50.0290822605
0.18  0.12  58.5075373322
0.18  0.14  66.8537429868
0.18  0.16  74.9833693496
0.18  0.18  82.8319753763
0.18  0.2  127.791241286
0.18  0.22  102.099314186
0.18  0.24  81.5726481113
0.18  0.26  65.1727876232
0.18  0.28  52.0700546681
0.18  0.3  41.6015747065
0.18  0.32  33.2377415214
0.18  0.34  26.5554241452
0.18  0.36  21.2165604297
0.18  0.38  16.9510542932
0.18  0.4  13.5431114108
0.18  0.42  10.8203220585
0.18  0.44  8.64493881051
0.18  0.46  6.90690781969
0.18  0.48  5.51830113265
0.18  0.5  4.40886836563
0.18  0.52  3.52248269861
0.18  0.54  2.81430138825
0.18  0.56  2.24849714863
0.18  0.58  1.79644562892
0.18  0.6  1.4352772916
0.18  0.62  1.14672042985
0.18  0.64  0.916176791706
0.18  0.66  0.731983046445
0.18  0.68  0.584820730163
0.18  0.7  0.46724481952
0.18  0.72  0.373307083878
0.18  0.74  0.298255161002
0.18  0.76  0.238292132419
0.18  0.78  0.1903844352
0.18  0.8  0.152108392326
0.18  0.82  0.121527597526
0.18  0.84  0.0970949513997
0.18  0.86  0.0775743928065
0.18  0.88  0.0619783658424
0.18  0.9  0.0495178588388
0.18  0.92  0.0395624878237
0.18  0.94  0.0316086050469
0.18  0.96  0.0252538191598
0.18  0.98  0.0201766380139
0.2  -1  0.0206570552057
0.2  -0.98  0.0258551269135
0.2  -0.96  0.032361223856
0.2  -0.94  0.0405044930918
0.2  -0.92  0.0506969071356
0.2  -0.9  0.0634541058764
0.2  -0.88  0.0794214830859
0.2  -0.86  0.0994068372478
0.2  -0.84  0.124421238532
0.2  -0.82  0.155730179397
0.2  -0.8  0.194917596554
0.2  -0.78  0.243966003209
0.2  -0.76  0.305356785503
0.2  -0.74  0.382195737219
0.2  -0.72  0.478370183612
0.2  -0.7  0.598745643356
0.2  -0.68  0.749411977834
0.2  -0.66  0.937991480612
0.2  -0.64  1.1740244935
0.2  -0.62  1.46945205775
0.2  -0.6  1.83922001797
0.2  -0.58  2.30203514069
0.2  -0.56  2.88131150008
0.2  -0.54  3.606355009
0.2  -0.52  4.51384602136
0.2  -0.5  5.64969501163
0.2  -0.48  7.07136521127
0.2  -0.46  8.85077970549
0.2  -0.44  11.0779600621
0.2  -0.42  13.8655805727
0.2  -0.4  17.3546685076
0.2  -0.38  21.7217387638
0.2  -0.36  27.1877238517
0.2  -0.34  34.0291509936
0.2  -0.32  42.5921317894
0.2  -0.3  53.3098721947
0.2  -0.28  66.7245886511
0.2  -0.26  83.5149391165
0.2  -0.24  104.530356749
0.2  -0.22  130.834023202
0.2  -0.2  90.6586619434
0.2  -0.18  83.482008411
0.2  -0.16  76.0245908542
0.2  -0.14  68.3548541064
0.2  -0.12  60.5606321615
0.2  -0.1  52.7623223581
0.2  -0.08  45.1385093015
0.2  -0.06  37.9764168009
0.2  -0.04  31.7647516875
0.2  -0.02  27.3100704509
0.2  6.17561557e-16  25.6432852735
0.2  0.02  27.3100704509
0.2  0.04  31.7647516875
0.2  0.06  37.9764168009
0.2  0.08  45.1385093015
0.2  0.1  52.7623223581
0.2  0.12  60.5606321615
0.2  0.14  68.3548541064
0.2  0.16  76.0245908542
0.2  0.18  83.482008411
0.2  0.2  163.756655575
0.2  0.22  130.834023202
0.2  0.24  104.530356749
0.2  0.26  83.5149391165
0.2  0.28  66.7245886511
0.2  0.3  53.3098721947
0.2  0.32  42.5921317894
0.2  0.34  34.0291509936
0.2  0.36  27.1877238517
0.2  0.38  21.7217387638
0.2  0.4  17.3546685076
0.2  0.42  13.8655805727
0.2  0.44  11.0779600621
0.2  0.46  8.85077970549
0.2  0.48  7.07136521127
0.2  0.5  5.64969501163
0.2  0.52  4.51384602136
0.2  0.54  3.606355009
0.2  0.56  2.88131150008
0.2  0.58  2.30203514069
0.2  0.6  1.83922001797
0.2  0.62  1.46945205775
0.2  0.64  1.1740244935
0.2  0.66  0.937991480612
0.2  0.68  0.749411977834
0.2  0.7  0.598745643356
0.2  0.72  0.478370183612
0.2  0.74  0.382195737219
0.2  0.76  0.305356785503
0.2  0.78  0.243966003209
0.2  0.8  0.194917596554
0.2  0.82  0.155730179397
0.2  0.84  0.124421238532
0.2  0.86  0.0994068372478
0.2  0.88  0.0794214830859
0.2  0.9  0.0634541058764
0.2  0.92  0.0506969071356
0.2  0.94  0.0405044930918
0.2  0.96  0.032361223856
0.2  0.98  0.0258551269135
0.22  -1  0.0251618921258
0.22  -0.98  0.0314935458041
0.22  -0.96  0.0394184754611
0.22  -0.94  0.0493376076908
0.22  -0.92  0.0617527569035
0.22  -0.9  0.077292012395
0.22  -0.88  0.0967415137338
0.22  -0.86  0.121085221998
0.22  -0.84  0.151554698912
0.22  -0.82  0.189691412242
0.22  -0.8  0.237424719501
0.22  -0.78  0.297169475223
0.22  -0.76  0.37194819979
0.22  -0.74  0.465543990424
0.22  -0.72  0.582691910168
0.22  -0.7  0.729318537367
0.22  -0.68  0.912841794549
0.22  -0.66  1.14254622525
0.22  -0.64  1.43005270424
0.22  -0.62  1.78990634401
0.22  -0.6  2.24031234012
0.22  -0.58  2.80405698213
0.22  -0.56  3.50966042469
0.22  -0.54  4.39281953794
0.22  -0.52  5.49821383208
0.22  -0.5  6.88176581855
0.22  -0.48  8.613470161
0.22  -0.46  10.7809347442
0.22  -0.44  13.4938128054
0.22  -0.42  16.8893503531
0.22  -0.4  21.1393295182
0.22  -0.38  26.4587591076
0.22  -0.36  33.1167520197
0.22  -0.34  41.4501398146
0.22  -0.32  51.8805132107
0.22  -0.3  64.9355505927
0.22  -0.28  81.2757135545
0.22  -0.26  101.727660018
0.22  -0.24  127.326065318
0.22  -0.22  159.365966999
0.22  -0.2  91.0433149201
0.22  -0.18  84.2792004411
0.22  -0.16  77.2932373151
0.22  -0.14  70.167395417
0.22  -0.12  63.0079309222
0.22  -0.1  55.9590809076
0.22  -0.08  49.2257169045
0.22  -0.06  43.1080648109
0.22  -0.04  38.0424467545
0.22  -0.02  34.605089974
0.22  6.17561557e-16  33.3730341365
0.22  0.02  34.605089974
0.22  0.04  38.0424467545
0.22  0.06  43.1080648109
0.22  0.08  49.2257169045
0.22  0.1  55.9590809076
0.22  0.12  63.0079309222
0.22  0.14  70.167395417
0.22  0.16  77.2932373151
0.22  0.18  84.2792004411
0.22  0.2  199.468281487
0.22  0.22  159.365966999
0.22  0.24  127.326065318
0.22  0.26  101.727660018
0.22  0.28  81.2757135545
0.22  0.3  64.9355505927
0.22  0.32  51.8805132107
0.22  0.34  41.4501398146
0.22  0.36  33.1167520197
0.22  0.38  26.4587591076
0.22  0.4  21.1393295182
0.22  0.42  16.8893503531
0.22  0.44  13.4938128054
0.22  0.46  10.7809347442
0.22  0.48  8.613470161
0.22  0.5  6.88176581855
0.22  0.52  5.49821383208
0.22  0.54  4.39281953794
0.22  0.56  3.50966042469
0.22  0.58  2.80405698213
0.22  0.6  2.24031234012
0.22  0.62  1.78990634401
0.22  0.64  1.43005270424
0.22  0.66  1.14254622525
0.22  0.68  0.912841794549
0.22  0.7  0.729318537367
0.22  0.72  0.582691910168
0.22  0.74  0.465543990424
0.22  0.76  0.37194819979
0.22  0.78  0.297169475223
0.22  0.8  0.237424719501
0.22  0.82  0.189691412242
0.22  0.84  0.151554698912
0.22  0.86  0.121085221998
0.22  0.88  0.0967415137338
0.22  0.9  0.077292012395
0.22  0.92  0.0617527569035
0.22  0.94  0.0493376076908
0.22  0.96  0.0394184754611
0.22  0.98  0.0314935458041
0.24  -1  0.0291506242041
0.24  -0.98  0.036485988971
0.24  -0.96  0.0456672001899
0.24  -0.94  0.0571587404372
0.24  -0.92  0.071541973118
0.24  -0.9  0.0895445539646
0.24  -0.88  0.112077243543
0.24  -0.86  0.140279983138
0.24  -0.84  0.175579565013
0.24  -0.82  0.219761814627
0.24  -0.8  0.275061936533
0.24  -0.78  0.34427759462
0.24  -0.76  0.430910447485
0.24  -0.74  0.539343299283
0.24  -0.72  0.675061828228
0.24  -0.7  0.844932110098
0.24  -0.68  1.05754797682
0.24  -0.66  1.32366578323
0.24  -0.64  1.65674857698
0.24  -0.62  2.07364720165
0.24  -0.6  2.59545279028
0.24  -0.58  3.2485637775
0.24  -0.56  4.06602141098
0.24  -0.54  5.08918132654
0.24  -0.52  6.36980575275
0.24  -0.5  7.97268219077
0.24  -0.48  9.9789010501
0.24  -0.46  12.4899580574
0.24  -0.44  15.6328889817
0.24  -0.42  19.5666964446
0.24  -0.4  24.4903939509
0.24  -0.38  30.6530740931
0.24  -0.36  38.3665102831
0.24  -0.34  48.0209295432
0.24  -0.32  60.1047543071
0.24  -0.3  75.2293119831
0.24  -0.28  94.1597623464
0.24  -0.26  117.853807398
0.24  -0.24  147.51014204
0.24  -0.22  184.629096718
0.24  -0.2  91.4452941356
0.24  -0.18  85.1078765739
0.24  -0.16  78.6027477087
0.24  -0.14  72.0207337924
0.24  -0.12  65.4782283647
0.24  -0.1  59.1286943425
0.24  -0.08  53.178709147
0.24  -0.06  47.9064441991
0.24  -0.04  43.6712513085
0.24  -0.02  40.8848759288
0.24  6.17561557e-16  39.906800955
0.24  0.02  40.8848759288
0.24  0.04  43.6712513085
0.24  0.06  47.9064441991
0.24  0.08  53.178709147
0.24  0.1  59.1286943425
0.24  0.12  65.4782283647
0.24  0.14  72.0207337924
0.24  0.16  78.6027477087
0.24  0.18  85.1078765739
0.24  0.2  231.088539972
0.24  0.22  184.629096718
0.24  0.24  147.51014204
0.24  0.26  117.853807398
0.24  0.28  94.1597623464
0.24  0.3  75.2293119831
0.24  0.32  60.1047543071
0.24  0.34  48.0209295432
0.24  0.36  38.3665102831
0.24  0.38  30.6530740931
0.24  0.4  24.4903939509
0.24  0.42  19.5666964446
0.24  0.44  15.6328889817
0.24  0.46  12.4899580574
0.24  0.48  9.9789010501
0.24  0.5  7.97268219077
0.24  0.52  6.36980575275
0.24  0.54  5.08918132654
0.24  0.56  4.06602141098
0.24  0.58  3.2485637775
0.24  0.6  2.59545279028
0.24  0.62  2.07364720165
0.24  0.64  1.65674857697
0.24  0.66  1.32366578323
0.24  0.68  1.05754797682
0.24  0.7  0.844932110098
0.24  0.72  0.675061828228
0.24  0.74  0.539343299283
0.24  0.76  0.430910447485
0.24  0.78  0.34427759462
0.24  0.8  0.275061936533
0.24  0.82  0.219761814627
0.24  0.84  0.175579565013
0.24  0.86  0.140279983138
0.24  0.88  0.112077243543
0.24  0.9  0.0895445539646
0.24  0.92  0.071541973118
0.24  0.94  0.0571587404371
0.24  0.96  0.0456672001899
0.24  0.98  0.036485988971
0.26  -1  0.0323396341611
0.26  -0.98  0.0404774706389
0.26  -0.96  0.0506630848439
0.26  -0.94  0.0634117726573
0.26  -0.92  0.0793684972783
0.26  -0.9  0.0993405182703
0.26  -0.88  0.124338231271
0.26  -0.86  0.155626284468
0.26  -0.84  0.194787557856
0.26  -0.82  0.243803242012
0.26  -0.8  0.305153067627
0.26  -0.78  0.381940756463
0.26  -0.76  0.478051040359
0.26  -0.74  0.59834619197
0.26  -0.72  0.748912009849
0.26  -0.7  0.937365702369
0.26  -0.68  1.17324124653
0.26  -0.66  1.46847171716
0.26  -0.64  1.83799298777
0.26  -0.62  2.30049934475
0.26  -0.6  2.87938924164
0.26  -0.58  3.60394903992
0.26  -0.56  4.51083462233
0.26  -0.54  5.64592583431
0.26  -0.52  7.06664757088
0.26  -0.5  8.84487493398
0.26  -0.48  11.0705694338
0.26  -0.46  13.8563301916
0.26  -0.44  17.3430903918
0.26  -0.42  21.70724717
0.26  -0.4  27.1695856421
0.26  -0.38  34.0064485461
0.26  -0.36  42.5637165746
0.26  -0.34  53.2743066711
0.26  -0.32  66.680073539
0.26  -0.3  83.4592223718
0.26  -0.28  104.460619631
0.26  -0.26  130.746737671
0.26  -0.24  163.647405806
0.26  -0.22  204.827087117
0.26  -0.2  91.8076337684
0.26  -0.18  85.8510679805
0.26  -0.16  79.7695361105
0.26  -0.14  73.658111864
0.26  -0.12  67.6365038414
0.26  -0.1  61.857834746
0.26  -0.08  56.5189272284
0.26  -0.06  51.8684169492
0.26  -0.04  48.2027892512
0.26  -0.02  45.8331321534
0.26  6.17561557e-16  45.0104365722
0.26  0.02  45.8331321534
0.26  0.04  48.2027892512
0.26  0.06  51.8684169492
0.26  0.08  56.5189272284
0.26  0.1  61.857834746
0.26  0.12  67.6365038414
0.26  0.14  73.658111864
0.26  0.16  79.7695361105
0.26  0.18  85.8510679805
0.26  0.2  256.369084558
0.26  0.22  204.827087117
0.26  0.24  163.647405806
0.26  0.26  130.746737671
0.26  0.28  104.460619631
0.26  0.3  83.4592223718
0.26  0.32  66.680073539
0.26  0.34  53.2743066711
0.26  0.36  42.5637165746
0.26  0.38  34.0064485461
0.26  0.4  27.1695856421
0.26  0.42  21.70724717
0.26  0.44  17.3430903918
0.26  0.46  13.8563301916
0.26  0.48  11.0705694338
0.26  0.5  8.84487493398
0.26  0.52  7.06664757088
0.26  0.54  5.64592583431
0.26  0.56  4.51083462233
0.26  0.58  3.60394903992
