-0.46  0.84  0.0908274998031
-0.46  0.86  0.0765776502932
-0.46  0.88  0.0645634476027
-0.46  0.9  0.0544341429959
-0.46  0.92  0.045894016409
-0.46  0.94  0.0386937430485
-0.46  0.96  0.0326231144766
-0.46  0.98  0.0275049016793
-0.44  -1  0.0258917912808
-0.44  -0.98  0.0307098305897
-0.44  -0.96  0.0364244282915
-0.44  -0.94  0.0432024192543
-0.44  -0.92  0.051241683589
-0.44  -0.9  0.0607769236621
-0.44  -0.88  0.0720865161156
-0.44  -0.86  0.0855006389361
-0.44  -0.84  0.101410910839
-0.44  -0.82  0.120281824383
-0.44  -0.8  0.142664306605
-0.44  -0.78  0.169211803058
-0.44  -0.76  0.200699354839
-0.44  -0.74  0.238046225528
-0.44  -0.72  0.282342738639
-0.44  -0.7  0.334882109074
-0.44  -0.68  0.397198197901
-0.44  -0.66  0.471110292671
-0.44  -0.64  0.55877622062
-0.44  -0.62  0.662755345379
-0.44  -0.6  0.78608328633
-0.44  -0.58  0.932360542025
-0.44  -0.56  1.10585760497
-0.44  -0.54  1.31163963654
-0.44  -0.52  1.55571434189
-0.44  -0.5  1.84520736195
-0.44  -0.48  2.18857030298
-0.44  -0.46  2.5958274771
-0.44  -0.44  3.07886855712
-0.44  -0.42  3.65179568966
-0.44  -0.4  4.33133520047
-0.44  -0.38  5.13732591117
-0.44  -0.36  6.09329832397
-0.44  -0.34  7.22716158307
-0.44  -0.32  8.57201826838
-0.44  -0.3  10.1671308091
-0.44  -0.28  12.0590677309
-0.44  -0.26  14.3030632014
-0.44  -0.24  16.964629564
-0.44  -0.22  20.1214699391
-0.44  -0.2  14.3337351819
-0.44  -0.18  13.6706372916
-0.44  -0.16  12.9177944839
-0.44  -0.14  12.095572916
-0.44  -0.12  11.2298276807
-0.44  -0.1  10.3534262366
-0.44  -0.08  9.50812075637
-0.44  -0.06  8.74612509878
-0.44  -0.04  8.12946729644
-0.44  -0.02  7.72344716845
-0.44  6.17561557e-16  7.58113075567
-0.44  0.02  7.72344716845
-0.44  0.04  8.12946729644
-0.44  0.06  8.74612509878
-0.44  0.08  9.50812075637
-0.44  0.1  10.3534262366
-0.44  0.12  11.2298276807
-0.44  0.14  12.095572916
-0.44  0.16  12.9177944839
-0.44  0.18  13.6706372916
-0.44  0.2  23.8657467282
-0.44  0.22  20.1214699391
-0.44  0.24  16.964629564
-0.44  0.26  14.3030632014
-0.44  0.28  12.0590677309
-0.44  0.3  10.1671308091
-0.44  0.32  8.57201826838
-0.44  0.34  7.22716158307
-0.44  0.36  6.09329832397
-0.44  0.38  5.13732591117
-0.44  0.4  4.33133520047
-0.44  0.42  3.65179568966
-0.44  0.44  3.07886855712
-0.44  0.46  2.5958274771
-0.44  0.48  2.18857030298
-0.44  0.5  1.84520736195
-0.44  0.52  1.55571434189
-0.44  0.54  1.31163963654
-0.44  0.56  1.10585760497
-0.44  0.58  0.932360542025
-0.44  0.6  0.78608328633
-0.44  0.62  0.662755345379
-0.44  0.64  0.55877622062
-0.44  0.66  0.471110292671
-0.44  0.68  0.397198197901
-0.44  0.7  0.334882109074
-0.44  0.72  0.282342738639
-0.44  0.74  0.238046225528
-0.44  0.76  0.200699354839
-0.44  0.78  0.169211803058
-0.44  0.8  0.142664306605
-0.44  0.82  0.120281824383
-0.44  0.84  0.101410910839
-0.44  0.86  0.0855006389361
-0.44  0.88  0.0720865161156
-0.44  0.9  0.0607769236621
-0.44  0.92  0.051241683589
-0.44  0.94  0.0432024192543
-0.44  0.96  0.0364244282915
-0.44  0.98  0.0307098305897
-0.42  -1  0.0289087571796
-0.42  -0.98  0.0342882045478
-0.42  -0.96  0.0406686791758
-0.42  -0.94  0.0482364558809
-0.42  -0.92  0.0572124721802
-0.42  -0.9  0.0678587784529
-0.42  -0.88  0.0804861883718
-0.42  -0.86  0.0954633529561
-0.42  -0.84  0.113227523156
-0.42  -0.82  0.13429731518
-0.42  -0.8  0.159287851238
-0.42  -0.78  0.188928717734
-0.42  -0.76  0.22408526518
-0.42  -0.74  0.265783871679
-0.42  -0.72  0.31524190753
-0.42  -0.7  0.373903275753
-0.42  -0.68  0.443480566129
-0.42  -0.66  0.526005053414
-0.42  -0.64  0.623885999406
-0.42  -0.62  0.739980990162
-0.42  -0.6  0.87767936181
-0.42  -0.58  1.04100115055
-0.42  -0.56  1.23471445565
-0.42  -0.54  1.46447464173
-0.42  -0.52  1.73698944436
-0.42  -0.5  2.06021479912
-0.42  -0.48  2.44358711119
-0.42  -0.46  2.89829874658
-0.42  -0.44  3.43762478773
-0.42  -0.42  4.07731059304
-0.42  -0.4  4.83603147483
-0.42  -0.38  5.73593791591
-0.42  -0.36  6.80330224202
-0.42  -0.34  8.06928562944
-0.42  -0.32  9.57084784024
-0.42  -0.3  11.3518262443
-0.42  -0.28  13.4642156298
-0.42  -0.26  15.9696861653
-0.42  -0.24  18.9413838305
-0.42  -0.22  22.4660658762
-0.42  -0.2  16.0039321095
-0.42  -0.18  15.2635686603
-0.42  -0.16  14.4230030275
-0.42  -0.14  13.5049744757
-0.42  -0.12  12.5383507873
-0.42  -0.1  11.5598292062
-0.42  -0.08  10.6160269562
-0.42  -0.06  9.76524196418
-0.42  -0.04  9.07672989959
-0.42  -0.02  8.62339945355
-0.42  6.17561557e-16  8.46450003345
-0.42  0.02  8.62339945355
-0.42  0.04  9.07672989959
-0.42  0.06  9.76524196418
-0.42  0.08  10.6160269562
-0.42  0.1  11.5598292062
-0.42  0.12  12.5383507873
-0.42  0.14  13.5049744757
-0.42  0.16  14.4230030275
-0.42  0.18  15.2635686603
-0.42  0.2  26.6466336605
-0.42  0.22  22.4660658762
-0.42  0.24  18.9413838305
-0.42  0.26  15.9696861653
-0.42  0.28  13.4642156298
-0.42  0.3  11.3518262443
-0.42  0.32  9.57084784024
-0.42  0.34  8.06928562944
-0.42  0.36  6.80330224202
-0.42  0.38  5.73593791591
-0.42  0.4  4.83603147483
-0.42  0.42  4.07731059304
-0.42  0.44  3.43762478773
-0.42  0.46  2.89829874658
-0.42  0.48  2.44358711119
-0.42  0.5  2.06021479912
-0.42  0.52  1.73698944436
-0.42  0.54  1.46447464173
-0.42  0.56  1.23471445565
-0.42  0.58  1.04100115055
-0.42  0.6  0.87767936181
-0.42  0.62  0.739980990162
-0.42  0.64  0.623885999406
-0.42  0.66  0.526005053414
-0.42  0.68  0.443480566129
-0.42  0.7  0.373903275753
-0.42  0.72  0.31524190753
-0.42  0.74  0.265783871679
-0.42  0.76  0.22408526518
-0.42  0.78  0.188928717734
-0.42  0.8  0.159287851238
-0.42  0.82  0.13429731518
-0.42  0.84  0.113227523156
-0.42  0.86  0.0954633529561
-0.42  0.88  0.0804861883718
-0.42  0.9  0.0678587784529
-0.42  0.92  0.0572124721802
-0.42  0.94  0.0482364558809
-0.42  0.96  0.0406686791758
-0.42  0.98  0.0342882045478
-0.4  -1  0.0322772662813
-0.4  -0.98  0.0382835381549
-0.4  -0.96  0.045407479087
-0.4  -0.94  0.0538570690279
-0.4  -0.92  0.0638789895981
-0.4  -0.9  0.0757658258373
-0.4  -0.88  0.0898646080805
-0.4  -0.86  0.106586943338
-0.4  -0.84  0.126421031958
-0.4  -0.82  0.1499459204
-0.4  -0.8  0.177848406206
-0.4  -0.78  0.210943088719
-0.4  -0.76  0.25019615091
-0.4  -0.74  0.296753566615
-0.4  -0.72  0.351974556676
-0.4  -0.7  0.417471270727
-0.4  -0.68  0.495155853106
-0.4  -0.66  0.58729626697
-0.4  -0.64  0.696582506362
-0.4  -0.62  0.826205129267
-0.4  -0.6  0.979948404378
-0.4  -0.58  1.16230079096
-0.4  -0.56  1.37858597721
-0.4  -0.54  1.63511830272
-0.4  -0.52  1.9393871025
-0.4  -0.5  2.30027535444
-0.4  -0.48  2.72831901348
-0.4  -0.46  3.23601460363
-0.4  -0.44  3.8381840478
-0.4  -0.42  4.55240738664
-0.4  -0.4  5.39953601907
-0.4  -0.38  6.40430144867
-0.4  -0.36  7.59603730777
-0.4  -0.34  9.00953573835
-0.4  -0.32  10.6860631316
-0.4  -0.3  12.6745648797
-0.4  -0.28  15.0330943129
-0.4  -0.26  17.8305075374
-0.4  -0.24  21.1484736557
-0.4  -0.22  25.083859056
-0.4  -0.2  17.8687438909
-0.4  -0.18  17.0421117376
-0.4  -0.16  16.1036016319
-0.4  -0.14  15.0786024652
-0.4  -0.12  13.9993457544
-0.4  -0.1  12.9068047837
-0.4  -0.08  11.8530287132
-0.4  -0.06  10.9031084671
-0.4  -0.04  10.1343695307
-0.4  -0.02  9.62821606901
-0.4  6.17561557e-16  9.45080135476
-0.4  0.02  9.62821606901
-0.4  0.04  10.1343695307
-0.4  0.06  10.9031084671
-0.4  0.08  11.8530287132
-0.4  0.1  12.9068047837
-0.4  0.12  13.9993457544
-0.4  0.14  15.0786024652
-0.4  0.16  16.1036016319
-0.4  0.18  17.0421117376
-0.4  0.2  29.7515553788
-0.4  0.22  25.083859056
-0.4  0.24  21.1484736557
-0.4  0.26  17.8305075374
-0.4  0.28  15.0330943129
-0.4  0.3  12.6745648797
-0.4  0.32  10.6860631316
-0.4  0.34  9.00953573835
-0.4  0.36  7.59603730777
-0.4  0.38  6.40430144867
-0.4  0.4  5.39953601907
-0.4  0.42  4.55240738664
-0.4  0.44  3.8381840478
-0.4  0.46  3.23601460363
-0.4  0.48  2.72831901348
-0.4  0.5  2.30027535444
-0.4  0.52  1.9393871025
-0.4  0.54  1.63511830272
-0.4  0.56  1.37858597721
-0.4  0.58  1.16230079096
-0.4  0.6  0.979948404378
-0.4  0.62  0.826205129267
-0.4  0.64  0.696582506362
-0.4  0.66  0.58729626697
-0.4  0.68  0.495155853106
-0.4  0.7  0.417471270727
-0.4  0.72  0.351974556676
-0.4  0.74  0.296753566615
-0.4  0.76  0.25019615091
-0.4  0.78  0.210943088719
-0.4  0.8  0.177848406206
-0.4  0.82  0.1499459204
-0.4  0.84  0.126421031958
-0.4  0.86  0.106586943338
-0.4  0.88  0.0898646080805
-0.4  0.9  0.0757658258373
-0.4  0.92  0.0638789895981
-0.4  0.94  0.0538570690279
-0.4  0.96  0.045407479087
-0.4  0.98  0.0382835381549
-0.38  -1  0.0360382811381
-0.38  -0.98  0.042744416425
-0.38  -0.96  0.0506984539165
-0.38  -0.94  0.0601326078234
-0.38  -0.92  0.0713223036268
-0.38  -0.9  0.0845942189897
-0.38  -0.88  0.100335820951
-0.38  -0.86  0.119006677833
-0.38  -0.84  0.141151876116
-0.38  -0.82  0.167417933967
-0.38  -0.8  0.19857167602
-0.38  -0.78  0.235522620446
-0.38  -0.76  0.279349531883
-0.38  -0.74  0.331331915448
-0.38  -0.72  0.392987371248
-0.38  -0.7  0.466115899979
-0.38  -0.68  0.552852453052
-0.38  -0.66  0.655729261455
-0.38  -0.64  0.777749762988
-0.38  -0.62  0.922476286152
-0.38  -0.6  1.09413405057
-0.38  -0.58  1.29773452022
-0.38  -0.56  1.53922171063
-0.38  -0.54  1.82564572148
-0.38  -0.52  2.16536856085
-0.38  -0.5  2.56830826986
-0.38  -0.48  3.04622847504
-0.38  -0.46  3.61308182162
-0.38  -0.44  4.28541731413
-0.38  -0.42  5.08286345644
-0.38  -0.4  6.02870129628
-0.38  -0.38  7.15054410399
-0.38  -0.36  8.48114352831
-0.38  -0.34  10.0593457647
-0.38  -0.32  11.9312256509
-0.38  -0.3  14.1514317991
-0.38  -0.28  16.7847820352
-0.38  -0.26  19.9081557238
-0.38  -0.24  23.6127382227
-0.38  -0.22  28.0066829952
-0.38  -0.2  19.9508474575
-0.38  -0.18  19.0278943897
-0.38  -0.16  17.9800271154
-0.38  -0.14  16.835592893
-0.38  -0.12  15.6305789236
-0.38  -0.1  14.4107327843
-0.38  -0.08  13.234168513
-0.38  -0.06  12.1735615648
-0.38  -0.04  11.315247553
-0.38  -0.02  10.7501160269
-0.38  6.17561557e-16  10.5520285775
-0.38  0.02  10.7501160269
-0.38  0.04  11.315247553
-0.38  0.06  12.1735615648
-0.38  0.08  13.234168513
-0.38  0.1  14.4107327843
-0.38  0.12  15.6305789236
-0.38  0.14  16.835592893
-0.38  0.16  17.9800271154
-0.38  0.18  19.0278943897
-0.38  0.2  33.2182690967
-0.38  0.22  28.0066829952
-0.38  0.24  23.6127382227
-0.38  0.26  19.9081557238
-0.38  0.28  16.7847820352
-0.38  0.3  14.1514317991
-0.38  0.32  11.9312256509
-0.38  0.34  10.0593457647
-0.38  0.36  8.48114352831
-0.38  0.38  7.15054410399
-0.38  0.4  6.02870129628
-0.38  0.42  5.08286345644
-0.38  0.44  4.28541731413
-0.38  0.46  3.61308182162
-0.38  0.48  3.04622847504
-0.38  0.5  2.56830826986
-0.38  0.52  2.16536856085
-0.38  0.54  1.82564572148
-0.38  0.56  1.53922171063
-0.38  0.58  1.29773452022
-0.38  0.6  1.09413405057
-0.38  0.62  0.922476286152
-0.38  0.64  0.777749762988
-0.38  0.66  0.655729261455
-0.38  0.68  0.552852453052
-0.38  0.7  0.466115899979
-0.38  0.72  0.392987371248
-0.38  0.74  0.331331915448
-0.38  0.76  0.279349531883
-0.38  0.78  0.235522620446
-0.38  0.8  0.19857167602
-0.38  0.82  0.167417933967
-0.38  0.84  0.141151876116
-0.38  0.86  0.119006677833
-0.38  0.88  0.100335820951
-0.38  0.9  0.0845942189897
-0.38  0.92  0.0713223036268
-0.38  0.94  0.0601326078234
-0.38  0.96  0.0506984539165
-0.38  0.98  0.042744416425
-0.36  -1  0.0402375373451
-0.36  -0.98  0.0477250856
-0.36  -0.96  0.0566059442453
-0.36  -0.94  0.0671393855794
-0.36  -0.92  0.0796329282388
-0.36  -0.9  0.0944513150539
-0.36  -0.88  0.112027161536
-0.36  -0.86  0.132873585875
-0.36  -0.84  0.157599189172
-0.36  -0.82  0.186925823249
-0.36  -0.8  0.221709664756
-0.36  -0.78  0.262966210832
-0.36  -0.76  0.311899926037
-0.36  -0.74  0.36993940611
-0.36  -0.72  0.438779085111
-0.36  -0.7  0.520428703596
-0.36  -0.68  0.617271982
-0.36  -0.66  0.732136212184
-0.36  -0.64  0.868374798826
-0.36  -0.62  1.02996516043
-0.36  -0.6  1.22162484808
-0.36  -0.58  1.44894927206
-0.36  -0.56  1.71857505707
-0.36  -0.54  2.03837379523
-0.36  -0.52  2.41768185333
-0.36  -0.5  2.8675729435
-0.36  -0.48  3.40118141474
-0.36  -0.46  4.03408570378
-0.36  -0.44  4.78476313994
-0.36  -0.42  5.67512938158
-0.36  -0.4  6.731178233
-0.36  -0.38  7.98374052078
-0.36  -0.36  9.46938418459
-0.36  -0.34  11.2314818602
-0.36  -0.32  13.3214771221
-0.36  -0.3  15.8003863536
-0.36  -0.28  18.7405800899
-0.36  -0.26  22.2278958405
-0.36  -0.24  26.3641440727
-0.36  -0.22  31.2700805183
-0.36  -0.2  22.2755621047
-0.36  -0.18  21.2450646069
-0.36  -0.16  20.0750976371
-0.36  -0.14  18.7973115355
-0.36  -0.12  17.4518868076
-0.36  -0.1  16.0899016343
-0.36  -0.08  14.7762416229
-0.36  -0.06  13.5920505256
-0.36  -0.04  12.6337239625
-0.36  -0.02  12.002742124
-0.36  6.17561557e-16  11.781573109
-0.36  0.02  12.002742124
-0.36  0.04  12.6337239625
-0.36  0.06  13.5920505256
-0.36  0.08  14.7762416229
-0.36  0.1  16.0899016343
-0.36  0.12  17.4518868076
-0.36  0.14  18.7973115355
-0.36  0.16  20.0750976371
-0.36  0.18  21.2450646069
-0.36  0.2  37.0889315779
-0.36  0.22  31.2700805183
-0.36  0.24  26.3641440727
-0.36  0.26  22.2278958405
-0.36  0.28  18.7405800899
-0.36  0.3  15.8003863536
-0.36  0.32  13.3214771221
-0.36  0.34  11.2314818602
-0.36  0.36  9.46938418459
-0.36  0.38  7.98374052078
-0.36  0.4  6.731178233
-0.36  0.42  5.67512938158
-0.36  0.44  4.78476313994
-0.36  0.46  4.03408570378
-0.36  0.48  3.40118141474
-0.36  0.5  2.8675729435
-0.36  0.52  2.41768185333
-0.36  0.54  2.03837379523
-0.36  0.56  1.71857505707
-0.36  0.58  1.44894927206
-0.36  0.6  1.22162484808
-0.36  0.62  1.02996516043
-0.36  0.64  0.868374798826
-0.36  0.66  0.732136212184
-0.36  0.68  0.617271982
-0.36  0.7  0.520428703596
-0.36  0.72  0.438779085111
-0.36  0.74  0.36993940611
-0.36  0.76  0.311899926037
-0.36  0.78  0.262966210832
-0.36  0.8  0.221709664756
-0.36  0.82  0.186925823249
-0.36  0.84  0.157599189172
-0.36  0.86  0.132873585875
-0.36  0.88  0.112027161536
-0.36  0.9  0.0944513150539
-0.36  0.92  0.0796329282388
-0.36  0.94  0.0671393855794
-0.36  0.96  0.0566059442453
-0.36  0.98  0.0477250856
-0.34  -1  0.0449260997047
-0.34  -0.98  0.0532861128078
-0.34  -0.96  0.0632017877544
-0.34  -0.94  0.0749626077954
-0.34  -0.92  0.0889119242847
-0.34  -0.9  0.105456980654
-0.34  -0.88  0.125080801681
-0.34  -0.86  0.148356295167
-0.34  -0.84  0.17596297769
-0.34  -0.82  0.208706812761
-0.34  -0.8  0.247543740536
-0.34  -0.78  0.293607586008
-0.34  -0.76  0.348243160481
-0.34  -0.74  0.413045522668
-0.34  -0.72  0.489906545646
-0.34  -0.7  0.58107014916
-0.34  -0.68  0.689197809757
-0.34  -0.66  0.817446261283
-0.34  -0.64  0.969559654174
-0.34  -0.62  1.14997886409
-0.34  -0.6  1.36397114108
-0.34  -0.58  1.61778388437
-0.34  -0.56  1.91882703213
-0.34  -0.54  2.27588939091
-0.34  -0.52  2.69939522058
-0.34  -0.5  3.20170856545
-0.34  -0.48  3.79749421645
-0.34  -0.46  4.5041458425
-0.34  -0.44  5.34229379012
-0.34  -0.42  6.3364073762
-0.34  -0.4  7.51550925774
-0.34  -0.38  8.91402273397
-0.34  -0.36  10.5727767177
-0.34  -0.34  12.5401977152
-0.34  -0.32  14.8737236145
-0.34  -0.3  17.641480556
-0.34  -0.28  20.9242718416
-0.34  -0.26  24.8179369476
-0.34  -0.24  29.4361495108
-0.34  -0.22  34.9137359747
-0.34  -0.2  24.871157385
-0.34  -0.18  23.7205841545
-0.34  -0.16  22.4142901761
-0.34  -0.14  20.9876137544
-0.34  -0.12  19.4854173115
-0.34  -0.1  17.9647307652
-0.34  -0.08  16.4980003304
-0.34  -0.06  15.1758247993
-0.34  -0.04  14.1058320123
-0.34  -0.02  13.4013268449
-0.34  6.17561557e-16  13.1543867517
-0.34  0.02  13.4013268449
-0.34  0.04  14.1058320123
-0.34  0.06  15.1758247993
-0.34  0.08  16.4980003304
-0.34  0.1  17.9647307652
-0.34  0.12  19.4854173115
-0.34  0.14  20.9876137544
-0.34  0.16  22.4142901761
-0.34  0.18  23.7205841545
-0.34  0.2  41.4106117807
-0.34  0.22  34.9137359747
-0.34  0.24  29.4361495108
-0.34  0.26  24.8179369476
-0.34  0.28  20.9242718416
-0.34  0.3  17.641480556
-0.34  0.32  14.8737236145
-0.34  0.34  12.5401977152
-0.34  0.36  10.5727767177
-0.34  0.38  8.91402273397
-0.34  0.4  7.51550925774
-0.34  0.42  6.3364073762
-0.34  0.44  5.34229379012
-0.34  0.46  4.5041458425
-0.34  0.48  3.79749421645
-0.34  0.5  3.20170856545
-0.34  0.52  2.69939522058
-0.34  0.54  2.27588939091
-0.34  0.56  1.91882703213
-0.34  0.58  1.61778388437
-0.34  0.6  1.36397114108
-0.34  0.62  1.14997886409
-0.34  0.64  0.969559654174
-0.34  0.66  0.817446261283
-0.34  0.68  0.689197809757
-0.34  0.7  0.58107014916
-0.34  0.72  0.489906545646
-0.34  0.74  0.413045522668
-0.34  0.76  0.348243160481
-0.34  0.78  0.293607586008
-0.34  0.8  0.247543740536
-0.34  0.82  0.208706812761
-0.34  0.84  0.17596297769
-0.34  0.86  0.148356295167
-0.34  0.88  0.125080801681
-0.34  0.9  0.105456980654
-0.34  0.92  0.0889119242847
-0.34  0.94  0.0749626077953
-0.34  0.96  0.0632017877544
-0.34  0.98  0.0532861128078
-0.32  -1  0.0501609831975
-0.32  -0.98  0.0594951225854
-0.32  -0.96  0.0705661928019
-0.32  -0.94  0.0836974082945
-0.32  -0.92  0.0992721284381
-0.32  -0.9  0.117745049523
-0.32  -0.88  0.139655479392
-0.32  -0.86  0.165643082262
-0.32  -0.84  0.196466553413
-0.32  -0.82  0.233025768917
-0.32  -0.8  0.276388057082
-0.32  -0.78  0.327819358574
-0.32  -0.76  0.388821184932
-0.32  -0.74  0.461174454461
-0.32  -0.72  0.546991485262
-0.32  -0.7  0.648777663322
-0.32  -0.68  0.769504586025
-0.32  -0.66  0.912696816474
-0.32  -0.64  1.08253478138
-0.32  -0.62  1.28397681655
-0.32  -0.6  1.52290392309
-0.32  -0.58  1.8062914603
-0.32  -0.56  2.14241278789
-0.32  -0.54  2.54108080263
-0.32  -0.52  3.01393442103
-0.32  -0.5  3.57477837182
-0.32  -0.48  4.23998621817
-0.32  -0.46  5.02897837582
-0.32  -0.44  5.9647890826
-0.32  -0.42  7.0747388716
-0.32  -0.4  8.39123218076
-0.32  -0.38  9.95270338445
-0.32  -0.36  11.8047388661
-0.32  -0.34  14.0014078903
-0.32  -0.32  16.6068411283
-0.32  -0.3  19.6971029215
-0.32  -0.28  23.3624119424
-0.32  -0.26  27.7097750841
-0.32  -0.24  32.8661114746
-0.32  -0.22  38.9819578174
-0.32  -0.2  27.7691968787
-0.32  -0.18  26.4845564389
-0.32  -0.16  25.0260503426
-0.32  -0.14  23.4331345879
-0.32  -0.12  21.7558990605
-0.32  -0.1  20.0580189241
-0.32  -0.08  18.4203819785
-0.32  -0.06  16.9441437777
-0.32  -0.04  15.7494731839
-0.32  -0.02  14.9628775947
-0.32  6.17561557e-16  14.6871635233
-0.32  0.02  14.9628775947
-0.32  0.04  15.7494731839
-0.32  0.06  16.9441437777
-0.32  0.08  18.4203819785
-0.32  0.1  20.0580189241
-0.32  0.12  21.7558990605
-0.32  0.14  23.4331345879
-0.32  0.16  25.0260503426
-0.32  0.18  26.4845564389
-0.32  0.2  46.2358632372
-0.32  0.22  38.9819578174
-0.32  0.24  32.8661114746
-0.32  0.26  27.7097750841
-0.32  0.28  23.3624119424
-0.32  0.3  19.6971029215
-0.32  0.32  16.6068411283
-0.32  0.34  14.0014078903
-0.32  0.36  11.8047388661
-0.32  0.38  9.95270338445
-0.32  0.4  8.39123218076
-0.32  0.42  7.0747388716
-0.32  0.44  5.9647890826
-0.32  0.46  5.02897837582
-0.32  0.48  4.23998621817
-0.32  0.5  3.57477837182
-0.32  0.52  3.01393442103
-0.32  0.54  2.54108080263
-0.32  0.56  2.14241278789
-0.32  0.58  1.8062914603
-0.32  0.6  1.52290392309
-0.32  0.62  1.28397681655
-0.32  0.64  1.08253478138
-0.32  0.66  0.912696816474
-0.32  0.68  0.769504586025
-0.32  0.7  0.648777663322
-0.32  0.72  0.546991485262
-0.32  0.74  0.461174454461
-0.32  0.76  0.388821184932
-0.32  0.78  0.327819358574
-0.32  0.8  0.276388057082
-0.32  0.82  0.233025768917
-0.32  0.84  0.196466553413
-0.32  0.86  0.165643082262
-0.32  0.88  0.139655479392
-0.32  0.9  0.117745049523
-0.32  0.92  0.0992721284381
-0.32  0.94  0.0836974082945
-0.32  0.96  0.0705661928019
-0.32  0.98  0.0594951225854
-0.3  -1  0.0560058463094
-0.3  -0.98  0.0664276192226
-0.3  -0.96  0.0787887137926
-0.3  -0.94  0.0934500060929
-0.3  -0.92  0.110839525338
-0.3  -0.9  0.131464949986
-0.3  -0.88  0.15592842916
-0.3  -0.86  0.184944162096
-0.3  -0.84  0.219359248842
-0.3  -0.82  0.260178420919
-0.3  -0.8  0.308593373972
-0.3  -0.78  0.366017558731
-0.3  -0.76  0.434127446015
-0.3  -0.74  0.514911470468
-0.3  -0.72  0.610728081933
-0.3  -0.7  0.724374599236
-0.3  -0.68  0.859168876527
-0.3  -0.66  1.0190461664
-0.3  -0.64  1.20867400768
-0.3  -0.62  1.43358849187
-0.3  -0.6  1.70035588666
-0.3  -0.58  2.01676433489
-0.3  -0.56  2.3920512255
-0.3  -0.54  2.83717287461
-0.3  -0.52  3.36512438973
-0.3  -0.5  3.99131905557
-0.3  -0.48  4.73403831726
-0.3  -0.46  5.61496549819
-0.3  -0.44  6.65981883394
-0.3  -0.42  7.89910230351
-0.3  -0.4  9.368996178
-0.3  -0.38  11.1124132858
-0.3  -0.36  13.1802518315
-0.3  -0.34  15.6328813439
-0.3  -0.32  18.5419051348
-0.3  -0.3  21.9922507224
-0.3  -0.28  26.0846492484
-0.3  -0.26  30.9385762739
-0.3  -0.24  36.69573981
-0.3  -0.22  43.5242174134
-0.3  -0.2  31.0049220207
-0.3  -0.18  29.5705925789
-0.3  -0.16  27.9421382891
-0.3  -0.14  26.1636126451
-0.3  -0.12  24.2909421115
-0.3  -0.1  22.3952214156
-0.3  -0.08  20.5667635737
-0.3  -0.06  18.9185109973
-0.3  -0.04  17.5846348769
-0.3  -0.02  16.7063835176
-0.3  6.17561557e-16  16.3985426635
-0.3  0.02  16.7063835176
-0.3  0.04  17.5846348769
-0.3  0.06  18.9185109973
-0.3  0.08  20.5667635737
-0.3  0.1  22.3952214156
-0.3  0.12  24.2909421115
-0.3  0.14  26.1636126451
-0.3  0.16  27.9421382891
-0.3  0.18  29.5705925789
-0.3  0.2  51.6233631277
-0.3  0.22  43.5242174134
-0.3  0.24  36.69573981
-0.3  0.26  30.9385762739
-0.3  0.28  26.0846492484
-0.3  0.3  21.9922507224
-0.3  0.32  18.5419051348
-0.3  0.34  15.6328813439
-0.3  0.36  13.1802518315
-0.3  0.38  11.1124132858
-0.3  0.4  9.368996178
-0.3  0.42  7.89910230351
-0.3  0.44  6.65981883394
-0.3  0.46  5.61496549819
-0.3  0.48  4.73403831726
-0.3  0.5  3.99131905557
-0.3  0.52  3.36512438973
-0.3  0.54  2.83717287461
-0.3  0.56  2.3920512255
-0.3  0.58  2.01676433489
-0.3  0.6  1.70035588666
-0.3  0.62  1.43358849187
-0.3  0.64  1.20867400768
-0.3  0.66  1.0190461664
-0.3  0.68  0.859168876527
-0.3  0.7  0.724374599236
-0.3  0.72  0.610728081933
-0.3  0.74  0.514911470468
-0.3  0.76  0.434127446015
-0.3  0.78  0.366017558731
-0.3  0.8  0.308593373972
-0.3  0.82  0.260178420919
-0.3  0.84  0.219359248842
-0.3  0.86  0.184944162096
-0.3  0.88  0.15592842916
-0.3  0.9  0.131464949986
-0.3  0.92  0.110839525338
-0.3  0.94  0.0934500060929
-0.3  0.96  0.0787887137926
-0.3  0.98  0.0664276192226
-0.28  -1  0.0625317651466
-0.28  -0.98  0.0741679049278
-0.28  -0.96  0.0879693401983
-0.28  -0.94  0.10433899707
-0.28  -0.92  0.123754779619
-0.28  -0.9  0.146783522065
-0.28  -0.88  0.174097537211
-0.28  -0.86  0.20649424429
-0.28  -0.84  0.244919449222
-0.28  -0.82  0.29049495696
-0.28  -0.8  0.344551322025
-0.28  -0.78  0.408666693396
-0.28  -0.76  0.484712887793
-0.28  -0.74  0.57491003644
-0.28  -0.72  0.681891400711
-0.28  -0.7  0.808780248893
-0.28  -0.68  0.959281038473
-0.28  -0.66  1.13778756595
-0.28  -0.64  1.34951124155
-0.28  -0.62  1.60063323381
-0.28  -0.6  1.89848492572
-0.28  -0.58  2.25176195086
-0.28  -0.56  2.67077805816
-0.28  -0.54  3.16776621668
-0.28  -0.52  3.75723575117
-0.28  -0.5  4.45639593462
-0.28  -0.48  5.28565840457
-0.28  -0.46  6.26923307077
-0.28  -0.44  7.43583491164
-0.28  -0.42  8.81952229386
-0.28  -0.4  10.4606912897
-0.28  -0.38  12.4072550205
-0.28  -0.36  14.7160424565
-0.28  -0.34  17.4544575108
-0.28  -0.32  20.7024468634
-0.28  -0.3  24.5548339654
-0.28  -0.28  29.1240873626
-0.28  -0.26  34.5436041595
-0.28  -0.24  40.9716044823
-0.28  -0.22  48.5957506374
-0.28  -0.2  34.6176806521
-0.28  -0.18  33.0162201313
-0.28  -0.16  31.1980149275
-0.28  -0.14  29.2122517401
-0.28  -0.12  27.1213737029
-0.28  -0.1  25.0047596501
-0.28  -0.08  22.9632460603
-0.28  -0.06  21.1229356319
-0.28  -0.04  19.6336334645
-0.28  -0.02  18.6530464123
-0.28  6.17561557e-16  18.3093352954
-0.28  0.02  18.6530464123
-0.28  0.04  19.6336334645
-0.28  0.06  21.1229356319
-0.28  0.08  22.9632460603
-0.28  0.1  25.0047596501
-0.28  0.12  27.1213737029
-0.28  0.14  29.2122517401
-0.28  0.16  31.1980149275
-0.28  0.18  33.0162201313
-0.28  0.2  57.6386258203
-0.28  0.22  48.5957506374
-0.28  0.24  40.9716044823
-0.28  0.26  34.5436041595
-0.28  0.28  29.1240873626
-0.28  0.3  24.5548339654
-0.28  0.32  20.7024468634
-0.28  0.34  17.4544575108
-0.28  0.36  14.7160424565
-0.28  0.38  12.4072550205
-0.28  0.4  10.4606912897
-0.28  0.42  8.81952229386
-0.28  0.44  7.43583491164
-0.28  0.46  6.26923307077
-0.28  0.48  5.28565840457
-0.28  0.5  4.45639593462
-0.28  0.52  3.75723575117
-0.28  0.54  3.16776621668
-0.28  0.56  2.67077805816
-0.28  0.58  2.25176195086
-0.28  0.6  1.89848492572
-0.28  0.62  1.60063323381
-0.28  0.64  1.34951124155
-0.28  0.66  1.13778756595
-0.28  0.68  0.959281038473
-0.28  0.7  0.808780248893
-0.28  0.72  0.681891400711
-0.28  0.74  0.57491003644
-0.28  0.76  0.484712887793
-0.28  0.78  0.408666693396
-0.28  0.8  0.344551322025
-0.28  0.82  0.29049495696
-0.28  0.84  0.244919449222
-0.28  0.86  0.20649424429
-0.28  0.88  0.174097537211
-0.28  0.9  0.146783522065
-0.28  0.92  0.123754779619
-0.28  0.94  0.10433899707
-0.28  0.96  0.0879693401983
-0.28  0.98  0.0741679049278
-0.26  -1  0.0698180977527
-0.26  -0.98  0.0828101049798
-0.26  -0.96  0.0982197124742
-0.26  -0.94  0.116496796144
-0.26  -0.92  0.138174946454
-0.26  -0.9  0.163887046335
-0.26  -0.88  0.194383747892
-0.26  -0.86  0.23055538732
-0.26  -0.84  0.273457977833
-0.26  -0.82  0.324344039452
-0.26  -0.8  0.384699165705
-0.26  -0.78  0.456285394806
-0.26  -0.76  0.541192651488
-0.26  -0.74  0.64189976133
-0.26  -0.72  0.761346818852
-0.26  -0.7  0.90302102212
-0.26  -0.68  1.07105847979
-0.26  -0.66  1.27036496275
-0.26  -0.64  1.5067591257
-0.26  -0.62  1.78714237991
-0.26  -0.6  2.11970037652
-0.26  -0.58  2.5141419826
-0.26  -0.56  2.98198272675
-0.26  -0.54  3.53688098929
-0.26  -0.52  4.19503675196
-0.26  -0.5  4.97566454839
-0.26  -0.48  5.90155442298
-0.26  -0.46  6.99973727502
-0.26  -0.44  8.30227401252
-0.26  -0.42  9.84719155459
-0.26  -0.4  11.6795930087
-0.26  -0.38  13.8529744336
-0.26  -0.36  16.4307866306
-0.26  -0.34  19.4882875583
-0.26  -0.32  23.1147394519
-0.26  -0.3  27.4160147899
-0.26  -0.28  32.5176871894
-0.26  -0.26  38.5686974657
-0.26  -0.24  45.7457018864
-0.26  -0.22  54.258229564
-0.26  -0.2  38.6514055068
-0.26  -0.18  36.8633394427
-0.26  -0.16  34.8332731499
-0.26  -0.14  32.6161246654
-0.26  -0.12  30.2816131279
-0.26  -0.1  27.9183667603
-0.26  -0.08  25.6389717193
-0.26  -0.06  23.5842244548
-0.26  -0.04  21.921385671
-0.26  -0.02  20.826538556
-0.26  6.17561557e-16  20.4427774979
-0.26  0.02  20.826538556
-0.26  0.04  21.921385671
-0.26  0.06  23.5842244548
-0.26  0.08  25.6389717193
-0.26  0.1  27.9183667603
-0.26  0.12  30.2816131279
-0.26  0.14  32.6161246654
-0.26  0.16  34.8332731499
-0.26  0.18  36.8633394427
-0.26  0.2  64.3547995554
-0.26  0.22  54.258229564
-0.26  0.24  45.7457018864
-0.26  0.26  38.5686974657
-0.26  0.28  32.5176871894
-0.26  0.3  27.4160147899
-0.26  0.32  23.1147394519
-0.26  0.34  19.4882875583
-0.26  0.36  16.4307866306
-0.26  0.38  13.8529744336
-0.26  0.4  11.6795930087
-0.26  0.42  9.84719155459
-0.26  0.44  8.30227401252
-0.26  0.46  6.99973727502
-0.26  0.48  5.90155442298
-0.26  0.5  4.97566454839
-0.26  0.52  4.19503675196
-0.26  0.54  3.53688098929
-0.26  0.56  2.98198272675
-0.26  0.58  2.5141419826
-0.26  0.6  2.11970037652
-0.26  0.62  1.78714237991
-0.26  0.64  1.5067591257
-0.26  0.66  1.27036496275
-0.26  0.68  1.07105847979
-0.26  0.7  0.90302102212
-0.26  0.72  0.761346818852
-0.26  0.74  0.64189976133
-0.26  0.76  0.541192651488
-0.26  0.78  0.456285394806
-0.26  0.8  0.384699165705
-0.26  0.82  0.324344039452
-0.26  0.84  0.273457977833
-0.26  0.86  0.23055538732
-0.26  0.88  0.194383747892
-0.26  0.9  0.163887046335
-0.26  0.92  0.138174946454
-0.26  0.94  0.116496796144
-0.26  0.96  0.0982197124742
-0.26  0.98  0.0828101049798
-0.24  -1  0.077953449137
-0.24  -0.98  0.0924593123324
-0.24  -0.96  0.109664479656
-0.24  -0.94  0.130071247501
-0.24  -0.92  0.154275381414
-0.24  -0.9  0.182983509175
-0.24  -0.88  0.217033750447
-0.24  -0.86  0.25742018527
-0.24  -0.84  0.305321875736
-0.24  -0.82  0.362137288126
-0.24  -0.8  0.42952512045
-0.24  -0.78  0.509452727314
-0.24  -0.76  0.604253555869
-0.24  -0.74  0.716695269659
-0.24  -0.72  0.850060549189
-0.24  -0.7  1.00824292817
-0.24  -0.68  1.19586046332
-0.24  -0.66  1.41839055627
-0.24  -0.64  1.68232986357
-0.24  -0.62  1.99538396343
-0.24  -0.6  2.36669231625
-0.24  -0.58  2.80709508669
-0.24  -0.56  3.32944961693
-0.24  -0.54  3.94900579044
-0.24  -0.52  4.68385124485
-0.24  -0.5  5.55543943161
-0.24  -0.48  6.58921593897
-0.24  -0.46  7.81536136338
-0.24  -0.44  9.26967241716
-0.24  -0.42  10.9946069959
-0.24  -0.4  13.0405237159
-0.24  -0.38  15.467152109
-0.24  -0.36  18.3453363972
-0.24  -0.34  21.7591037545
-0.24  -0.32  25.8081174392
-0.24  -0.3  30.6105864132
-0.24  -0.28  36.3067163954
-0.24  -0.26  43.0628030976
-0.24  -0.24  51.0760871468
-0.24  -0.22  60.5805124277
-0.24  -0.2  43.1551484534
-0.24  -0.18  41.1587331761
-0.24  -0.16  38.8921192952
-0.24  -0.14  36.4166240128
-0.24  -0.12  33.810090288
-0.24  -0.1  31.1714734903
-0.24  -0.08  28.6264785519
-0.24  -0.06  26.3323078206
-0.24  -0.04  24.4757115694
-0.24  -0.02  23.2532905691
-0.24  6.17561557e-16  22.8248128665
-0.24  0.02  23.2532905691
-0.24  0.04  24.4757115694
-0.24  0.06  26.3323078206
-0.24  0.08  28.6264785519
-0.24  0.1  31.1714734903
-0.24  0.12  33.810090288
-0.24  0.14  36.4166240128
-0.24  0.16  38.8921192952
-0.24  0.18  41.1587331761
-0.24  0.2  71.8535559596
-0.24  0.22  60.5805124277
-0.24  0.24  51.0760871468
-0.24  0.26  43.0628030976
-0.24  0.28  36.3067163954
-0.24  0.3  30.6105864132
-0.24  0.32  25.8081174392
-0.24  0.34  21.7591037545
-0.24  0.36  18.3453363972
-0.24  0.38  15.467152109
-0.24  0.4  13.0405237159
-0.24  0.42  10.9946069959
-0.24  0.44  9.26967241716
-0.24  0.46  7.81536136338
-0.24  0.48  6.58921593897
-0.24  0.5  5.55543943161
-0.24  0.52  4.68385124485
-0.24  0.54  3.94900579044
-0.24  0.56  3.32944961693
-0.24  0.58  2.80709508669
-0.24  0.6  2.36669231625
-0.24  0.62  1.99538396343
-0.24  0.64  1.68232986357
-0.24  0.66  1.41839055627
-0.24  0.68  1.19586046332
-0.24  0.7  1.00824292817
-0.24  0.72  0.850060549189
-0.24  0.74  0.716695269659
-0.24  0.76  0.604253555869
-0.24  0.78  0.509452727314
-0.24  0.8  0.42952512045
-0.24  0.82  0.362137288126
-0.24  0.84  0.305321875736
-0.24  0.86  0.25742018527
-0.24  0.88  0.217033750447
-0.24  0.9  0.182983509175
-0.24  0.92  0.154275381414
-0.24  0.94  0.130071247501
-0.24  0.96  0.109664479656
-0.24  0.98  0.0924593123324
-0.22  -1  0.0870367487507
-0.22  -0.98  0.103232865591
-0.22  -0.96  0.122442815146
-0.22  -0.94  0.14522742244
-0.22  -0.92  0.172251872871
-0.22  -0.9  0.204305131972
-0.22  -0.88  0.242322978871
-0.22  -0.86  0.2874153259
-0.22  -0.84  0.340898621943
-0.22  -0.82  0.404334285511
-0.22  -0.8  0.479574289588
-0.22  -0.78  0.568815229069
-0.22  -0.76  0.674662449271
-0.22  -0.74  0.800206107706
-0.22  -0.72  0.949111389705
-0.22  -0.7  1.12572551171
-0.22  -0.68  1.3352046361
-0.22  -0.66  1.58366440283
-0.22  -0.64  1.87835847256
-0.22  -0.62  2.22789029362
-0.22  -0.6  2.64246427554
-0.22  -0.58  3.13418370174
-0.22  -0.56  3.71740407891
-0.22  -0.54  4.40915223896
-0.22  -0.52  5.22962342907
-0.22  -0.5  6.2027709019
-0.22  -0.48  7.35700521906
-0.22  -0.46  8.72602368351
-0.22  -0.44  10.3497941157
-0.22  -0.42  12.2757216943
-0.22  -0.4  14.5600329274
-0.22  -0.38  17.2694171574
-0.22  -0.36  20.4829735237
-0.22  -0.34  24.2945202232
-0.22  -0.32  28.8153334862
-0.22  -0.3  34.1773962314
-0.22  -0.28  40.5372512423
-0.22  -0.26  48.0805713564
-0.22  -0.24  57.0275800928
-0.22  -0.22  67.6394809689
-0.22  -0.2  48.183676987
-0.22  -0.18  45.9546352087
-0.22  -0.16  43.423910718
-0.22  -0.14  40.6599655262
-0.22  -0.12  37.7497130174
-0.22  -0.1  34.8036390487
-0.22  -0.08  31.962095955
-0.22  -0.06  29.4006036318
-0.22  -0.04  27.3276728861
-0.22  -0.02  25.9628128235
-0.22  6.17561557e-16  25.4844079991
-0.22  0.02  25.9628128235
-0.22  0.04  27.3276728861
-0.22  0.06  29.4006036318
-0.22  0.08  31.962095955
-0.22  0.1  34.8036390487
-0.22  0.12  37.7497130174
-0.22  0.14  40.6599655262
-0.22  0.16  43.423910718
-0.22  0.18  45.9546352087
-0.22  0.2  80.2260832091
-0.22  0.22  67.6394809689
-0.22  0.24  57.0275800928
-0.22  0.26  48.0805713564
-0.22  0.28  40.5372512423
-0.22  0.3  34.1773962314
-0.22  0.32  28.8153334862
-0.22  0.34  24.2945202232
-0.22  0.36  20.4829735237
-0.22  0.38  17.2694171574
-0.22  0.4  14.5600329274
-0.22  0.42  12.2757216943
-0.22  0.44  10.3497941157
-0.22  0.46  8.72602368351
-0.22  0.48  7.35700521906
-0.22  0.5  6.2027709019
-0.22  0.52  5.22962342907
-0.22  0.54  4.40915223896
-0.22  0.56  3.71740407891
-0.22  0.58  3.13418370174
-0.22  0.6  2.64246427554
-0.22  0.62  2.22789029362
-0.22  0.64  1.87835847256
-0.22  0.66  1.58366440283
-0.22  0.68  1.3352046361
-0.22  0.7  1.12572551171
-0.22  0.72  0.949111389705
-0.22  0.74  0.800206107706
-0.22  0.76  0.674662449271
-0.22  0.78  0.568815229069
-0.22  0.8  0.479574289588
-0.22  0.82  0.404334285511
-0.22  0.84  0.340898621943
-0.22  0.86  0.2874153259
-0.22  0.88  0.242322978871
-0.22  0.9  0.204305131972
-0.22  0.92  0.172251872871
-0.22  0.94  0.14522742244
-0.22  0.96  0.122442815146
-0.22  0.98  0.103232865591
-0.2  -1  0.0971784535125
-0.2  -0.98  0.115261775903
-0.2  -0.96  0.136710109125
-0.2  -0.94  0.162149626714
-0.2  -0.92  0.192323022867
-0.2  -0.9  0.228111195038
-0.2  -0.88  0.270558961303
-0.2  -0.86  0.320905563313
-0.2  -0.84  0.380620845338
-0.2  -0.82  0.451448165654
-0.2  -0.8  0.535455293027
-0.2  -0.78  0.635094774204
-0.2  -0.76  0.753275534808
-0.2  -0.74  0.893447803994
-0.2  -0.72  1.05970384219
-0.2  -0.7  1.25689741261
-0.2  -0.68  1.49078548453
-0.2  -0.66  1.76819630512
-0.2  -0.64  2.09722874677
-0.2  -0.62  2.48748874972
-0.2  -0.6  2.95036976272
-0.2  -0.58  3.49938536918
-0.2  -0.56  4.15056380959
-0.2  -0.54  4.92291591809
-0.2  -0.52  5.83899013445
-0.2  -0.5  6.92553079464
-0.2  -0.48  8.2142589186
-0.2  -0.46  9.74279828978
-0.2  -0.44  11.555773863
-0.2  -0.42  13.706114568
-0.2  -0.4  16.2565985435
-0.2  -0.38  19.2816859144
-0.2  -0.36  22.8696926177
-0.2  -0.34  27.1253687437
-0.2  -0.32  32.1729566629
-0.2  -0.3  38.1598182208
-0.2  -0.28  45.2607368947
-0.2  -0.26  53.6830205112
-0.2  -0.24  63.6725534963
-0.2  -0.22  75.5209753499
-0.2  -0.2  53.7981402264
-0.2  -0.18  51.3093658185
-0.2  -0.16  48.4837559951
-0.2  -0.14  45.3977501046
-0.2  -0.12  42.1483888613
-0.2  -0.1  38.8590321663
-0.2  -0.08  35.6863865034
-0.2  -0.06  32.8264237151
-0.2  -0.04  30.5119507252
-0.2  -0.02  28.9880543017
-0.2  6.17561557e-16  28.4539047423
-0.2  0.02  28.9880543017
-0.2  0.04  30.5119507252
-0.2  0.06  32.8264237151
-0.2  0.08  35.6863865034
-0.2  0.1  38.8590321663
-0.2  0.12  42.1483888613
-0.2  0.14  45.3977501046
-0.2  0.16  48.4837559951
-0.2  0.18  51.3093658185
-0.2  0.2  89.574194918
-0.2  0.22  75.5209753499
-0.2  0.24  63.6725534963
-0.2  0.26  53.6830205112
-0.2  0.28  45.2607368947
-0.2  0.3  38.1598182208
-0.2  0.32  32.1729566629
-0.2  0.34  27.1253687437
-0.2  0.36  22.8696926177
-0.2  0.38  19.2816859144
-0.2  0.4  16.2565985435
-0.2  0.42  13.706114568
-0.2  0.44  11.555773863
-0.2  0.46  9.74279828978
-0.2  0.48  8.2142589186
-0.2  0.5  6.92553079464
-0.2  0.52  5.83899013445
-0.2  0.54  4.92291591809
-0.2  0.56  4.15056380959
-0.2  0.58  3.49938536918
-0.2  0.6  2.95036976272
-0.2  0.62  2.48748874972
-0.2  0.64  2.09722874677
-0.2  0.66  1.76819630512
-0.2  0.68  1.49078548453
-0.2  0.7  1.25689741261
-0.2  0.72  1.05970384219
-0.2  0.74  0.893447803994
-0.2  0.76  0.753275534808
-0.2  0.78  0.635094774204
-0.2  0.8  0.535455293027
-0.2  0.82  0.451448165654
-0.2  0.84  0.380620845338
-0.2  0.86  0.320905563313
-0.2  0.88  0.270558961303
-0.2  0.9  0.228111195038
-0.2  0.92  0.192323022867
-0.2  0.94  0.162149626714
-0.2  0.96  0.136710109125
-0.2  0.98  0.115261775903
-0.18  -1  0.108501891013
-0.18  -0.98  0.128692320108
-0.18  -0.96  0.152639858163
-0.18  -0.94  0.18104364177
-0.18  -0.92  0.214732905414
-0.18  -0.9  0.25469119057
-0.18  -0.88  0.302085059711
-0.18  -0.86  0.358298153526
-0.18  -0.84  0.424971585629
-0.18  -0.82  0.504051854062
-0.18  -0.8  0.597847668351
-0.18  -0.78  0.70909735114
-0.18  -0.76  0.841048782177
-0.18  -0.74  0.997554218563
-0.18  -0.72  1.1831827595
-0.18  -0.7  1.40335373891
-0.18  -0.68  1.66449494019
-0.18  -0.66  1.97423025221
-0.18  -0.64  2.34160224501
-0.18  -0.62  2.77733616314
-0.18  -0.6  3.29415304393
-0.18  -0.58  3.90714110192
-0.18  -0.56  4.63419622183
-0.18  -0.54  5.49654442013
-0.18  -0.52  6.51936152815
-0.18  -0.5  7.73250818805
-0.18  -0.48  9.17140161965
-0.18  -0.46  10.8780496086
-0.18  -0.44  12.9022769033
-0.18  -0.42  15.3031798235
-0.18  -0.4  18.1508515485
-0.18  -0.38  21.5284284531
-0.18  -0.36  25.5345172332
-0.18  -0.34  30.2860736793
-0.18  -0.32  35.9218171439
-0.18  -0.3  42.6062803843
-0.18  -0.28  50.5346130157
-0.18  -0.26  59.938278808
-0.18  -0.24  71.0918131568
-0.18  -0.22  84.3208380093
-0.18  -0.2  60.0668125141
-0.18  -0.18  57.2880408853
-0.18  -0.16  54.1331850708
-0.18  -0.14  50.6875912926
-0.18  -0.12  47.0596076528
-0.18  -0.1  43.3869682073
-0.18  -0.08  39.8446392085
-0.18  -0.06  36.6514275495
-0.18  -0.04  34.0672673059
-0.18  -0.02  32.3658032705
-0.18  6.17561557e-16  31.7694134827
-0.18  0.02  32.3658032705
-0.18  0.04  34.0672673059
-0.18  0.06  36.6514275495
-0.18  0.08  39.8446392085
-0.18  0.1  43.3869682073
-0.18  0.12  47.0596076528
-0.18  0.14  50.6875912926
-0.18  0.16  54.1331850708
-0.18  0.18  57.2880408853
-0.18  0.2  100.011568236
-0.18  0.22  84.3208380093
-0.18  0.24  71.0918131568
-0.18  0.26  59.938278808
-0.18  0.28  50.5346130157
-0.18  0.3  42.6062803843
-0.18  0.32  35.9218171439
-0.18  0.34  30.2860736793
-0.18  0.36  25.5345172332
-0.18  0.38  21.5284284531
-0.18  0.4  18.1508515485
-0.18  0.42  15.3031798235
-0.18  0.44  12.9022769033
-0.18  0.46  10.8780496086
-0.18  0.48  9.17140161965
-0.18  0.5  7.73250818805
-0.18  0.52  6.51936152815
-0.18  0.54  5.49654442013
-0.18  0.56  4.63419622183
-0.18  0.58  3.90714110192
-0.18  0.6  3.29415304393
-0.18  0.62  2.77733616314
-0.18  0.64  2.34160224501
-0.18  0.66  1.97423025221
-0.18  0.68  1.66449494019
-0.18  0.7  1.40335373891
-0.18  0.72  1.1831827595
-0.18  0.74  0.997554218563
-0.18  0.76  0.841048782177
-0.18  0.78  0.70909735114
-0.18  0.8  0.597847668351
-0.18  0.82  0.504051854062
-0.18  0.84  0.424971585629
-0.18  0.86  0.358298153526
-0.18  0.88  0.302085059711
-0.18  0.9  0.25469119057
-0.18  0.92  0.214732905414
-0.18  0.94  0.18104364177
-0.18  0.96  0.152639858163
-0.18  0.98  0.128692320108
-0.16  -1  0.121144759233
-0.16  -0.98  0.14368781953
-0.16  -0.96  0.170425775016
-0.16  -0.94  0.202139227143
-0.16  -0.92  0.239754034542
-0.16  -0.9  0.284368343006
-0.16  -0.88  0.337284645317
-0.16  -0.86  0.400047806884
-0.16  -0.84  0.474490167325
-0.16  -0.82  0.562785034723
-0.16  -0.8  0.667510134286
-0.16  -0.78  0.791722863764
-0.16  -0.76  0.939049552674
-0.16  -0.74  1.1137913312
-0.16  -0.72  1.3210496996
-0.16  -0.7  1.56687546393
-0.16  -0.68  1.85844538644
-0.16  -0.66  2.20427170754
-0.16  -0.64  2.6144506565
-0.16  -0.62  3.10095720591
-0.16  -0.6  3.67799467509
-0.16  -0.58  4.36240938902
-0.16  -0.56  5.17418249848
-0.16  -0.54  6.13701331998
-0.16  -0.52  7.27901122557
-0.16  -0.5  8.63351628218
-0.16  -0.48  10.2400725984
-0.16  -0.46  12.1455827955
-0.16  -0.44  14.4056773059
-0.16  -0.42  17.0863384767
-0.16  -0.4  20.2658268919
-0.16  -0.38  24.0369661512
-0.16  -0.36  28.5098528096
-0.16  -0.34  33.8150705922
-0.16  -0.32  40.1075027217
-0.16  -0.3  47.5708536578
-0.16  -0.28  56.4230122587
-0.16  -0.26  66.922412939
-0.16  -0.24  79.3755805351
-0.16  -0.22  94.1460791474
-0.16  -0.2  67.0659236625
-0.16  -0.18  63.9633637274
-0.16  -0.16  60.4408974875
-0.16  -0.14  56.5938158857
-0.16  -0.12  52.5430919726
-0.16  -0.1  48.4425088655
-0.16  -0.08  44.4874202521
-0.16  -0.06  40.922128864
-0.16  -0.04  38.0368568416
-0.16  -0.02  36.1371346433
-0.16  6.17561557e-16  35.4712522648
-0.16  0.02  36.1371346433
-0.16  0.04  38.0368568416
-0.16  0.06  40.922128864
-0.16  0.08  44.4874202521
-0.16  0.1  48.4425088655
-0.16  0.12  52.5430919726
-0.16  0.14  56.5938158857
-0.16  0.16  60.4408974875
-0.16  0.18  63.9633637274
-0.16  0.2  111.665126215
-0.16  0.22  94.1460791474
-0.16  0.24  79.3755805351
-0.16  0.26  66.922412939
-0.16  0.28  56.4230122587
-0.16  0.3  47.5708536578
-0.16  0.32  40.1075027217
-0.16  0.34  33.8150705922
-0.16  0.36  28.5098528096
-0.16  0.38  24.0369661512
-0.16  0.4  20.2658268919
-0.16  0.42  17.0863384767
-0.16  0.44  14.4056773059
-0.16  0.46  12.1455827955
-0.16  0.48  10.2400725984
-0.16  0.5  8.63351628218
-0.16  0.52  7.27901122557
-0.16  0.54  6.13701331998
-0.16  0.56  5.17418249848
-0.16  0.58  4.36240938902
-0.16  0.6  3.67799467509
-0.16  0.62  3.10095720591
-0.16  0.64  2.6144506565
-0.16  0.66  2.20427170754
-0.16  0.68  1.85844538644
-0.16  0.7  1.56687546393
-0.16  0.72  1.3210496996
-0.16  0.74  1.1137913312
-0.16  0.76  0.939049552674
-0.16  0.78  0.791722863764
-0.16  0.8  0.667510134286
-0.16  0.82  0.562785034723
-0.16  0.84  0.474490167325
-0.16  0.86  0.400047806884
-0.16  0.88  0.337284645317
-0.16  0.9  0.284368343006
-0.16  0.92  0.239754034542
-0.16  0.94  0.202139227143
-0.16  0.96  0.170425775016
-0.16  0.98  0.14368781953
-0.14  -1  0.135260801011
-0.14  -0.98  0.16043062604
-0.14  -0.96  0.190284144254
-0.14  -0.94  0.225692914429
-0.14  -0.92  0.267690678186
-0.14  -0.9  0.317503539572
-0.14  -0.88  0.376585760565
-0.14  -0.86  0.446662217535
-0.14  -0.84  0.529778758161
-0.14  -0.82  0.628361928948
-0.14  -0.8  0.745289817059
-0.14  -0.78  0.883976074651
-0.14  -0.76  1.04846957877
-0.14  -0.74  1.24357263634
-0.14  -0.72  1.4749811851
-0.14  -0.7  1.74945108379
-0.14  -0.68  2.07499534604
-0.14  -0.66  2.46111807638
-0.14  -0.64  2.91909193795
-0.14  -0.62  3.46228725228
-0.14  -0.6  4.10656233928
-0.14  -0.58  4.8707264931
-0.14  -0.56  5.77708911019
-0.14  -0.54  6.85211100118
-0.14  -0.52  8.12717690119
-0.14  -0.5  9.63951173177
-0.14  -0.48  11.4332673641
-0.14  -0.46  13.5608116113
-0.14  -0.44  16.0842570808
-0.14  -0.42  19.0772745213
-0.14  -0.4  22.6272436043
-0.14  -0.38  26.8378039303
-0.14  -0.36  31.8318807362
-0.14  -0.34  37.7552736371
-0.14  -0.32  44.7809131738
-0.14  -0.3  53.1139094358
-0.14  -0.28  62.9975401485
-0.14  -0.26  74.7203530472
-0.14  -0.24  88.6245898862
-0.14  -0.22  105.116178018
-0.14  -0.2  74.8805859416
-0.14  -0.18  71.4165092068
-0.14  -0.16  67.4835978026
-0.14  -0.14  63.1882461728
-0.14  -0.12  58.6655234019
-0.14  -0.1  54.087131739
-0.14  -0.08  49.6711878937
-0.14  -0.06  45.6904612652
-0.14  -0.04  42.468991287
-0.14  -0.02  40.3479094683
-0.14  6.17561557e-16  39.6044370765
-0.14  0.02  40.3479094683
-0.14  0.04  42.468991287
-0.14  0.06  45.6904612652
-0.14  0.08  49.6711878937
-0.14  0.1  54.087131739
-0.14  0.12  58.6655234019
-0.14  0.14  63.1882461728
-0.14  0.16  67.4835978026
-0.14  0.18  71.4165092068
-0.14  0.2  124.676581244
-0.14  0.22  105.116178018
-0.14  0.24  88.6245898862
-0.14  0.26  74.7203530472
-0.14  0.28  62.9975401485
-0.14  0.3  53.1139094358
-0.14  0.32  44.7809131738
-0.14  0.34  37.7552736371
-0.14  0.36  31.8318807362
-0.14  0.38  26.8378039303
-0.14  0.4  22.6272436043
-0.14  0.42  19.0772745213
-0.14  0.44  16.0842570808
-0.14  0.46  13.5608116113
-0.14  0.48  11.4332673641
-0.14  0.5  9.63951173177
-0.14  0.52  8.12717690119
-0.14  0.54  6.85211100118
-0.14  0.56  5.77708911019
-0.14  0.58  4.8707264931
-0.14  0.6  4.10656233928
-0.14  0.62  3.46228725228
-0.14  0.64  2.91909193795
-0.14  0.66  2.46111807638
-0.14  0.68  2.07499534604
-0.14  0.7  1.74945108379
-0.14  0.72  1.4749811851
-0.14  0.74  1.24357263634
-0.14  0.76  1.04846957877
-0.14  0.78  0.883976074651
-0.14  0.8  0.745289817059
-0.14  0.82  0.628361928948
-0.14  0.84  0.529778758161
-0.14  0.86  0.446662217535
-0.14  0.88  0.376585760565
-0.14  0.9  0.317503539572
-0.14  0.92  0.267690678186
-0.14  0.94  0.225692914429
-0.14  0.96  0.190284144254
-0.14  0.98  0.16043062604
-0.12  -1  0.151021673624
-0.12  -0.98  0.179124339527
-0.12  -0.96  0.212456452383
-0.12  -0.94  0.251991126825
-0.12  -0.92  0.29888255822
-0.12  -0.9  0.354499718834
-0.12  -0.88  0.420466324304
-0.12  -0.86  0.498708237216
-0.12  -0.84  0.59150969172
-0.12  -0.82  0.701579980615
-0.12  -0.8  0.832132551824
-0.12  -0.78  0.986978823424
-0.12  -0.76  1.17063945612
-0.12  -0.74  1.38847633171
-0.12  -0.72  1.6468490906
-0.12  -0.7  1.95330079833
-0.12  -0.68  2.31677816173
-0.12  -0.66  2.74789272356
-0.12  -0.64  3.25923066133
-0.12  -0.62  3.86572023452
-0.12  -0.6  4.58506760778
-0.12  -0.58  5.43827377373
-0.12  -0.56  6.45024766653
-0.12  -0.54  7.65053336605
-0.12  -0.52  9.07417262267
-0.12  -0.5  10.762727884
-0.12  -0.48  12.7654956899
-0.12  -0.46  15.1409458611
-0.12  -0.44  17.9584284965
-0.12  -0.42  21.3001986152
-0.12  -0.4  25.2638175515
-0.12  -0.38  29.9650012099
-0.12  -0.36  35.5409983339
-0.12  -0.34  42.1545974161
-0.12  -0.32  49.9988792271
-0.12  -0.3  59.3028537148
-0.12  -0.28  70.338145836
-0.12  -0.26  83.4269255143
-0.12  -0.24  98.9513132319
-0.12  -0.22  117.364535849
-0.12  -0.2  83.6058290821
-0.12  -0.18  79.7381108508
-0.12  -0.16  75.3469283498
-0.12  -0.14  70.5510733269
-0.12  -0.12  65.5013533999
-0.12  -0.1  60.3894779248
-0.12  -0.08  55.4589790281
-0.12  -0.06  51.0144097724
-0.12  -0.04  47.4175673464
-0.12  -0.02  45.0493326195
-0.12  6.17561557e-16  44.2192292632
-0.12  0.02  45.0493326195
-0.12  0.04  47.4175673464
-0.12  0.06  51.0144097724
-0.12  0.08  55.4589790281
-0.12  0.1  60.3894779248
-0.12  0.12  65.5013533999
-0.12  0.14  70.5510733269
-0.12  0.16  75.3469283498
-0.12  0.18  79.7381108508
-0.12  0.2  139.20415834
-0.12  0.22  117.364535849
-0.12  0.24  98.9513132319
-0.12  0.26  83.4269255143
-0.12  0.28  70.338145836
-0.12  0.3  59.3028537148
-0.12  0.32  49.9988792271
-0.12  0.34  42.1545974161
-0.12  0.36  35.5409983339
-0.12  0.38  29.9650012099
-0.12  0.4  25.2638175515
-0.12  0.42  21.3001986152
-0.12  0.44  17.9584284965
-0.12  0.46  15.1409458611
-0.12  0.48  12.7654956899
-0.12  0.5  10.762727884
-0.12  0.52  9.07417262267
-0.12  0.54  7.65053336605
-0.12  0.56  6.45024766653
-0.12  0.58  5.43827377373
-0.12  0.6  4.58506760778
-0.12  0.62  3.86572023452
-0.12  0.64  3.25923066133
-0.12  0.66  2.74789272356
-0.12  0.68  2.31677816173
-0.12  0.7  1.95330079833
-0.12  0.72  1.6468490906
-0.12  0.74  1.38847633171
-0.12  0.76  1.17063945612
-0.12  0.78  0.986978823424
-0.12  0.8  0.832132551824
-0.12  0.82  0.701579980615
-0.12  0.84  0.59150969172
-0.12  0.86  0.498708237216
-0.12  0.88  0.420466324304
-0.12  0.9  0.354499718834
-0.12  0.92  0.29888255822
-0.12  0.94  0.251991126825
-0.12  0.96  0.212456452383
-0.12  0.98  0.179124339527
-0.1  -1  0.168619036215
-0.1  -0.98  0.199996283772
-0.1  -0.96  0.237212324423
-0.1  -0.94  0.281353662163
-0.1  -0.92  0.333708981627
-0.1  -0.9  0.395806770604
-0.1  -0.88  0.469459943488
-0.1  -0.86  0.55681876842
-0.1  -0.84  0.660433643307
-0.1  -0.82  0.783329553437
-0.1  -0.8  0.929094384434
-0.1  -0.78  1.10198366881
-0.1  -0.76  1.30704482416
-0.1  -0.74  1.55026451001
-0.1  -0.72  1.8387434054
-0.1  -0.7  2.18090350973
-0.1  -0.68  2.5867340189
-0.1  -0.66  3.06808295492
-0.1  -0.64  3.63900306313
-0.1  -0.62  4.31616207515
-0.1  -0.6  5.11932931515
-0.1  -0.58  6.07195285548
-0.1  -0.56  7.20184407165
-0.1  -0.54  8.54198958176
-0.1  -0.52  10.1315142745
-0.1  -0.5  12.0168235412
-0.1  -0.48  14.2529580582
-0.1  -0.46  16.9052006724
-0.1  -0.44  20.0509823018
-0.1  -0.42  23.7821424932
-0.1  -0.4  28.2076106325
-0.1  -0.38  33.4565860843
-0.1  -0.36  39.6823101041
-0.1  -0.34  47.0665396414
-0.1  -0.32  55.8248536439
-0.1  -0.3  66.2129467794
-0.1  -0.28  78.5340943153
-0.1  -0.26  93.1480060911
