-0.28  0.94  0.0151511288267
-0.28  0.96  0.0122675032059
-0.28  0.98  0.00993270116232
-0.26  -1  0.00929271907332
-0.26  -0.98  0.0114770855542
-0.26  -0.96  0.014174913906
-0.26  -0.94  0.0175068995779
-0.26  -0.92  0.0216221089499
-0.26  -0.9  0.026704648265
-0.26  -0.88  0.0329819001751
-0.26  -0.86  0.0407346963856
-0.26  -0.84  0.0503098815052
-0.26  -0.82  0.0621358301805
-0.26  -0.8  0.0767416117213
-0.26  -0.78  0.0947806596046
-0.26  -0.76  0.117060004782
-0.26  -0.74  0.144576380632
-0.26  -0.72  0.17856081482
-0.26  -0.7  0.220533703014
-0.26  -0.68  0.272372828351
-0.26  -0.66  0.336397369698
-0.26  -0.64  0.415471657085
-0.26  -0.62  0.513133316102
-0.26  -0.6  0.633751534198
-0.26  -0.58  0.782722529399
-0.26  -0.56  0.966710966317
-0.26  -0.54  1.19394811992
-0.26  -0.52  1.47460012634
-0.26  -0.5  1.82122279547
-0.26  -0.48  2.2493233328
-0.26  -0.46  2.77805410083
-0.26  -0.44  3.43106945746
-0.26  -0.42  4.23758400473
-0.26  -0.4  5.23367959168
-0.26  -0.38  6.46391954419
-0.26  -0.36  7.98334233915
-0.26  -0.34  9.85992391587
-0.26  -0.32  12.1776187838
-0.26  -0.3  15.0401159795
-0.26  -0.28  18.5754779069
-0.26  -0.26  22.9418695932
-0.26  -0.24  28.3346346765
-0.26  -0.22  34.9950346892
-0.26  -0.2  21.8458017649
-0.26  -0.18  20.3827446281
-0.26  -0.16  18.8294251832
-0.26  -0.14  17.2094796723
-0.26  -0.12  15.5530913068
-0.26  -0.1  13.9003045818
-0.26  -0.08  12.3064104672
-0.26  -0.06  10.8499264328
-0.26  -0.04  9.64126243734
-0.26  -0.02  8.82153568487
-0.26  6.17561557e-16  8.52810575588
-0.26  0.02  8.82153568487
-0.26  0.04  9.64126243734
-0.26  0.06  10.8499264328
-0.26  0.08  12.3064104672
-0.26  0.1  13.9003045818
-0.26  0.12  15.5530913068
-0.26  0.14  17.2094796723
-0.26  0.16  18.8294251832
-0.26  0.18  20.3827446281
-0.26  0.2  43.2210426173
-0.26  0.22  34.9950346892
-0.26  0.24  28.3346346765
-0.26  0.26  22.9418695932
-0.26  0.28  18.5754779069
-0.26  0.3  15.0401159795
-0.26  0.32  12.1776187838
-0.26  0.34  9.85992391587
-0.26  0.36  7.98334233915
-0.26  0.38  6.46391954419
-0.26  0.4  5.23367959168
-0.26  0.42  4.23758400473
-0.26  0.44  3.43106945746
-0.26  0.46  2.77805410083
-0.26  0.48  2.2493233328
-0.26  0.5  1.82122279547
-0.26  0.52  1.47460012634
-0.26  0.54  1.19394811992
-0.26  0.56  0.966710966317
-0.26  0.58  0.782722529399
-0.26  0.6  0.633751534198
-0.26  0.62  0.513133316102
-0.26  0.64  0.415471657085
-0.26  0.66  0.336397369698
-0.26  0.68  0.272372828351
-0.26  0.7  0.220533703014
-0.26  0.72  0.17856081482
-0.26  0.74  0.144576380632
-0.26  0.76  0.117060004782
-0.26  0.78  0.0947806596046
-0.26  0.8  0.0767416117213
-0.26  0.82  0.0621358301805
-0.26  0.84  0.0503098815052
-0.26  0.86  0.0407346963856
-0.26  0.88  0.0329819001751
-0.26  0.9  0.026704648265
-0.26  0.92  0.0216221089499
-0.26  0.94  0.0175068995779
-0.26  0.96  0.014174913906
-0.26  0.98  0.0114770855542
-0.24  -1  0.0107375959563
-0.24  -0.98  0.0132615982969
-0.24  -0.96  0.0163788980423
-0.24  -0.94  0.0202289569534
-0.24  -0.92  0.0249840189716
-0.24  -0.9  0.0308568160688
-0.24  -0.88  0.0381100854503
-0.24  -0.86  0.047068323893
-0.24  -0.84  0.0581323050819
-0.24  -0.82  0.0717970094243
-0.24  -0.8  0.0886737684841
-0.24  -0.78  0.109517614734
-0.24  -0.76  0.135261060199
-0.24  -0.74  0.167055815182
-0.24  -0.72  0.206324313479
-0.24  -0.7  0.254823349229
-0.24  -0.68  0.314722672365
-0.24  -0.66  0.388702058899
-0.24  -0.64  0.480071198737
-0.24  -0.62  0.592917764598
-0.24  -0.6  0.732290286318
-0.24  -0.58  0.904424011986
-0.24  -0.56  1.11701986048
-0.24  -0.54  1.37958894521
-0.24  -0.52  1.70387808227
-0.24  -0.5  2.10439531958
-0.24  -0.48  2.59905899791
-0.24  -0.46  3.20999938166
-0.24  -0.44  3.96454872265
-0.24  -0.42  4.89646405046
-0.24  -0.4  6.04743739443
-0.24  -0.38  7.4689610018
-0.24  -0.36  9.22463099787
-0.24  -0.34  11.3929925496
-0.24  -0.32  14.0710538195
-0.24  -0.3  17.3786259166
-0.24  -0.28  21.4636830065
-0.24  -0.26  26.5089823796
-0.24  -0.24  32.7402406468
-0.24  -0.22  40.4362318502
-0.24  -0.2  25.2424926269
-0.24  -0.18  23.551952294
-0.24  -0.16  21.7571152329
-0.24  -0.14  19.8852927632
-0.24  -0.12  17.9713611275
-0.24  -0.1  16.0615911329
-0.24  -0.08  14.2198706563
-0.24  -0.06  12.5369254436
-0.24  -0.04  11.1403325274
-0.24  -0.02  10.1931506968
-0.24  6.17561557e-16  9.85409686404
-0.24  0.02  10.1931506968
-0.24  0.04  11.1403325274
-0.24  0.06  12.5369254436
-0.24  0.08  14.2198706563
-0.24  0.1  16.0615911329
-0.24  0.12  17.9713611275
-0.24  0.14  19.8852927632
-0.24  0.16  21.7571152329
-0.24  0.18  23.551952294
-0.24  0.2  49.9412592558
-0.24  0.22  40.4362318502
-0.24  0.24  32.7402406468
-0.24  0.26  26.5089823796
-0.24  0.28  21.4636830065
-0.24  0.3  17.3786259166
-0.24  0.32  14.0710538195
-0.24  0.34  11.3929925496
-0.24  0.36  9.22463099787
-0.24  0.38  7.4689610018
-0.24  0.4  6.04743739443
-0.24  0.42  4.89646405046
-0.24  0.44  3.96454872265
-0.24  0.46  3.20999938166
-0.24  0.48  2.59905899791
-0.24  0.5  2.10439531958
-0.24  0.52  1.70387808227
-0.24  0.54  1.37958894521
-0.24  0.56  1.11701986048
-0.24  0.58  0.904424011986
-0.24  0.6  0.732290286318
-0.24  0.62  0.592917764598
-0.24  0.64  0.480071198737
-0.24  0.66  0.388702058899
-0.24  0.68  0.314722672365
-0.24  0.7  0.254823349229
-0.24  0.72  0.206324313479
-0.24  0.74  0.167055815182
-0.24  0.76  0.135261060199
-0.24  0.78  0.109517614734
-0.24  0.8  0.0886737684841
-0.24  0.82  0.0717970094243
-0.24  0.84  0.0581323050819
-0.24  0.86  0.047068323893
-0.24  0.88  0.0381100854503
-0.24  0.9  0.0308568160688
-0.24  0.92  0.0249840189716
-0.24  0.94  0.0202289569534
-0.24  0.96  0.0163788980423
-0.24  0.98  0.0132615982969
-0.22  -1  0.0124071292815
-0.22  -0.98  0.0153235757072
-0.22  -0.96  0.0189255682863
-0.22  -0.94  0.0233742529682
-0.22  -0.92  0.0288686550152
-0.22  -0.9  0.0356545829943
-0.22  -0.88  0.044035625762
-0.22  -0.86  0.0543867344222
-0.22  -0.84  0.0671709968901
-0.22  -0.82  0.0829603555196
-0.22  -0.8  0.102461194661
-0.22  -0.78  0.126545942886
-0.22  -0.76  0.156292103697
-0.22  -0.74  0.193030460881
-0.22  -0.72  0.23840461512
-0.22  -0.7  0.294444515394
-0.22  -0.68  0.363657274848
-0.22  -0.66  0.449139334019
-0.22  -0.64  0.554714989403
-0.22  -0.62  0.685107484829
-0.22  -0.6  0.846150319959
-0.22  -0.58  1.0450482294
-0.22  -0.56  1.29069950812
-0.22  -0.54  1.5940941034
-0.22  -0.52  1.96880528312
-0.22  -0.5  2.43159687661
-0.22  -0.48  3.00317325487
-0.22  -0.46  3.7091056028
-0.22  -0.44  4.58097592285
-0.22  -0.42  5.65778995075
-0.22  -0.4  6.9877221941
-0.22  -0.38  8.63027116364
-0.22  -0.36  10.6589212177
-0.22  -0.34  13.1644301055
-0.22  -0.32  16.2588892874
-0.22  -0.3  20.0807386831
-0.22  -0.28  24.8009601968
-0.22  -0.26  30.6307271056
-0.22  -0.24  37.8308515304
-0.22  -0.22  46.7234526488
-0.22  -0.2  29.1673174039
-0.22  -0.18  27.2139236879
-0.22  -0.16  25.1400166842
-0.22  -0.14  22.9771542084
-0.22  -0.12  20.7656352299
-0.22  -0.1  18.5589249646
-0.22  -0.08  16.4308448855
-0.22  -0.06  14.4862272156
-0.22  -0.04  12.8724852816
-0.22  -0.02  11.7780310413
-0.22  6.17561557e-16  11.3862594796
-0.22  0.02  11.7780310413
-0.22  0.04  12.8724852816
-0.22  0.06  14.4862272156
-0.22  0.08  16.4308448855
-0.22  0.1  18.5589249646
-0.22  0.12  20.7656352299
-0.22  0.14  22.9771542084
-0.22  0.16  25.1400166842
-0.22  0.18  27.2139236879
-0.22  0.2  57.7063676632
-0.22  0.22  46.7234526488
-0.22  0.24  37.8308515304
-0.22  0.26  30.6307271056
-0.22  0.28  24.8009601968
-0.22  0.3  20.0807386831
-0.22  0.32  16.2588892874
-0.22  0.34  13.1644301055
-0.22  0.36  10.6589212177
-0.22  0.38  8.63027116364
-0.22  0.4  6.9877221941
-0.22  0.42  5.65778995075
-0.22  0.44  4.58097592285
-0.22  0.46  3.7091056028
-0.22  0.48  3.00317325487
-0.22  0.5  2.43159687661
-0.22  0.52  1.96880528312
-0.22  0.54  1.5940941034
-0.22  0.56  1.29069950812
-0.22  0.58  1.0450482294
-0.22  0.6  0.846150319959
-0.22  0.62  0.685107484829
-0.22  0.64  0.554714989403
-0.22  0.66  0.449139334019
-0.22  0.68  0.363657274848
-0.22  0.7  0.294444515394
-0.22  0.72  0.23840461512
-0.22  0.74  0.193030460881
-0.22  0.76  0.156292103697
-0.22  0.78  0.126545942886
-0.22  0.8  0.102461194661
-0.22  0.82  0.0829603555196
-0.22  0.84  0.0671709968901
-0.22  0.86  0.0543867344222
-0.22  0.88  0.044035625762
-0.22  0.9  0.0356545829943
-0.22  0.92  0.0288686550152
-0.22  0.94  0.0233742529682
-0.22  0.96  0.0189255682863
-0.22  0.98  0.0153235757072
-0.2  -1  0.0143362497189
-0.2  -0.98  0.017706159333
-0.2  -0.96  0.0218682071304
-0.2  -0.94  0.0270085948119
-0.2  -0.92  0.0333572930493
-0.2  -0.9  0.0411983299141
-0.2  -0.88  0.0508824977256
-0.2  -0.86  0.0628430467981
-0.2  -0.84  0.0776150681942
-0.2  -0.82  0.0958594326298
-0.2  -0.8  0.118392356509
-0.2  -0.78  0.146221917814
-0.2  -0.76  0.180593155502
-0.2  -0.74  0.223043770057
-0.2  -0.72  0.275472917137
-0.2  -0.7  0.340226172006
-0.2  -0.68  0.420200465877
-0.2  -0.66  0.518973688832
-0.2  -0.64  0.640964757472
-0.2  -0.62  0.79163130841
-0.2  -0.6  0.977713862034
-0.2  -0.58  1.20753737991
-0.2  -0.56  1.49138370694
-0.2  -0.54  1.84195156052
-0.2  -0.52  2.27492464583
-0.2  -0.5  2.80967331343
-0.2  -0.48  3.47012115001
-0.2  -0.46  4.2858152719
-0.2  -0.44  5.29324820398
-0.2  -0.42  6.5374904823
-0.2  -0.4  8.07420701979
-0.2  -0.38  9.97214744328
-0.2  -0.36  12.3162218143
-0.2  -0.34  15.2112993357
-0.2  -0.32  18.78689999
-0.2  -0.3  23.2029890048
-0.2  -0.28  28.6571333771
-0.2  -0.26  35.3933406262
-0.2  -0.24  43.7129752024
-0.2  -0.22  53.9882409299
-0.2  -0.2  33.70239291
-0.2  -0.18  31.4452760962
-0.2  -0.16  29.0489080062
-0.2  -0.14  26.5497532173
-0.2  -0.12  23.9943765775
-0.2  -0.1  21.4445563328
-0.2  -0.08  18.9855920757
-0.2  -0.06  16.7386158502
-0.2  -0.04  14.8739615194
-0.2  -0.02  13.6093362432
-0.2  6.17561557e-16  13.1566501452
-0.2  0.02  13.6093362432
-0.2  0.04  14.8739615194
-0.2  0.06  16.7386158502
-0.2  0.08  18.9855920757
-0.2  0.1  21.4445563328
-0.2  0.12  23.9943765775
-0.2  0.14  26.5497532173
-0.2  0.16  29.0489080062
-0.2  0.18  31.4452760962
-0.2  0.2  66.6788326626
-0.2  0.22  53.9882409299
-0.2  0.24  43.7129752024
-0.2  0.26  35.3933406262
-0.2  0.28  28.6571333771
-0.2  0.3  23.2029890048
-0.2  0.32  18.78689999
-0.2  0.34  15.2112993357
-0.2  0.36  12.3162218143
-0.2  0.38  9.97214744328
-0.2  0.4  8.07420701979
-0.2  0.42  6.5374904823
-0.2  0.44  5.29324820398
-0.2  0.46  4.2858152719
-0.2  0.48  3.47012115001
-0.2  0.5  2.80967331343
-0.2  0.52  2.27492464583
-0.2  0.54  1.84195156052
-0.2  0.56  1.49138370694
-0.2  0.58  1.20753737991
-0.2  0.6  0.977713862034
-0.2  0.62  0.79163130841
-0.2  0.64  0.640964757472
-0.2  0.66  0.518973688832
-0.2  0.68  0.420200465877
-0.2  0.7  0.340226172006
-0.2  0.72  0.275472917137
-0.2  0.74  0.223043770057
-0.2  0.76  0.180593155502
-0.2  0.78  0.146221917814
-0.2  0.8  0.118392356509
-0.2  0.82  0.0958594326298
-0.2  0.84  0.0776150681942
-0.2  0.86  0.0628430467981
-0.2  0.88  0.0508824977256
-0.2  0.9  0.0411983299141
-0.2  0.92  0.0333572930493
-0.2  0.94  0.0270085948119
-0.2  0.96  0.0218682071304
-0.2  0.98  0.017706159333
-0.18  -1  0.0165653191272
-0.18  -0.98  0.0204591985785
-0.18  -0.96  0.025268381687
-0.18  -0.94  0.031208021694
-0.18  -0.92  0.0385438462233
-0.18  -0.9  0.0476040454038
-0.18  -0.88  0.0587939544402
-0.18  -0.86  0.0726141875003
-0.18  -0.84  0.0896830341917
-0.18  -0.82  0.110764120604
-0.18  -0.8  0.136800572413
-0.18  -0.78  0.168957208439
-0.18  -0.76  0.208672652315
-0.18  -0.74  0.257723693629
-0.18  -0.72  0.318304777942
-0.18  -0.7  0.393126181897
-0.18  -0.68  0.485535265579
-0.18  -0.66  0.599666226714
-0.18  -0.64  0.740625056416
-0.18  -0.62  0.914717971023
-0.18  -0.6  1.12973353962
-0.18  -0.58  1.39529112903
-0.18  -0.56  1.72327125511
-0.18  -0.54  2.12834709323
-0.18  -0.52  2.62864092685
-0.18  -0.5  3.24653490228
-0.18  -0.48  4.00967236113
-0.18  -0.46  4.9521945482
-0.18  -0.44  6.11626802253
-0.18  -0.42  7.553971105
-0.18  -0.4  9.32962375831
-0.18  -0.38  11.5226651336
-0.18  -0.36  14.2312075192
-0.18  -0.34  17.5764256885
-0.18  -0.32  21.7079780172
-0.18  -0.3  26.8107018995
-0.18  -0.28  33.1128830044
-0.18  -0.26  40.8964683198
-0.18  -0.24  50.5096798973
-0.18  -0.22  62.3825936112
-0.18  -0.2  38.9426038785
-0.18  -0.18  36.3345396315
-0.18  -0.16  33.5655726468
-0.18  -0.14  30.6778371902
-0.18  -0.12  27.7251382376
-0.18  -0.1  24.7788596154
-0.18  -0.08  21.9375637088
-0.18  -0.06  19.3412167578
-0.18  -0.04  17.1866369578
-0.18  -0.02  15.7253816304
-0.18  6.17561557e-16  15.2023097096
-0.18  0.02  15.7253816304
-0.18  0.04  17.1866369578
-0.18  0.06  19.3412167578
-0.18  0.08  21.9375637088
-0.18  0.1  24.7788596154
-0.18  0.12  27.7251382376
-0.18  0.14  30.6778371902
-0.18  0.16  33.5655726468
-0.18  0.18  36.3345396315
-0.18  0.2  77.0463798935
-0.18  0.22  62.3825936112
-0.18  0.24  50.5096798973
-0.18  0.26  40.8964683198
-0.18  0.28  33.1128830044
-0.18  0.3  26.8107018995
-0.18  0.32  21.7079780172
-0.18  0.34  17.5764256885
-0.18  0.36  14.2312075192
-0.18  0.38  11.5226651336
-0.18  0.4  9.32962375831
-0.18  0.42  7.553971105
-0.18  0.44  6.11626802253
-0.18  0.46  4.9521945482
-0.18  0.48  4.00967236113
-0.18  0.5  3.24653490228
-0.18  0.52  2.62864092685
-0.18  0.54  2.12834709323
-0.18  0.56  1.72327125511
-0.18  0.58  1.39529112903
-0.18  0.6  1.12973353962
-0.18  0.62  0.914717971023
-0.18  0.64  0.740625056416
-0.18  0.66  0.599666226714
-0.18  0.68  0.485535265579
-0.18  0.7  0.393126181897
-0.18  0.72  0.318304777942
-0.18  0.74  0.257723693629
-0.18  0.76  0.208672652315
-0.18  0.78  0.168957208439
-0.18  0.8  0.136800572413
-0.18  0.82  0.110764120604
-0.18  0.84  0.0896830341917
-0.18  0.86  0.0726141875003
-0.18  0.88  0.0587939544402
-0.18  0.9  0.0476040454038
-0.18  0.92  0.0385438462233
-0.18  0.94  0.031208021694
-0.18  0.96  0.025268381687
-0.18  0.98  0.0204591985785
-0.16  -1  0.0191409750226
-0.16  -0.98  0.0236402936741
-0.16  -0.96  0.0291972318201
-0.16  -0.94  0.036060395768
-0.16  -0.92  0.0445368297567
-0.16  -0.9  0.0550057525032
-0.16  -0.88  0.0679355226892
-0.16  -0.86  0.0839045923931
-0.16  -0.84  0.10362738588
-0.16  -0.82  0.127986261514
-0.16  -0.8  0.158070986711
-0.16  -0.78  0.195227491954
-0.16  -0.76  0.24111808503
-0.16  -0.74  0.297795819362
-0.16  -0.72  0.367796343516
-0.16  -0.7  0.454251341048
-0.16  -0.68  0.56102863577
-0.16  -0.66  0.692905230456
-0.16  -0.64  0.855781020402
-0.16  -0.62  1.05694274294
-0.16  -0.6  1.30538997154
-0.16  -0.58  1.61223773867
-0.16  -0.56  1.99121380022
-0.16  -0.54  2.4592727878
-0.16  -0.52  3.03735472513
-0.16  -0.5  3.75132184279
-0.16  -0.48  4.63311560278
-0.16  -0.46  5.72218569568
-0.16  -0.44  7.06725494099
-0.16  -0.42  8.72849904864
-0.16  -0.4  10.7802387601
-0.16  -0.38  13.3142648096
-0.16  -0.36  16.4439444585
-0.16  -0.34  20.3092933198
-0.16  -0.32  25.0832393766
-0.16  -0.3  30.979359435
-0.16  -0.28  38.2614341231
-0.16  -0.26  47.2552489095
-0.16  -0.24  58.3631690938
-0.16  -0.22  72.0821408261
-0.16  -0.2  44.9975881798
-0.16  -0.18  41.9840094962
-0.16  -0.16  38.7845101393
-0.16  -0.14  35.4477756145
-0.16  -0.12  32.0359767554
-0.16  -0.1  28.6315964905
-0.16  -0.08  25.3485221614
-0.16  -0.06  22.3484826356
-0.16  -0.04  19.8588983529
-0.16  -0.02  18.1704399835
-0.16  6.17561557e-16  17.5660383119
-0.16  0.02  18.1704399835
-0.16  0.04  19.8588983529
-0.16  0.06  22.3484826356
-0.16  0.08  25.3485221614
-0.16  0.1  28.6315964905
-0.16  0.12  32.0359767554
-0.16  0.14  35.4477756145
-0.16  0.16  38.7845101393
-0.16  0.18  41.9840094962
-0.16  0.2  89.0259234849
-0.16  0.22  72.0821408261
-0.16  0.24  58.3631690938
-0.16  0.26  47.2552489095
-0.16  0.28  38.2614341231
-0.16  0.3  30.979359435
-0.16  0.32  25.0832393766
-0.16  0.34  20.3092933198
-0.16  0.36  16.4439444585
-0.16  0.38  13.3142648096
-0.16  0.4  10.7802387601
-0.16  0.42  8.72849904864
-0.16  0.44  7.06725494099
-0.16  0.46  5.72218569568
-0.16  0.48  4.63311560278
-0.16  0.5  3.75132184279
-0.16  0.52  3.03735472513
-0.16  0.54  2.4592727878
-0.16  0.56  1.99121380022
-0.16  0.58  1.61223773867
-0.16  0.6  1.30538997154
-0.16  0.62  1.05694274294
-0.16  0.64  0.855781020401
-0.16  0.66  0.692905230456
-0.16  0.68  0.56102863577
-0.16  0.7  0.454251341048
-0.16  0.72  0.367796343516
-0.16  0.74  0.297795819362
-0.16  0.76  0.24111808503
-0.16  0.78  0.195227491954
-0.16  0.8  0.158070986711
-0.16  0.82  0.127986261514
-0.16  0.84  0.10362738588
-0.16  0.86  0.0839045923931
-0.16  0.88  0.0679355226892
-0.16  0.9  0.0550057525032
-0.16  0.92  0.0445368297567
-0.16  0.94  0.036060395768
-0.16  0.96  0.0291972318201
-0.16  0.98  0.0236402936741
-0.14  -1  0.0221171063474
-0.14  -0.98  0.0273160008128
-0.14  -0.96  0.0337369585643
-0.14  -0.94  0.0416672404195
-0.14  -0.92  0.0514616313403
-0.14  -0.9  0.0635583128026
-0.14  -0.88  0.0784984661603
-0.14  -0.86  0.0969504840169
-0.14  -0.84  0.119739872776
-0.14  -0.82  0.147886184145
-0.14  -0.8  0.182648627848
-0.14  -0.78  0.225582406141
-0.14  -0.76  0.278608290466
-0.14  -0.74  0.344098552915
-0.14  -0.72  0.42498309695
-0.14  -0.7  0.524880535426
-0.14  -0.68  0.648260080097
-0.14  -0.66  0.800641485222
-0.14  -0.64  0.988841990337
-0.14  -0.62  1.22128130993
-0.14  -0.6  1.50835831462
-0.14  -0.58  1.86291625591
-0.14  -0.56  2.30081734749
-0.14  -0.54  2.84165240909
-0.14  -0.52  3.5096173205
-0.14  -0.5  4.33459549696
-0.14  -0.48  5.35349481338
-0.14  -0.46  6.61189878895
-0.14  -0.44  8.16610590264
-0.14  -0.42  10.0856482747
-0.14  -0.4  12.4564023946
-0.14  -0.38  15.384431064
-0.14  -0.36  19.0007284337
-0.14  -0.34  23.4670804212
-0.14  -0.32  28.9833026884
-0.14  -0.3  35.7961799955
-0.14  -0.28  44.210506858
-0.14  -0.26  54.6027234439
-0.14  -0.24  67.4377567546
-0.14  -0.22  83.28982053
-0.14  -0.2  51.9940307103
-0.14  -0.18  48.5118862452
-0.14  -0.16  44.8149132619
-0.14  -0.14  40.9593671232
-0.14  -0.12  37.0170852847
-0.14  -0.1  33.0833755192
-0.14  -0.08  29.289832923
-0.14  -0.06  25.8233327493
-0.14  -0.04  22.9466558676
-0.14  -0.02  20.9956678288
-0.14  6.17561557e-16  20.2972908636
-0.14  0.02  20.9956678288
-0.14  0.04  22.9466558676
-0.14  0.06  25.8233327493
-0.14  0.08  29.289832923
-0.14  0.1  33.0833755192
-0.14  0.12  37.0170852847
-0.14  0.14  40.9593671232
-0.14  0.16  44.8149132619
-0.14  0.18  48.5118862452
-0.14  0.2  102.868104424
-0.14  0.22  83.28982053
-0.14  0.24  67.4377567546
-0.14  0.26  54.6027234439
-0.14  0.28  44.210506858
-0.14  0.3  35.7961799955
-0.14  0.32  28.9833026884
-0.14  0.34  23.4670804212
-0.14  0.36  19.0007284337
-0.14  0.38  15.384431064
-0.14  0.4  12.4564023946
-0.14  0.42  10.0856482747
-0.14  0.44  8.16610590264
-0.14  0.46  6.61189878895
-0.14  0.48  5.35349481338
-0.14  0.5  4.33459549696
-0.14  0.52  3.5096173205
-0.14  0.54  2.84165240909
-0.14  0.56  2.30081734749
-0.14  0.58  1.86291625591
-0.14  0.6  1.50835831462
-0.14  0.62  1.22128130993
-0.14  0.64  0.988841990337
-0.14  0.66  0.800641485222
-0.14  0.68  0.648260080097
-0.14  0.7  0.524880535426
-0.14  0.72  0.42498309695
-0.14  0.74  0.344098552915
-0.14  0.76  0.278608290466
-0.14  0.78  0.225582406141
-0.14  0.8  0.182648627848
-0.14  0.82  0.147886184145
-0.14  0.84  0.119739872776
-0.14  0.86  0.0969504840169
-0.14  0.88  0.0784984661603
-0.14  0.9  0.0635583128026
-0.14  0.92  0.0514616313403
-0.14  0.94  0.0416672404195
-0.14  0.96  0.0337369585643
-0.14  0.98  0.0273160008128
-0.12  -1  0.0255559809574
-0.12  -0.98  0.0315632246659
-0.12  -0.96  0.0389825439678
-0.12  -0.94  0.0481458643812
-0.12  -0.92  0.0594631345489
-0.12  -0.9  0.0734406665209
-0.12  -0.88  0.0907037871439
-0.12  -0.86  0.112024813935
-0.12  -0.84  0.138357607023
-0.12  -0.82  0.170880242945
-0.12  -0.8  0.211047719437
-0.12  -0.78  0.260657049124
-0.12  -0.76  0.321927654272
-0.12  -0.74  0.39760065931
-0.12  -0.72  0.491061523251
-0.12  -0.7  0.606491498369
-0.12  -0.68  0.749054691069
-0.12  -0.66  0.925129093681
-0.12  -0.64  1.1425919231
-0.12  -0.62  1.41117203172
-0.12  -0.6  1.74288515685
-0.12  -0.58  2.1525714808
-0.12  -0.56  2.65855955093
-0.12  -0.54  3.28348626233
-0.12  -0.52  4.05530958714
-0.12  -0.5  5.00855935845
-0.12  -0.48  6.185882066
-0.12  -0.46  7.63994877487
-0.12  -0.44  9.4358115237
-0.12  -0.42  11.6538136229
-0.12  -0.4  14.3931840538
-0.12  -0.38  17.7764767748
-0.12  -0.36  21.955053541
-0.12  -0.34  27.115855526
-0.12  -0.32  33.489766697
-0.12  -0.3  41.3619431016
-0.12  -0.28  51.0845701799
-0.12  -0.26  63.0926188369
-0.12  -0.24  77.9233051719
-0.12  -0.22  96.2401244528
-0.12  -0.2  60.0783139466
-0.12  -0.18  56.0547488272
-0.12  -0.16  51.7829526131
-0.12  -0.14  47.3279275229
-0.12  -0.12  42.7726806469
-0.12  -0.1  38.2273386715
-0.12  -0.08  33.8439577342
-0.12  -0.06  29.8384693563
-0.12  -0.04  26.5145128471
-0.12  -0.02  24.2601757568
-0.12  6.17561557e-16  23.4532117651
-0.12  0.02  24.2601757568
-0.12  0.04  26.5145128471
-0.12  0.06  29.8384693563
-0.12  0.08  33.8439577342
-0.12  0.1  38.2273386715
-0.12  0.12  42.7726806469
-0.12  0.14  47.3279275229
-0.12  0.16  51.7829526131
-0.12  0.18  56.0547488272
-0.12  0.2  118.862534568
-0.12  0.22  96.2401244528
-0.12  0.24  77.9233051719
-0.12  0.26  63.0926188369
-0.12  0.28  51.0845701799
-0.12  0.3  41.3619431016
-0.12  0.32  33.489766697
-0.12  0.34  27.115855526
-0.12  0.36  21.955053541
-0.12  0.38  17.7764767748
-0.12  0.4  14.3931840538
-0.12  0.42  11.6538136229
-0.12  0.44  9.4358115237
-0.12  0.46  7.63994877487
-0.12  0.48  6.185882066
-0.12  0.5  5.00855935845
-0.12  0.52  4.05530958714
-0.12  0.54  3.28348626233
-0.12  0.56  2.65855955093
-0.12  0.58  2.1525714808
-0.12  0.6  1.74288515685
-0.12  0.62  1.41117203172
-0.12  0.64  1.1425919231
-0.12  0.66  0.925129093681
-0.12  0.68  0.749054691069
-0.12  0.7  0.606491498369
-0.12  0.72  0.491061523251
-0.12  0.74  0.39760065931
-0.12  0.76  0.321927654272
-0.12  0.78  0.260657049124
-0.12  0.8  0.211047719437
-0.12  0.82  0.170880242945
-0.12  0.84  0.138357607023
-0.12  0.86  0.112024813935
-0.12  0.88  0.0907037871439
-0.12  0.9  0.0734406665209
-0.12  0.92  0.0594631345489
-0.12  0.94  0.0481458643812
-0.12  0.96  0.0389825439678
-0.12  0.98  0.0315632246659
-0.1  -1  0.0295295484154
-0.1  -0.98  0.036470827415
-0.1  -0.96  0.0450437383473
-0.1  -0.94  0.0556318161145
-0.1  -0.92  0.068708750156
-0.1  -0.9  0.084859576367
-0.1  -0.88  0.104806850435
-0.1  -0.86  0.129442973538
-0.1  -0.84  0.159870116589
-0.1  -0.82  0.197449529161
-0.1  -0.8  0.243862439069
-0.1  -0.78  0.301185267149
-0.1  -0.76  0.371982522171
-0.1  -0.74  0.459421531838
-0.1  -0.72  0.567414142699
-0.1  -0.7  0.700791728343
-0.1  -0.68  0.8655213354
-0.1  -0.66  1.06897263728
-0.1  -0.64  1.32024763864
-0.1  -0.62  1.63058788088
-0.1  -0.6  2.01387736623
-0.1  -0.58  2.48726370026
-0.1  -0.56  3.07192524151
-0.1  -0.54  3.79401857891
-0.1  -0.52  4.68584872529
-0.1  -0.5  5.7873143791
-0.1  -0.48  7.14769291245
-0.1  -0.46  8.82784494224
-0.1  -0.44  10.9029371125
-0.1  -0.42  13.4658049
-0.1  -0.4  16.6311058877
-0.1  -0.38  20.540449316
-0.1  -0.36  25.3687313972
-0.1  -0.34  31.3319598224
-0.1  -0.32  38.696917514
-0.1  -0.3  47.7930979605
-0.1  -0.28  59.0274460965
-0.1  -0.26  72.9025642062
-0.1  -0.24  90.0391973448
-0.1  -0.22  111.204004232
-0.1  -0.2  69.4195806202
-0.1  -0.18  64.770412146
-0.1  -0.16  59.8344164065
-0.1  -0.14  54.6867024795
-0.1  -0.12  49.423183799
-0.1  -0.1  44.1711100807
-0.1  -0.08  39.1061798859
-0.1  -0.06  34.4778988123
-0.1  -0.04  30.6371174769
-0.1  -0.02  28.0322651583
-0.1  6.17561557e-16  27.0998305042
-0.1  0.02  28.0322651583
-0.1  0.04  30.6371174769
-0.1  0.06  34.4778988123
-0.1  0.08  39.1061798859
-0.1  0.1  44.1711100807
-0.1  0.12  49.423183799
-0.1  0.14  54.6867024795
-0.1  0.16  59.8344164065
-0.1  0.18  64.770412146
-0.1  0.2  137.34385603
-0.1  0.22  111.204004232
-0.1  0.24  90.0391973448
-0.1  0.26  72.9025642062
-0.1  0.28  59.0274460965
-0.1  0.3  47.7930979605
-0.1  0.32  38.696917514
-0.1  0.34  31.3319598224
-0.1  0.36  25.3687313972
-0.1  0.38  20.540449316
-0.1  0.4  16.6311058877
-0.1  0.42  13.4658049
-0.1  0.44  10.9029371125
-0.1  0.46  8.82784494224
-0.1  0.48  7.14769291245
-0.1  0.5  5.7873143791
-0.1  0.52  4.68584872529
-0.1  0.54  3.79401857891
-0.1  0.56  3.07192524151
-0.1  0.58  2.48726370026
-0.1  0.6  2.01387736623
-0.1  0.62  1.63058788088
-0.1  0.64  1.32024763864
-0.1  0.66  1.06897263728
-0.1  0.68  0.8655213354
-0.1  0.7  0.700791728343
-0.1  0.72  0.567414142699
-0.1  0.74  0.459421531838
-0.1  0.76  0.371982522171
-0.1  0.78  0.301185267149
-0.1  0.8  0.243862439069
-0.1  0.82  0.197449529161
-0.1  0.84  0.159870116589
-0.1  0.86  0.129442973538
-0.1  0.88  0.104806850435
-0.1  0.9  0.084859576367
-0.1  0.92  0.068708750156
-0.1  0.94  0.0556318161145
-0.1  0.96  0.0450437383473
-0.1  0.98  0.036470827415
-0.08  -1  0.0341209453502
-0.08  -0.98  0.0421414879631
-0.08  -0.96  0.0520473565289
-0.08  -0.94  0.0642817198106
-0.08  -0.92  0.0793919187714
-0.08  -0.9  0.0980539535155
-0.08  -0.88  0.121102726182
-0.08  -0.86  0.149569392797
-0.08  -0.84  0.184727495136
-0.08  -0.82  0.228149936434
-0.08  -0.8  0.281779349937
-0.08  -0.78  0.348015008428
-0.08  -0.76  0.429820162898
-0.08  -0.74  0.530854612473
-0.08  -0.72  0.655638436511
-0.08  -0.7  0.809754213924
-0.08  -0.68  1.0000967766
-0.08  -0.66  1.23518167039
-0.08  -0.64  1.52552612364
-0.08  -0.62  1.88411956694
-0.08  -0.6  2.3270047543
-0.08  -0.58  2.87399548392
-0.08  -0.56  3.54956302788
-0.08  -0.54  4.38393092801
-0.08  -0.52  5.4144271367
-0.08  -0.5  6.6871539949
-0.08  -0.48  8.25905075874
-0.08  -0.46  10.2004409481
-0.08  -0.44  12.5981784801
-0.08  -0.42  15.5595333402
-0.08  -0.4  19.2169906267
-0.08  -0.38  23.7341776691
-0.08  -0.36  29.3131843884
-0.08  -0.34  36.2036043957
-0.08  -0.32  44.7137013117
-0.08  -0.3  55.2241998653
-0.08  -0.28  68.2053187569
-0.08  -0.26  84.2378073033
-0.08  -0.24  104.038927001
-0.08  -0.22  128.494540375
-0.08  -0.2  80.2132725924
-0.08  -0.18  74.8412289295
-0.08  -0.16  69.1377607116
-0.08  -0.14  63.189655339
-0.08  -0.12  57.1077393299
-0.08  -0.1  51.0390478012
-0.08  -0.08  45.1865977756
-0.08  -0.06  39.8386891873
-0.08  -0.04  35.4007246034
-0.08  -0.02  32.3908572543
-0.08  6.17561557e-16  31.3134431528
-0.08  0.02  32.3908572543
-0.08  0.04  35.4007246034
-0.08  0.06  39.8386891873
-0.08  0.08  45.1865977756
-0.08  0.1  51.0390478012
-0.08  0.12  57.1077393299
-0.08  0.14  63.189655339
-0.08  0.16  69.1377607116
-0.08  0.18  74.8412289295
-0.08  0.2  158.698742692
-0.08  0.22  128.494540375
-0.08  0.24  104.038927001
-0.08  0.26  84.2378073033
-0.08  0.28  68.2053187569
-0.08  0.3  55.2241998653
-0.08  0.32  44.7137013117
-0.08  0.34  36.2036043957
-0.08  0.36  29.3131843884
-0.08  0.38  23.7341776691
-0.08  0.4  19.2169906267
-0.08  0.42  15.5595333402
-0.08  0.44  12.5981784801
-0.08  0.46  10.2004409481
-0.08  0.48  8.25905075874
-0.08  0.5  6.6871539949
-0.08  0.52  5.4144271367
-0.08  0.54  4.38393092801
-0.08  0.56  3.54956302788
-0.08  0.58  2.87399548392
-0.08  0.6  2.3270047543
-0.08  0.62  1.88411956694
-0.08  0.64  1.52552612364
-0.08  0.66  1.23518167039
-0.08  0.68  1.0000967766
-0.08  0.7  0.809754213924
-0.08  0.72  0.655638436511
-0.08  0.74  0.530854612473
-0.08  0.76  0.429820162898
-0.08  0.78  0.348015008428
-0.08  0.8  0.281779349937
-0.08  0.82  0.228149936434
-0.08  0.84  0.184727495136
-0.08  0.86  0.149569392797
-0.08  0.88  0.121102726182
-0.08  0.9  0.0980539535155
-0.08  0.92  0.0793919187714
-0.08  0.94  0.0642817198106
-0.08  0.96  0.0520473565289
-0.08  0.98  0.0421414879631
-0.06  -1  0.0394262348754
-0.06  -0.98  0.0486938502255
-0.06  -0.96  0.0601399311213
-0.06  -0.94  0.0742765523475
-0.06  -0.92  0.0917361580861
-0.06  -0.9  0.113299856205
-0.06  -0.88  0.139932363465
-0.06  -0.86  0.172825165014
-0.06  -0.84  0.21344981906
-0.06  -0.82  0.263623791438
-0.06  -0.8  0.325591765399
-0.06  -0.78  0.402126064259
-0.06  -0.76  0.496650679596
-0.06  -0.74  0.613394453795
-0.06  -0.72  0.757580270005
-0.06  -0.7  0.935658713493
-0.06  -0.68  1.15559665793
-0.06  -0.66  1.42723368742
-0.06  -0.64  1.7627222998
-0.06  -0.62  2.17707158512
-0.06  -0.6  2.68881870234
-0.06  -0.58  3.32085819478
-0.06  -0.56  4.1014662462
-0.06  -0.54  5.06556570082
-0.06  -0.52  6.2562884415
-0.06  -0.5  7.72690502403
-0.06  -0.48  9.54320789533
-0.06  -0.46  11.786454816
-0.06  -0.44  14.5570041703
-0.06  -0.42  17.9788047994
-0.06  -0.4  22.2049412251
-0.06  -0.38  27.4244823452
-0.06  -0.36  33.8709399984
-0.06  -0.34  41.832715817
-0.06  -0.32  51.6660037397
-0.06  -0.3  63.8107254166
-0.06  -0.28  78.8102114248
-0.06  -0.26  97.3355087921
-0.06  -0.24  120.2154023
-0.06  -0.22  148.473492661
-0.06  -0.2  92.6852199696
-0.06  -0.18  86.4779049893
-0.06  -0.16  79.887633962
-0.06  -0.14  73.0146884127
-0.06  -0.12  65.9871267023
-0.06  -0.1  58.9748456784
-0.06  -0.08  52.2124284318
-0.06  -0.06  46.0330011642
-0.06  -0.04  40.9050003934
-0.06  -0.02  37.4271443191
-0.06  6.17561557e-16  36.1822086647
-0.06  0.02  37.4271443191
-0.06  0.04  40.9050003934
-0.06  0.06  46.0330011642
-0.06  0.08  52.2124284318
-0.06  0.1  58.9748456784
-0.06  0.12  65.9871267023
-0.06  0.14  73.0146884127
-0.06  0.16  79.887633962
-0.06  0.18  86.4779049893
-0.06  0.2  183.373990362
-0.06  0.22  148.473492661
-0.06  0.24  120.2154023
-0.06  0.26  97.3355087921
-0.06  0.28  78.8102114248
-0.06  0.3  63.8107254166
-0.06  0.32  51.6660037397
-0.06  0.34  41.832715817
-0.06  0.36  33.8709399984
-0.06  0.38  27.4244823452
-0.06  0.4  22.2049412251
-0.06  0.42  17.9788047994
-0.06  0.44  14.5570041703
-0.06  0.46  11.786454816
-0.06  0.48  9.54320789533
-0.06  0.5  7.72690502403
-0.06  0.52  6.2562884415
-0.06  0.54  5.06556570082
-0.06  0.56  4.1014662462
-0.06  0.58  3.32085819478
-0.06  0.6  2.68881870234
-0.06  0.62  2.17707158512
-0.06  0.64  1.7627222998
-0.06  0.66  1.42723368742
-0.06  0.68  1.15559665793
-0.06  0.7  0.935658713493
-0.06  0.72  0.757580270005
-0.06  0.74  0.613394453795
-0.06  0.76  0.496650679596
-0.06  0.78  0.402126064259
-0.06  0.8  0.325591765399
-0.06  0.82  0.263623791438
-0.06  0.84  0.21344981906
-0.06  0.86  0.172825165014
-0.06  0.88  0.139932363465
-0.06  0.9  0.113299856205
-0.06  0.92  0.0917361580861
-0.06  0.94  0.0742765523475
-0.06  0.96  0.0601399311213
-0.06  0.98  0.0486938502255
-0.04  -1  0.045556416462
-0.04  -0.98  0.0562650054467
-0.04  -0.96  0.0694907783311
-0.04  -0.94  0.0858254297626
-0.04  -0.92  0.105999739402
-0.04  -0.9  0.130916265545
-0.04  -0.88  0.161689723775
-0.04  -0.86  0.199696857115
-0.04  -0.84  0.246638028754
-0.04  -0.82  0.3046132929
-0.04  -0.8  0.376216347009
-0.04  -0.78  0.464650568625
-0.04  -0.76  0.573872328091
-0.04  -0.74  0.708767988647
-0.04  -0.72  0.875372512562
-0.04  -0.7  1.08113945328
-0.04  -0.68  1.33527441251
-0.04  -0.66  1.64914688045
-0.04  -0.64  2.03679888405
-0.04  -0.62  2.51557319924
-0.04  -0.6  3.10688923205
-0.04  -0.58  3.83720128008
-0.04  -0.56  4.73918204483
-0.04  -0.54  5.85318434315
-0.04  -0.52  7.22904641156
-0.04  -0.5  8.92832156937
-0.04  -0.48  11.0270319912
-0.04  -0.46  13.6190697871
-0.04  -0.44  16.8203975479
-0.04  -0.42  20.77423628
-0.04  -0.4  25.6574728264
-0.04  -0.38  31.6885734314
-0.04  -0.36  39.137357483
-0.04  -0.34  48.3370686934
-0.04  -0.32  59.6992837569
-0.04  -0.3  73.7323254683
-0.04  -0.28  91.0640040692
-0.04  -0.26  112.469704223
-0.04  -0.24  138.907074177
-0.04  -0.22  171.558869027
-0.04  -0.2  107.096366015
-0.04  -0.18  99.9239076951
-0.04  -0.16  92.3089494708
-0.04  -0.14  84.3673651233
-0.04  -0.12  76.2471241466
-0.04  -0.1  68.1445397715
-0.04  -0.08  60.3306692015
-0.04  -0.06  53.1904347108
-0.04  -0.04  47.2651075912
-0.04  -0.02  43.2464976423
-0.04  6.17561557e-16  41.8079933743
-0.04  0.02  43.2464976423
-0.04  0.04  47.2651075912
-0.04  0.06  53.1904347108
-0.04  0.08  60.3306692015
-0.04  0.1  68.1445397715
-0.04  0.12  76.2471241466
-0.04  0.14  84.3673651233
-0.04  0.16  92.3089494708
-0.04  0.18  99.9239076951
-0.04  0.2  211.885864822
-0.04  0.22  171.558869027
-0.04  0.24  138.907074177
-0.04  0.26  112.469704223
-0.04  0.28  91.0640040692
-0.04  0.3  73.7323254683
-0.04  0.32  59.6992837569
-0.04  0.34  48.3370686934
-0.04  0.36  39.137357483
-0.04  0.38  31.6885734314
-0.04  0.4  25.6574728264
-0.04  0.42  20.77423628
-0.04  0.44  16.8203975479
-0.04  0.46  13.6190697871
-0.04  0.48  11.0270319912
-0.04  0.5  8.92832156937
-0.04  0.52  7.22904641156
-0.04  0.54  5.85318434315
-0.04  0.56  4.73918204483
-0.04  0.58  3.83720128008
-0.04  0.6  3.10688923205
-0.04  0.62  2.51557319924
-0.04  0.64  2.03679888405
-0.04  0.66  1.64914688045
-0.04  0.68  1.33527441251
-0.04  0.7  1.08113945328
-0.04  0.72  0.875372512562
-0.04  0.74  0.708767988647
-0.04  0.76  0.573872328091
-0.04  0.78  0.464650568625
-0.04  0.8  0.376216347009
-0.04  0.82  0.3046132929
-0.04  0.84  0.246638028754
-0.04  0.86  0.199696857115
-0.04  0.88  0.161689723775
-0.04  0.9  0.130916265545
-0.04  0.92  0.105999739402
-0.04  0.94  0.0858254297626
-0.04  0.96  0.0694907783311
-0.04  0.98  0.0562650054467
-0.02  -1  0.0526397483153
-0.02  -0.98  0.0650133604811
-0.02  -0.96  0.0802955404675
-0.02  -0.94  0.099169982466
-0.02  -0.92  0.122481091292
-0.02  -0.9  0.151271759367
-0.02  -0.88  0.186830023643
-0.02  -0.86  0.230746689803
-0.02  -0.84  0.284986501724
-0.02  -0.82  0.351976040194
-0.02  -0.8  0.434712283288
-0.02  -0.78  0.536896685177
-0.02  -0.76  0.663100771787
-0.02  -0.74  0.818970661738
-0.02  -0.72  1.01147966241
-0.02  -0.7  1.24924024175
-0.02  -0.68  1.54288933295
-0.02  -0.66  1.90556420948
-0.02  -0.64  2.35349022052
-0.02  -0.62  2.90670668065
-0.02  -0.6  3.58996338869
-0.02  -0.58  4.4338278843
-0.02  -0.56  5.47605297858
-0.02  -0.54  6.76326573938
-0.02  -0.52  8.35305349316
-0.02  -0.5  10.3165401669
-0.02  -0.48  12.7415682303
-0.02  -0.46  15.7366285928
-0.02  -0.44  19.4357142692
-0.02  -0.42  24.0043149603
-0.02  -0.4  29.6468207308
-0.02  -0.38  36.6156660125
-0.02  -0.36  45.2226230161
-0.02  -0.34  55.8527497974
-0.02  -0.32  68.9816169844
-0.02  -0.3  85.1965838575
-0.02  -0.28  105.223075629
-0.02  -0.26  129.957037519
-0.02  -0.24  160.505017553
-0.02  -0.22  198.233671306
-0.02  -0.2  123.748226712
-0.02  -0.18  115.4605599
-0.02  -0.16  106.66159116
-0.02  -0.14  97.4852108883
-0.02  -0.12  88.1023955909
-0.02  -0.1  78.7399822289
-0.02  -0.08  69.7111732901
-0.02  -0.06  61.4607406245
-0.02  -0.04  54.6141150011
-0.02  -0.02  49.9706721512
-0.02  6.17561557e-16  48.3085022859
-0.02  0.02  49.9706721512
-0.02  0.04  54.6141150011
-0.02  0.06  61.4607406245
-0.02  0.08  69.7111732901
-0.02  0.1  78.7399822289
-0.02  0.12  88.1023955909
-0.02  0.14  97.4852108883
-0.02  0.16  106.66159116
-0.02  0.18  115.4605599
-0.02  0.2  244.83090335
-0.02  0.22  198.233671306
-0.02  0.24  160.505017553
-0.02  0.26  129.957037519
-0.02  0.28  105.223075629
-0.02  0.3  85.1965838575
-0.02  0.32  68.9816169844
-0.02  0.34  55.8527497974
-0.02  0.36  45.2226230161
-0.02  0.38  36.6156660125
-0.02  0.4  29.6468207308
-0.02  0.42  24.0043149603
-0.02  0.44  19.4357142692
-0.02  0.46  15.7366285928
-0.02  0.48  12.7415682303
-0.02  0.5  10.3165401669
-0.02  0.52  8.35305349316
-0.02  0.54  6.76326573938
-0.02  0.56  5.47605297858
-0.02  0.58  4.4338278843
-0.02  0.6  3.58996338869
-0.02  0.62  2.90670668065
-0.02  0.64  2.35349022052
-0.02  0.66  1.90556420948
-0.02  0.68  1.54288933295
-0.02  0.7  1.24924024175
-0.02  0.72  1.01147966241
-0.02  0.74  0.818970661738
-0.02  0.76  0.663100771787
-0.02  0.78  0.536896685177
-0.02  0.8  0.434712283288
-0.02  0.82  0.351976040194
-0.02  0.84  0.284986501724
-0.02  0.86  0.230746689803
-0.02  0.88  0.186830023643
-0.02  0.9  0.151271759367
-0.02  0.92  0.122481091292
-0.02  0.94  0.099169982466
-0.02  0.96  0.0802955404675
-0.02  0.98  0.0650133604811
2.8449465e-16  -1  0.0559783111468
2.8449465e-16  -0.98  0.069136693054
2.8449465e-16  -0.96  0.0853881124407
2.8449465e-16  -0.94  0.105459625332
2.8449465e-16  -0.92  0.130249191103
2.8449465e-16  -0.9  0.160865845384
2.8449465e-16  -0.88  0.198679316102
2.8449465e-16  -0.86  0.245381302367
2.8449465e-16  -0.84  0.303061157713
2.8449465e-16  -0.82  0.374299363595
2.8449465e-16  -0.8  0.462282974978
2.8449465e-16  -0.78  0.570948202801
2.8449465e-16  -0.76  0.705156512194
2.8449465e-16  -0.74  0.870912114707
2.8449465e-16  -0.72  1.07563058474
2.8449465e-16  -0.7  1.32847061751
2.8449465e-16  -0.68  1.6407437708
2.8449465e-16  -0.66  2.02642052142
2.8449465e-16  -0.64  2.50275527642
2.8449465e-16  -0.62  3.0910583008
2.8449465e-16  -0.6  3.81764909616
2.8449465e-16  -0.58  4.71503388262
2.8449465e-16  -0.56  5.82335986212
2.8449465e-16  -0.54  7.19221132404
2.8449465e-16  -0.52  8.88282794716
2.8449465e-16  -0.5  10.9708445405
2.8449465e-16  -0.48  13.5496747937
2.8449465e-16  -0.46  16.7346904186
2.8449465e-16  -0.44  20.6683826489
2.8449465e-16  -0.42  25.5267370138
2.8449465e-16  -0.4  31.5271065782
2.8449465e-16  -0.38  38.9379358849
2.8449465e-16  -0.36  48.0907706266
2.8449465e-16  -0.34  59.3950903382
2.8449465e-16  -0.32  73.356627692
2.8449465e-16  -0.3  90.5999939676
2.8449465e-16  -0.28  111.896622912
2.8449465e-16  -0.26  138.199283143
2.8449465e-16  -0.24  170.684703114
2.8449465e-16  -0.22  210.806215594
2.8449465e-16  -0.2  90.559933071
2.8449465e-16  -0.18  86.1649943149
2.8449465e-16  -0.16  81.6008288372
2.8449465e-16  -0.14  76.9724905433
2.8449465e-16  -0.12  72.4054279595
2.8449465e-16  -0.1  68.0482810962
2.8449465e-16  -0.08  64.0738053565
2.8449465e-16  -0.06  60.6750312262
2.8449465e-16  -0.04  58.052599685
2.8449465e-16  -0.02  56.3900992844
2.8449465e-16  6.17561557e-16  55.8197417467
2.8449465e-16  0.02  56.3900992844
2.8449465e-16  0.04  58.052599685
2.8449465e-16  0.06  60.6750312262
2.8449465e-16  0.08  64.0738053565
2.8449465e-16  0.1  68.0482810962
2.8449465e-16  0.12  72.4054279595
2.8449465e-16  0.14  76.9724905433
2.8449465e-16  0.16  81.6008288372
2.8449465e-16  0.18  86.1649943149
2.8449465e-16  0.2  260.358776869
2.8449465e-16  0.22  210.806215594
2.8449465e-16  0.24  170.684703114
2.8449465e-16  0.26  138.199283143
2.8449465e-16  0.28  111.896622912
2.8449465e-16  0.3  90.5999939676
2.8449465e-16  0.32  73.356627692
2.8449465e-16  0.34  59.3950903382
2.8449465e-16  0.36  48.0907706266
2.8449465e-16  0.38  38.9379358849
2.8449465e-16  0.4  31.5271065782
2.8449465e-16  0.42  25.5267370138
2.8449465e-16  0.44  20.6683826489
2.8449465e-16  0.46  16.7346904186
2.8449465e-16  0.48  13.5496747937
2.8449465e-16  0.5  10.9708445405
2.8449465e-16  0.52  8.88282794716
2.8449465e-16  0.54  7.19221132404
2.8449465e-16  0.56  5.82335986212
2.8449465e-16  0.58  4.71503388262
2.8449465e-16  0.6  3.81764909616
2.8449465e-16  0.62  3.0910583008
2.8449465e-16  0.64  2.50275527642
2.8449465e-16  0.66  2.02642052142
2.8449465e-16  0.68  1.6407437708
2.8449465e-16  0.7  1.32847061751
2.8449465e-16  0.72  1.07563058474
2.8449465e-16  0.74  0.870912114707
2.8449465e-16  0.76  0.705156512194
2.8449465e-16  0.78  0.570948202801
2.8449465e-16  0.8  0.462282974978
2.8449465e-16  0.82  0.374299363595
2.8449465e-16  0.84  0.303061157713
2.8449465e-16  0.86  0.245381302367
2.8449465e-16  0.88  0.198679316102
2.8449465e-16  0.9  0.160865845384
2.8449465e-16  0.92  0.130249191103
2.8449465e-16  0.94  0.105459625332
2.8449465e-16  0.96  0.0853881124407
2.8449465e-16  0.98  0.069136693054
0.02  -1  0.0530237826645
0.02  -0.98  0.0654876667684
0.02  -0.96  0.0808813382081
0.02  -0.94  0.0998934790803
0.02  -0.92  0.123374654572
0.02  -0.9  0.152375365549
0.02  -0.88  0.188193045862
0.02  -0.86  0.232430106949
0.02  -0.84  0.287065626515
0.02  -0.82  0.354543888519
0.02  -0.8  0.437883735549
0.02  -0.78  0.54081362581
0.02  -0.76  0.667938436888
0.02  -0.74  0.824945478776
0.02  -0.72  1.01885893275
0.02  -0.7  1.25835409922
0.02  -0.68  1.5541455133
0.02  -0.66  1.91946629173
0.02  -0.64  2.37066015606
0.02  -0.62  2.92791261806
0.02  -0.6  3.61615403925
0.02  -0.58  4.46617496537
0.02  -0.56  5.51600363392
0.02  -0.54  6.81260728146
0.02  -0.52  8.41399336398
0.02  -0.5  10.3918046945
0.02  -0.48  12.8345245992
0.02  -0.46  15.8514354852
0.02  -0.44  19.577507916
0.02  -0.42  24.179438926
0.02  -0.4  29.8631097115
0.02  -0.38  36.882796345
0.02  -0.36  45.5525455776
0.02  -0.34  56.260224664
0.02  -0.32  69.4848737673
0.02  -0.3  85.8181372593
0.02  -0.28  105.990732707
0.02  -0.26  130.905141717
0.02  -0.24  161.675985157
0.02  -0.22  199.679889068
0.02  -0.2  90.3090021503
0.02  -0.18  85.6193520012
0.02  -0.16  80.729790037
0.02  -0.14  75.7474936503
0.02  -0.12  70.802529815
0.02  -0.1  66.052455159
0.02  -0.08  61.6856850314
0.02  -0.06  57.9201017112
0.02  -0.04  54.9909272274
0.02  -0.02  53.1215380453
0.02  6.17561557e-16  52.4777501788
0.02  0.02  53.1215380453
0.02  0.04  54.9909272274
0.02  0.06  57.9201017112
0.02  0.08  61.6856850314
0.02  0.1  66.052455159
0.02  0.12  70.802529815
0.02  0.14  75.7474936503
0.02  0.16  80.729790037
0.02  0.18  85.6193520012
0.02  0.2  246.61707216
0.02  0.22  199.679889068
0.02  0.24  161.675985157
0.02  0.26  130.905141717
0.02  0.28  105.990732707
0.02  0.3  85.8181372593
0.02  0.32  69.4848737673
0.02  0.34  56.260224664
0.02  0.36  45.5525455776
0.02  0.38  36.882796345
0.02  0.4  29.8631097115
0.02  0.42  24.179438926
0.02  0.44  19.577507916
0.02  0.46  15.8514354852
0.02  0.48  12.8345245992
0.02  0.5  10.3918046945
0.02  0.52  8.41399336398
0.02  0.54  6.81260728146
0.02  0.56  5.51600363392
0.02  0.58  4.46617496537
0.02  0.6  3.61615403925
0.02  0.62  2.92791261806
0.02  0.64  2.37066015606
0.02  0.66  1.91946629173
0.02  0.68  1.5541455133
0.02  0.7  1.25835409922
0.02  0.72  1.01885893275
0.02  0.74  0.824945478776
0.02  0.76  0.667938436888
0.02  0.78  0.54081362581
0.02  0.8  0.437883735549
0.02  0.82  0.354543888519
0.02  0.84  0.287065626515
0.02  0.86  0.232430106949
0.02  0.88  0.188193045862
0.02  0.9  0.152375365549
0.02  0.92  0.123374654572
0.02  0.94  0.0998934790803
0.02  0.96  0.0808813382081
0.02  0.98  0.0654876667684
0.04  -1  0.0484782143937
0.04  -0.98  0.0598736074683
0.04  -0.96  0.0739476260853
0.04  -0.94  0.0913299137111
0.04  -0.92  0.112798119156
0.04  -0.9  0.139312687028
0.04  -0.88  0.172059826105
0.04  -0.86  0.212504577946
0.04  -0.84  0.262456359919
0.04  -0.82  0.324149914923
0.04  -0.8  0.400345289316
0.04  -0.78  0.494451311875
0.04  -0.76  0.610678097979
0.04  -0.74  0.754225401764
0.04  -0.72  0.931515242726
0.04  -0.7  1.15047921404
0.04  -0.68  1.42091332619
0.04  -0.66  1.7549162609
0.04  -0.64  2.16743064197
0.04  -0.62  2.67691153841
0.04  -0.6  3.30615210734
0.04  -0.58  4.08330331431
0.04  -0.56  5.04313335119
0.04  -0.54  6.22858309564
0.04  -0.52  7.69268720014
0.04  -0.5  9.50094675635
0.04  -0.48  11.7342596831
0.04  -0.46  14.4925399374
0.04  -0.44  17.8991874656
0.04  -0.42  22.10660887
0.04  -0.4  27.3030357758
0.04  -0.38  33.7209459378
0.04  -0.36  41.6474638308
0.04  -0.34  51.4372060242
0.04  -0.32  63.5281460193
0.04  -0.3  78.4612083081
0.04  -0.28  96.9044682541
0.04  -0.26  119.683040449
0.04  -0.24  147.81599269
0.04  -0.22  182.561937038
0.04  -0.2  89.9482864227
0.04  -0.18  84.8315226715
0.04  -0.16  79.4652616032
0.04  -0.14  73.957154439
0.04  -0.12  68.4407545508
0.04  -0.1  63.083200803
0.04  -0.08  58.0935283808
0.04  -0.06  53.727659451
0.04  -0.04  50.2808023837
0.04  -0.02  48.0529667257
0.04  6.17561557e-16  47.2799816759
0.04  0.02  48.0529667257
0.04  0.04  50.2808023837
0.04  0.06  53.727659451
0.04  0.08  58.0935283808
0.04  0.1  63.083200803
0.04  0.12  68.4407545508
0.04  0.14  73.957154439
0.04  0.16  79.4652616032
0.04  0.18  84.8315226715
0.04  0.2  225.475337604
0.04  0.22  182.561937038
0.04  0.24  147.81599269
0.04  0.26  119.683040449
0.04  0.28  96.9044682541
0.04  0.3  78.4612083081
0.04  0.32  63.5281460193
0.04  0.34  51.4372060242
0.04  0.36  41.6474638308
0.04  0.38  33.7209459378
0.04  0.4  27.3030357758
0.04  0.42  22.10660887
0.04  0.44  17.8991874656
0.04  0.46  14.4925399374
0.04  0.48  11.7342596831
0.04  0.5  9.50094675635
0.04  0.52  7.69268720014
0.04  0.54  6.22858309564
0.04  0.56  5.04313335119
0.04  0.58  4.08330331431
0.04  0.6  3.30615210734
0.04  0.62  2.67691153841
0.04  0.64  2.16743064197
0.04  0.66  1.7549162609
0.04  0.68  1.42091332619
0.04  0.7  1.15047921404
0.04  0.72  0.931515242726
0.04  0.74  0.754225401764
0.04  0.76  0.610678097979
0.04  0.78  0.494451311875
0.04  0.8  0.400345289316
0.04  0.82  0.324149914923
0.04  0.84  0.262456359919
0.04  0.86  0.212504577946
0.04  0.88  0.172059826105
0.04  0.9  0.139312687028
0.04  0.92  0.112798119156
0.04  0.94  0.0913299137111
0.04  0.96  0.0739476260853
0.04  0.98  0.0598736074683
0.06  -1  0.0425923174864
0.06  -0.98  0.0526041590071
0.06  -0.96  0.0649694054739
0.06  -0.94  0.080241253302
0.06  -0.92  0.0991029344429
0.06  -0.9  0.122398282816
0.06  -0.88  0.151169485753
0.06  -0.86  0.186703709375
0.06  -0.84  0.230590683832
0.06  -0.82  0.284793824655
0.06  -0.8  0.35173807204
0.06  -0.78  0.434418377829
0.06  -0.76  0.536533693669
0.06  -0.74  0.662652454717
0.06  -0.72  0.818416962296
0.06  -0.7  1.01079580919
0.06  -0.68  1.24839564053
0.06  -0.66  1.54184619795
0.06  -0.64  1.90427587292
0.06  -0.62  2.35189904481
0.06  -0.6  2.90474147976
0.06  -0.58  3.58753624347
0.06  -0.56  4.43083020913
0.06  -0.54  5.47235066344
0.06  -0.52  6.7586931501
0.06  -0.5  8.34740606124
0.06  -0.48  10.3095652375
0.06  -0.46  12.7329537591
0.06  -0.44  15.7259891854
0.06  -0.42  19.42257394
0.06  -0.4  23.9880858371
0.06  -0.38  29.6267767551
0.06  -0.36  36.5909104568
0.06  -0.34  45.1920483664
0.06  -0.32  55.8149882049
0.06  -0.3  68.934979071
0.06  -0.28  85.1389831361
0.06  -0.26  105.151935159
0.06  -0.24  129.869174617
0.06  -0.22  160.396501408
0.06  -0.2  89.5273853068
0.06  -0.18  83.9069415126
0.06  -0.16  77.9703953168
0.06  -0.14  71.8211334543
0.06  -0.12  65.5901590023
0.06  -0.1  59.4476011671
0.06  -0.08  53.6188354827
0.06  -0.06  48.4030402549
0.06  -0.04  44.182502256
0.06  -0.02  41.3921453283
0.06  6.17561557e-16  40.4102455454
0.06  0.02  41.3921453283
0.06  0.04  44.182502256
0.06  0.06  48.4030402549
0.06  0.08  53.6188354827
0.06  0.1  59.4476011671
0.06  0.12  65.5901590022
0.06  0.14  71.8211334543
0.06  0.16  77.9703953168
0.06  0.18  83.9069415126
0.06  0.2  198.099647124
0.06  0.22  160.396501408
0.06  0.24  129.869174617
0.06  0.26  105.151935159
0.06  0.28  85.1389831361
0.06  0.3  68.934979071
0.06  0.32  55.8149882049
0.06  0.34  45.1920483664
0.06  0.36  36.5909104568
0.06  0.38  29.6267767551
0.06  0.4  23.9880858371
0.06  0.42  19.42257394
0.06  0.44  15.7259891854
0.06  0.46  12.7329537591
0.06  0.48  10.3095652375
0.06  0.5  8.34740606124
0.06  0.52  6.7586931501
0.06  0.54  5.47235066344
0.06  0.56  4.43083020913
0.06  0.58  3.58753624347
0.06  0.6  2.90474147976
0.06  0.62  2.35189904481
0.06  0.64  1.90427587292
0.06  0.66  1.54184619795
0.06  0.68  1.24839564053
0.06  0.7  1.01079580919
0.06  0.72  0.818416962296
0.06  0.74  0.662652454717
0.06  0.76  0.536533693669
0.06  0.78  0.434418377829
0.06  0.8  0.35173807204
0.06  0.82  0.284793824655
0.06  0.84  0.230590683832
0.06  0.86  0.186703709375
0.06  0.88  0.151169485753
0.06  0.9  0.122398282816
0.06  0.92  0.0991029344429
0.06  0.94  0.080241253302
0.06  0.96  0.0649694054739
0.06  0.98  0.0526041590071
0.08  -1  0.0357572220395
0.08  -0.98  0.0441623913613
0.08  -0.96  0.0545432978153
0.08  -0.94  0.0673643624103
0.08  -0.92  0.0831991739537
0.08  -0.9  0.102756150269
0.08  -0.88  0.126910231391
0.08  -0.86  0.15674202264
0.08  -0.84  0.193586138736
0.08  -0.82  0.239090911804
0.08  -0.8  0.295292134449
0.08  -0.78  0.364704137056
0.08  -0.76  0.450432273904
0.08  -0.74  0.55631185051
0.08  -0.72  0.687079707534
0.08  -0.7  0.848586137563
0.08  -0.68  1.04805661551
