0.4  0.1  45.2505765679
0.4  0.12  49.5265239128
0.4  0.14  53.805926011
0.4  0.16  57.9502235077
0.4  0.18  61.851286644
0.4  0.2  127.333076369
0.4  0.22  104.845097149
0.4  0.24  86.328664237
0.4  0.26  71.0823726777
0.4  0.28  58.5286909064
0.4  0.3  48.1920837779
0.4  0.32  39.6809992311
0.4  0.34  32.6730362446
0.4  0.36  26.9027322429
0.4  0.38  22.1515073381
0.4  0.4  18.2393844952
0.4  0.42  15.0181719775
0.4  0.44  12.3658498238
0.4  0.46  10.181947716
0.4  0.48  8.38373915
0.4  0.5  6.9031077448
0.4  0.52  5.68396698462
0.4  0.54  4.68013565436
0.4  0.56  3.85358848889
0.4  0.58  3.173015771
0.4  0.6  2.61263731508
0.4  0.62  2.15122591023
0.4  0.64  1.7713032307
0.4  0.66  1.45847775455
0.4  0.68  1.20089961089
0.4  0.7  0.988811705175
0.4  0.72  0.814180119158
0.4  0.74  0.670389784995
0.4  0.76  0.551993905587
0.4  0.78  0.454507629181
0.4  0.8  0.374238162583
0.4  0.82  0.308144887657
0.4  0.84  0.253724182307
0.4  0.86  0.208914582931
0.4  0.88  0.17201869591
0.4  0.9  0.141638900107
0.4  0.92  0.116624404791
0.4  0.94  0.0960276575332
0.4  0.96  0.0790684507917
0.4  0.98  0.0651043675458
0.42  -1  0.0461176546532
0.42  -0.98  0.0560093223394
0.42  -0.96  0.0680226306501
0.42  -0.94  0.0826126453113
0.42  -0.92  0.100332038031
0.42  -0.9  0.121852021776
0.42  -0.88  0.147987776409
0.42  -0.86  0.179729327815
0.42  -0.84  0.218279050206
0.42  -0.82  0.265097212225
0.42  -0.8  0.321957292114
0.42  -0.78  0.391013157307
0.42  -0.76  0.474880653217
0.42  -0.74  0.576736691812
0.42  -0.72  0.700439593461
0.42  -0.7  0.850675240631
0.42  -0.68  1.03313457974
0.42  -0.66  1.25472919496
0.42  -0.64  1.52385311998
0.42  -0.62  1.85070080508
0.42  -0.6  2.2476532843
0.42  -0.58  2.72974717067
0.42  -0.56  3.31524424511
0.42  -0.54  4.02632321515
0.42  -0.52  4.88991984731
0.42  -0.5  5.93874729757
0.42  -0.48  7.21253529008
0.42  -0.46  8.75953508444
0.42  -0.44  10.6383472398
0.42  -0.42  12.9201414121
0.42  -0.4  15.6913522699
0.42  -0.38  19.0569536511
0.42  -0.36  23.1444349865
0.42  -0.34  28.108630616
0.42  -0.32  34.1375849343
0.42  -0.3  41.4596755375
0.42  -0.28  50.3522641976
0.42  -0.26  61.1522033627
0.42  -0.24  74.2685961735
0.42  -0.22  90.1982933446
0.42  -0.2  56.2838986159
0.42  -0.18  53.2106950938
0.42  -0.16  49.854608384
0.42  -0.14  46.2892670235
0.42  -0.12  42.6076951017
0.42  -0.1  38.9290953061
0.42  -0.08  35.4078829922
0.42  -0.06  32.2430100589
0.42  -0.04  29.6799075691
0.42  -0.02  27.9877259742
0.42  6.17561557e-16  27.3932094638
0.42  0.02  27.9877259742
0.42  0.04  29.6799075691
0.42  0.06  32.2430100589
0.42  0.08  35.4078829922
0.42  0.1  38.9290953061
0.42  0.12  42.6076951017
0.42  0.14  46.2892670235
0.42  0.16  49.854608384
0.42  0.18  53.2106950938
0.42  0.2  109.544713936
0.42  0.22  90.1982933446
0.42  0.24  74.2685961735
0.42  0.26  61.1522033627
0.42  0.28  50.3522641976
0.42  0.3  41.4596755375
0.42  0.32  34.1375849343
0.42  0.34  28.108630616
0.42  0.36  23.1444349865
0.42  0.38  19.0569536511
0.42  0.4  15.6913522699
0.42  0.42  12.9201414121
0.42  0.44  10.6383472398
0.42  0.46  8.75953508444
0.42  0.48  7.21253529008
0.42  0.5  5.93874729757
0.42  0.52  4.88991984731
0.42  0.54  4.02632321515
0.42  0.56  3.31524424511
0.42  0.58  2.72974717067
0.42  0.6  2.2476532843
0.42  0.62  1.85070080508
0.42  0.64  1.52385311998
0.42  0.66  1.25472919496
0.42  0.68  1.03313457974
0.42  0.7  0.850675240631
0.42  0.72  0.700439593461
0.42  0.74  0.576736691812
0.42  0.76  0.474880653217
0.42  0.78  0.391013157307
0.42  0.8  0.321957292114
0.42  0.82  0.265097212225
0.42  0.84  0.218279050206
0.42  0.86  0.179729327815
0.42  0.88  0.147987776409
0.42  0.9  0.121852021776
0.42  0.92  0.100332038031
0.42  0.94  0.0826126453113
0.42  0.96  0.0680226306501
0.42  0.98  0.0560093223394
0.44  -1  0.0396750430483
0.44  -0.98  0.0481848500673
0.44  -0.96  0.0585199056542
0.44  -0.94  0.0710717030974
0.44  -0.92  0.0863157061635
0.44  -0.9  0.104829359728
0.44  -0.88  0.127313963466
0.44  -0.86  0.154621237175
0.44  -0.84  0.187785584037
0.44  -0.82  0.228063273948
0.44  -0.8  0.276980031192
0.44  -0.78  0.336388829078
0.44  -0.76  0.408540080819
0.44  -0.74  0.496166885485
0.44  -0.72  0.602588558162
0.44  -0.7  0.73183636605
0.44  -0.68  0.888806233406
0.44  -0.66  1.07944419981
0.44  -0.64  1.31097165693
0.44  -0.62  1.59215889583
0.44  -0.6  1.93365732674
0.44  -0.58  2.34840295591
0.44  -0.56  2.85210640327
0.44  -0.54  3.46384802282
0.44  -0.52  4.20680066893
0.44  -0.5  5.10910748727
0.44  -0.48  6.20494798083
0.44  -0.46  7.53583273415
0.44  -0.44  9.15217583976
0.44  -0.42  11.1152045908
0.44  -0.4  13.4992787789
0.44  -0.38  16.3947074534
0.44  -0.36  19.9111698399
0.44  -0.34  24.1818700041
0.44  -0.32  29.3685826397
0.44  -0.3  35.6677811153
0.44  -0.28  43.3180799119
0.44  -0.26  52.6092733717
0.44  -0.24  63.893313146
0.44  -0.22  77.5976401715
0.44  -0.2  48.4210681854
0.44  -0.18  45.777189546
0.44  -0.16  42.8899463484
0.44  -0.14  39.8226812626
0.44  -0.12  36.6554229625
0.44  -0.1  33.4907215841
0.44  -0.08  30.4614207406
0.44  -0.06  27.7386788577
0.44  -0.04  25.5336404101
0.44  -0.02  24.0778556758
0.44  6.17561557e-16  23.5663928029
0.44  0.02  24.0778556758
0.44  0.04  25.5336404101
0.44  0.06  27.7386788577
0.44  0.08  30.4614207406
0.44  0.1  33.4907215841
0.44  0.12  36.6554229625
0.44  0.14  39.8226812626
0.44  0.16  42.8899463484
0.44  0.18  45.777189546
0.44  0.2  94.2413761893
0.44  0.22  77.5976401715
0.44  0.24  63.893313146
0.44  0.26  52.6092733717
0.44  0.28  43.3180799119
0.44  0.3  35.6677811153
0.44  0.32  29.3685826397
0.44  0.34  24.1818700041
0.44  0.36  19.9111698399
0.44  0.38  16.3947074534
0.44  0.4  13.4992787789
0.44  0.42  11.1152045908
0.44  0.44  9.15217583976
0.44  0.46  7.53583273415
0.44  0.48  6.20494798083
0.44  0.5  5.10910748727
0.44  0.52  4.20680066893
0.44  0.54  3.46384802282
0.44  0.56  2.85210640327
0.44  0.58  2.34840295591
0.44  0.6  1.93365732674
0.44  0.62  1.59215889583
0.44  0.64  1.31097165693
0.44  0.66  1.07944419981
0.44  0.68  0.888806233406
0.44  0.7  0.73183636605
0.44  0.72  0.602588558162
0.44  0.74  0.496166885485
0.44  0.76  0.408540080819
0.44  0.78  0.336388829078
0.44  0.8  0.276980031192
0.44  0.82  0.228063273948
0.44  0.84  0.187785584037
0.44  0.86  0.154621237175
0.44  0.88  0.127313963466
0.44  0.9  0.104829359728
0.44  0.92  0.0863157061635
0.44  0.94  0.0710717030974
0.44  0.96  0.0585199056542
0.44  0.98  0.0481848500673
0.46  -1  0.034132460827
0.46  -0.98  0.0414534523725
0.46  -0.96  0.0503447062404
0.46  -0.94  0.061143024317
0.46  -0.92  0.0742574483358
0.46  -0.9  0.0901847544334
0.46  -0.88  0.109528271096
0.46  -0.86  0.133020733323
0.46  -0.84  0.161552038726
0.46  -0.82  0.196202956973
0.46  -0.8  0.238286069482
0.46  -0.78  0.289395490187
0.46  -0.76  0.351467250781
0.46  -0.74  0.426852637863
0.46  -0.72  0.51840725998
0.46  -0.7  0.62959921847
0.46  -0.68  0.764640479598
0.46  -0.66  0.928646424404
0.46  -0.64  1.12782962002
0.46  -0.62  1.36973515255
0.46  -0.6  1.66352643593
0.46  -0.58  2.0203323233
0.46  -0.56  2.45366866939
0.46  -0.54  2.97995031298
0.46  -0.52  3.61911287316
0.46  -0.5  4.39536791322
0.46  -0.48  5.33812007795
0.46  -0.46  6.48308094548
0.46  -0.44  7.87362178668
0.46  -0.42  9.56241647466
0.46  -0.4  11.6134367782
0.46  -0.38  14.1043756208
0.46  -0.36  17.1295900991
0.46  -0.34  20.8036757423
0.46  -0.32  25.2658074063
0.46  -0.3  30.6850112354
0.46  -0.28  37.2665673959
0.46  -0.26  45.2597861157
0.46  -0.24  54.9674515894
0.46  -0.22  66.7572914841
0.46  -0.2  41.6566709462
0.46  -0.18  39.3821407338
0.46  -0.16  36.8982438615
0.46  -0.14  34.259474062
0.46  -0.12  31.5346800466
0.46  -0.1  28.8120857524
0.46  -0.08  26.205976611
0.46  -0.06  23.8636003079
0.46  -0.04  21.966604548
0.46  -0.02  20.7141921599
0.46  6.17561557e-16  20.2741803758
0.46  0.02  20.7141921599
0.46  0.04  21.966604548
0.46  0.06  23.8636003079
0.46  0.08  26.205976611
0.46  0.1  28.8120857524
0.46  0.12  31.5346800466
0.46  0.14  34.259474062
0.46  0.16  36.8982438615
0.46  0.18  39.3821407338
0.46  0.2  81.0759065126
0.46  0.22  66.7572914841
0.46  0.24  54.9674515894
0.46  0.26  45.2597861157
0.46  0.28  37.2665673959
0.46  0.3  30.6850112354
0.46  0.32  25.2658074063
0.46  0.34  20.8036757423
0.46  0.36  17.1295900991
0.46  0.38  14.1043756208
0.46  0.4  11.6134367782
0.46  0.42  9.56241647466
0.46  0.44  7.87362178667
0.46  0.46  6.48308094548
0.46  0.48  5.33812007795
0.46  0.5  4.39536791322
0.46  0.52  3.61911287316
0.46  0.54  2.97995031298
0.46  0.56  2.45366866939
0.46  0.58  2.0203323233
0.46  0.6  1.66352643593
0.46  0.62  1.36973515255
0.46  0.64  1.12782962002
0.46  0.66  0.928646424404
0.46  0.68  0.764640479598
0.46  0.7  0.62959921847
0.46  0.72  0.51840725998
0.46  0.74  0.426852637863
0.46  0.76  0.351467250781
0.46  0.78  0.289395490187
0.46  0.8  0.238286069482
0.46  0.82  0.196202956973
0.46  0.84  0.161552038726
0.46  0.86  0.133020733323
0.46  0.88  0.109528271096
0.46  0.9  0.0901847544334
0.46  0.92  0.0742574483358
0.46  0.94  0.061143024317
0.46  0.96  0.0503447062404
0.46  0.98  0.0414534523725
0.48  -1  0.0293641743675
0.48  -0.98  0.035662427323
0.48  -0.96  0.0433115777973
0.48  -0.94  0.0526013766338
0.48  -0.92  0.0638837226553
0.48  -0.9  0.0775859926389
0.48  -0.88  0.0942272304048
0.48  -0.86  0.114437808266
0.48  -0.84  0.138983305617
0.48  -0.82  0.168793509181
0.48  -0.8  0.204997633457
0.48  -0.78  0.248967095518
0.48  -0.76  0.30236746447
0.48  -0.74  0.367221553434
0.48  -0.72  0.445986043977
0.48  -0.7  0.541644545539
0.48  -0.68  0.657820614961
0.48  -0.66  0.798915017295
0.48  -0.64  0.970272427381
0.48  -0.62  1.17838388684
0.48  -0.6  1.43113268561
0.48  -0.58  1.73809298199
0.48  -0.56  2.11089247309
0.48  -0.54  2.56365285352
0.48  -0.52  3.11352474706
0.48  -0.5  3.78133737462
0.48  -0.48  4.59238756789
0.48  -0.46  5.57739801669
0.48  -0.44  6.77368104864
0.48  -0.42  8.22655202505
0.48  -0.4  9.9910458929
0.48  -0.38  12.134001916
0.48  -0.36  14.7365955553
0.48  -0.34  17.8974134059
0.48  -0.32  21.7361876711
0.48  -0.3  26.3983316337
0.48  -0.28  32.0604479307
0.48  -0.26  38.9370182851
0.48  -0.24  47.288528102
0.48  -0.22  57.4313336907
0.48  -0.2  35.837256371
0.48  -0.18  33.8804768087
0.48  -0.16  31.7435789963
0.48  -0.14  29.4734439217
0.48  -0.12  27.1293021679
0.48  -0.1  24.7870528355
0.48  -0.08  22.5450157425
0.48  -0.06  20.5298681518
0.48  -0.04  18.8978816816
0.48  -0.02  17.8204306319
0.48  6.17561557e-16  17.441888258
0.48  0.02  17.8204306319
0.48  0.04  18.8978816816
0.48  0.06  20.5298681518
0.48  0.08  22.5450157425
0.48  0.1  24.7870528355
0.48  0.12  27.1293021679
0.48  0.14  29.4734439217
0.48  0.16  31.7435789963
0.48  0.18  33.8804768087
0.48  0.2  69.7496458841
0.48  0.22  57.4313336907
0.48  0.24  47.288528102
0.48  0.26  38.9370182851
0.48  0.28  32.0604479307
0.48  0.3  26.3983316337
0.48  0.32  21.7361876711
0.48  0.34  17.8974134059
0.48  0.36  14.7365955553
0.48  0.38  12.134001916
0.48  0.4  9.9910458929
0.48  0.42  8.22655202505
0.48  0.44  6.77368104864
0.48  0.46  5.57739801669
0.48  0.48  4.59238756789
0.48  0.5  3.78133737462
0.48  0.52  3.11352474706
0.48  0.54  2.56365285352
0.48  0.56  2.11089247309
0.48  0.58  1.73809298199
0.48  0.6  1.43113268561
0.48  0.62  1.17838388684
0.48  0.64  0.970272427381
0.48  0.66  0.798915017295
0.48  0.68  0.657820614961
0.48  0.7  0.541644545539
0.48  0.72  0.445986043977
0.48  0.74  0.367221553434
0.48  0.76  0.30236746447
0.48  0.78  0.248967095518
0.48  0.8  0.204997633457
0.48  0.82  0.168793509181
0.48  0.84  0.138983305617
0.48  0.86  0.114437808266
0.48  0.88  0.0942272304048
0.48  0.9  0.0775859926389
0.48  0.92  0.0638837226553
0.48  0.94  0.0526013766338
0.48  0.96  0.0433115777973
0.48  0.98  0.035662427323
0.5  -1  0.0252620149673
0.5  -0.98  0.0306804053651
0.5  -0.96  0.0372609736232
0.5  -0.94  0.0452529925478
0.5  -0.92  0.0549592008851
0.5  -0.9  0.0667472711056
0.5  -0.88  0.0810637368865
0.5  -0.86  0.0984509078672
0.5  -0.84  0.119567412411
0.5  -0.82  0.145213146535
0.5  -0.8  0.17635957408
0.5  -0.78  0.214186525889
0.5  -0.76  0.260126891956
0.5  -0.74  0.315920899497
0.5  -0.72  0.383682032982
0.5  -0.7  0.465977093214
0.5  -0.68  0.565923428086
0.5  -0.66  0.687307018135
0.5  -0.64  0.834725889995
0.5  -0.62  1.01376429026
0.5  -0.6  1.23120421748
0.5  -0.58  1.4952823252
0.5  -0.56  1.81600192746
0.5  -0.54  2.20551192573
0.5  -0.52  2.67856701085
0.5  -0.5  3.25308657273
0.5  -0.48  3.95083348927
0.5  -0.46  4.798238507
0.5  -0.44  5.8274014414
0.5  -0.42  7.07730712213
0.5  -0.4  8.5953021436
0.5  -0.38  10.4388883603
0.5  -0.36  12.6779010649
0.5  -0.34  15.3971543582
0.5  -0.32  18.6996539187
0.5  -0.3  22.7104988717
0.5  -0.28  27.5816205608
0.5  -0.26  33.4975377271
0.5  -0.24  40.6823461046
0.5  -0.22  49.408207196
0.5  -0.2  30.8308108889
0.5  -0.18  29.1473923813
0.5  -0.16  27.3090180465
0.5  -0.14  25.3560196234
0.5  -0.12  23.3393532147
0.5  -0.1  21.3243148569
0.5  -0.08  19.3954891426
0.5  -0.06  17.6618565889
0.5  -0.04  16.2578577527
0.5  -0.02  15.3309260364
0.5  6.17561557e-16  15.0052658289
0.5  0.02  15.3309260364
0.5  0.04  16.2578577527
0.5  0.06  17.6618565889
0.5  0.08  19.3954891426
0.5  0.1  21.3243148569
0.5  0.12  23.3393532147
0.5  0.14  25.3560196234
0.5  0.16  27.3090180465
0.5  0.18  29.1473923813
0.5  0.2  60.0056577869
0.5  0.22  49.408207196
0.5  0.24  40.6823461046
0.5  0.26  33.4975377271
0.5  0.28  27.5816205608
0.5  0.3  22.7104988717
0.5  0.32  18.6996539187
0.5  0.34  15.3971543582
0.5  0.36  12.6779010649
0.5  0.38  10.4388883603
0.5  0.4  8.5953021436
0.5  0.42  7.07730712213
0.5  0.44  5.8274014414
0.5  0.46  4.798238507
0.5  0.48  3.95083348927
0.5  0.5  3.25308657273
0.5  0.52  2.67856701085
0.5  0.54  2.20551192573
0.5  0.56  1.81600192746
0.5  0.58  1.4952823252
0.5  0.6  1.23120421748
0.5  0.62  1.01376429026
0.5  0.64  0.834725889995
0.5  0.66  0.687307018135
0.5  0.68  0.565923428086
0.5  0.7  0.465977093214
0.5  0.72  0.383682032982
0.5  0.74  0.315920899497
0.5  0.76  0.260126891956
0.5  0.78  0.214186525889
0.5  0.8  0.17635957408
0.5  0.82  0.145213146535
0.5  0.84  0.119567412411
0.5  0.86  0.0984509078672
0.5  0.88  0.0810637368865
0.5  0.9  0.0667472711056
0.5  0.92  0.0549592008851
0.5  0.94  0.0452529925478
0.5  0.96  0.0372609736232
0.5  0.98  0.0306804053651
0.52  -1  0.0217329250338
0.52  -0.98  0.026394369201
0.52  -0.96  0.032055635605
0.52  -0.94  0.038931173775
0.52  -0.92  0.0472814300166
0.52  -0.9  0.0574227131536
0.52  -0.88  0.0697391763482
0.52  -0.86  0.0846973688742
0.52  -0.84  0.102863909066
0.52  -0.82  0.124926947896
0.52  -0.8  0.151722236229
0.52  -0.78  0.18426478317
0.52  -0.76  0.223787304753
0.52  -0.74  0.271786919384
0.52  -0.72  0.330081858887
0.52  -0.7  0.40088034337
0.52  -0.68  0.486864228898
0.52  -0.66  0.591290596561
0.52  -0.64  0.718115131139
0.52  -0.62  0.872141962969
0.52  -0.6  1.05920564905
0.52  -0.58  1.28639218684
0.52  -0.56  1.5623074328
0.52  -0.54  1.89740309335
0.52  -0.52  2.30437263695
0.52  -0.5  2.79863212437
0.52  -0.48  3.39890417112
0.52  -0.46  4.12792716266
0.52  -0.44  5.01331658745
0.52  -0.42  6.08861111537
0.52  -0.4  7.39454304701
0.52  -0.38  8.98058125868
0.52  -0.36  10.9068050901
0.52  -0.34  13.2461801576
0.52  -0.32  16.0873223019
0.52  -0.3  19.5378543675
0.52  -0.28  23.7284829708
0.52  -0.26  28.8179496839
0.52  -0.24  34.999044187
0.52  -0.22  42.5059071668
0.52  -0.2  26.5237631538
0.52  -0.18  25.0755173083
0.52  -0.16  23.4939628814
0.52  -0.14  21.81379729
0.52  -0.12  20.0788580962
0.52  -0.1  18.3453195156
0.52  -0.08  16.6859497184
0.52  -0.06  15.1945047021
0.52  -0.04  13.9866437498
0.52  -0.02  13.1892038968
0.52  6.17561557e-16  12.9090382456
0.52  0.02  13.1892038968
0.52  0.04  13.9866437498
0.52  0.06  15.1945047021
0.52  0.08  16.6859497184
0.52  0.1  18.3453195156
0.52  0.12  20.0788580962
0.52  0.14  21.81379729
0.52  0.16  23.4939628814
0.52  0.18  25.0755173083
0.52  0.2  51.6228995975
0.52  0.22  42.5059071668
0.52  0.24  34.999044187
0.52  0.26  28.8179496839
0.52  0.28  23.7284829708
0.52  0.3  19.5378543675
0.52  0.32  16.0873223019
0.52  0.34  13.2461801576
0.52  0.36  10.9068050901
0.52  0.38  8.98058125868
0.52  0.4  7.39454304701
0.52  0.42  6.08861111537
0.52  0.44  5.01331658745
0.52  0.46  4.12792716266
0.52  0.48  3.39890417112
0.52  0.5  2.79863212437
0.52  0.52  2.30437263695
0.52  0.54  1.89740309335
0.52  0.56  1.5623074328
0.52  0.58  1.28639218684
0.52  0.6  1.05920564905
0.52  0.62  0.872141962969
0.52  0.64  0.718115131139
0.52  0.66  0.591290596561
0.52  0.68  0.486864228898
0.52  0.7  0.40088034337
0.52  0.72  0.330081858887
0.52  0.74  0.271786919384
0.52  0.76  0.223787304753
0.52  0.78  0.18426478317
0.52  0.8  0.151722236229
0.52  0.82  0.124926947896
0.52  0.84  0.102863909066
0.52  0.86  0.0846973688742
0.52  0.88  0.0697391763482
0.52  0.9  0.0574227131536
0.52  0.92  0.0472814300166
0.52  0.94  0.038931173775
0.52  0.96  0.032055635605
0.52  0.98  0.026394369201
0.54  -1  0.0186968470701
0.54  -0.98  0.0227070899888
0.54  -0.96  0.0275774805144
0.54  -0.94  0.033492509692
0.54  -0.92  0.040676239618
0.54  -0.9  0.0494007909433
0.54  -0.88  0.0599966508396
0.54  -0.86  0.0728651918973
0.54  -0.84  0.0884938761737
0.54  -0.82  0.10747472032
0.54  -0.8  0.130526721253
0.54  -0.78  0.158523091851
0.54  -0.76  0.19252433838
0.54  -0.74  0.233818432607
0.54  -0.72  0.283969600346
0.54  -0.7  0.344877574543
0.54  -0.68  0.418849557409
0.54  -0.66  0.508687617552
0.54  -0.64  0.617794832712
0.54  -0.62  0.750304198798
0.54  -0.6  0.911235188327
0.54  -0.58  1.10668388872
0.54  -0.56  1.34405392289
0.54  -0.54  1.63233689949
0.54  -0.52  1.98245301626
0.54  -0.5  2.40766471855
0.54  -0.48  2.92407908252
0.54  -0.46  3.55125795339
0.54  -0.44  4.3129589507
0.54  -0.42  5.23803541015
0.54  -0.4  6.3615293518
0.54  -0.38  7.72599887649
0.54  -0.36  9.38313027237
0.54  -0.34  11.3956958985
0.54  -0.32  13.83993201
0.54  -0.3  16.8084265978
0.54  -0.28  20.4136266342
0.54  -0.26  24.7920975789
0.54  -0.24  30.1096964971
0.54  -0.22  36.5678547474
0.54  -0.2  22.8184076758
0.54  -0.18  21.5724809977
0.54  -0.16  20.2118688755
0.54  -0.14  18.7664215154
0.54  -0.12  17.273852396
0.54  -0.1  15.7824882247
0.54  -0.08  14.3549314977
0.54  -0.06  13.0718405497
0.54  -0.04  12.0327171242
0.54  -0.02  11.3466791907
0.54  6.17561557e-16  11.1056525306
0.54  0.02  11.3466791907
0.54  0.04  12.0327171242
0.54  0.06  13.0718405497
0.54  0.08  14.3549314977
0.54  0.1  15.7824882247
0.54  0.12  17.273852396
0.54  0.14  18.7664215154
0.54  0.16  20.2118688755
0.54  0.18  21.5724809977
0.54  0.2  44.4112082284
0.54  0.22  36.5678547474
0.54  0.24  30.1096964971
0.54  0.26  24.7920975789
0.54  0.28  20.4136266342
0.54  0.3  16.8084265978
0.54  0.32  13.83993201
0.54  0.34  11.3956958985
0.54  0.36  9.38313027237
0.54  0.38  7.72599887648
0.54  0.4  6.3615293518
0.54  0.42  5.23803541015
0.54  0.44  4.3129589507
0.54  0.46  3.55125795339
0.54  0.48  2.92407908252
0.54  0.5  2.40766471855
0.54  0.52  1.98245301626
0.54  0.54  1.63233689949
0.54  0.56  1.34405392289
0.54  0.58  1.10668388872
0.54  0.6  0.911235188327
0.54  0.62  0.750304198798
0.54  0.64  0.617794832712
0.54  0.66  0.508687617552
0.54  0.68  0.418849557409
0.54  0.7  0.344877574543
0.54  0.72  0.283969600346
0.54  0.74  0.233818432607
0.54  0.76  0.19252433838
0.54  0.78  0.158523091851
0.54  0.8  0.130526721253
0.54  0.82  0.10747472032
0.54  0.84  0.0884938761737
0.54  0.86  0.0728651918973
0.54  0.88  0.0599966508396
0.54  0.9  0.0494007909433
0.54  0.92  0.040676239618
0.54  0.94  0.033492509692
0.54  0.96  0.0275774805144
0.54  0.98  0.0227070899888
0.56  -1  0.0160849075685
0.56  -0.98  0.0195349217036
0.56  -0.96  0.0237249212867
0.56  -0.94  0.0288136240625
0.56  -0.92  0.0349937907732
0.56  -0.9  0.0424995269607
0.56  -0.88  0.0516151509159
0.56  -0.86  0.0626859636941
0.56  -0.84  0.0761313291646
0.56  -0.82  0.0924605595704
0.56  -0.8  0.112292208344
0.56  -0.78  0.136377500995
0.56  -0.76  0.165628791631
0.56  -0.74  0.201154123056
0.56  -0.72  0.244299199577
0.56  -0.7  0.296698362466
0.56  -0.68  0.360336499024
0.56  -0.66  0.437624230379
0.56  -0.64  0.531489226136
0.56  -0.62  0.645487104894
0.56  -0.6  0.783936121554
0.56  -0.58  0.95208074339
0.56  -0.56  1.15629031118
0.56  -0.54  1.40430031067
0.56  -0.52  1.70550539382
0.56  -0.5  2.0713152495
0.56  -0.48  2.51558680397
0.56  -0.46  3.05514912317
0.56  -0.44  3.71044089994
0.56  -0.42  4.50628467447
0.56  -0.4  5.47282711542
0.56  -0.38  6.64668097978
0.56  -0.36  8.072312009
0.56  -0.34  9.80372329722
0.56  -0.32  11.9065009357
0.56  -0.3  14.4602984227
0.56  -0.28  17.5618539489
0.56  -0.26  21.3286548524
0.56  -0.24  25.9033880555
0.56  -0.22  31.4593450642
0.56  -0.2  19.6306883696
0.56  -0.18  18.5588169797
0.56  -0.16  17.3882816408
0.56  -0.14  16.1447625012
0.56  -0.12  14.8607044867
0.56  -0.1  13.5776830898
0.56  -0.08  12.3495552714
0.56  -0.06  11.2457114402
0.56  -0.04  10.3517529996
0.56  -0.02  9.76155419725
0.56  6.17561557e-16  9.55419883218
0.56  0.02  9.76155419725
0.56  0.04  10.3517529996
0.56  0.06  11.2457114402
0.56  0.08  12.3495552714
0.56  0.1  13.5776830898
0.56  0.12  14.8607044867
0.56  0.14  16.1447625012
0.56  0.16  17.3882816408
0.56  0.18  18.5588169797
0.56  0.2  38.2069862732
0.56  0.22  31.4593450642
0.56  0.24  25.9033880555
0.56  0.26  21.3286548524
0.56  0.28  17.5618539489
0.56  0.3  14.4602984227
0.56  0.32  11.9065009357
0.56  0.34  9.80372329722
0.56  0.36  8.072312009
0.56  0.38  6.64668097978
0.56  0.4  5.47282711542
0.56  0.42  4.50628467447
0.56  0.44  3.71044089994
0.56  0.46  3.05514912317
0.56  0.48  2.51558680397
0.56  0.5  2.0713152495
0.56  0.52  1.70550539382
0.56  0.54  1.40430031067
0.56  0.56  1.15629031118
0.56  0.58  0.95208074339
0.56  0.6  0.783936121554
0.56  0.62  0.645487104894
0.56  0.64  0.531489226136
0.56  0.66  0.437624230379
0.56  0.68  0.360336499024
0.56  0.7  0.296698362466
0.56  0.72  0.244299199577
0.56  0.74  0.201154123056
0.56  0.76  0.165628791631
0.56  0.78  0.136377500995
0.56  0.8  0.112292208344
0.56  0.82  0.0924605595704
0.56  0.84  0.0761313291646
0.56  0.86  0.0626859636941
0.56  0.88  0.0516151509159
0.56  0.9  0.0424995269607
0.56  0.92  0.0349937907732
0.56  0.94  0.0288136240625
0.56  0.96  0.0237249212867
0.56  0.98  0.0195349217036
0.58  -1  0.0138378546135
0.58  -0.98  0.0168059036255
0.58  -0.96  0.0204105625155
0.58  -0.94  0.0247883762445
0.58  -0.92  0.0301051769825
0.58  -0.9  0.0365623658526
0.58  -0.88  0.0444045420335
0.58  -0.86  0.053928768208
0.58  -0.84  0.065495823338
0.58  -0.82  0.0795438690196
0.58  -0.8  0.0966050471028
0.58  -0.78  0.117325637296
0.58  -0.76  0.142490538329
0.58  -0.74  0.173053000019
0.58  -0.72  0.210170732505
0.58  -0.7  0.25524976046
0.58  -0.68  0.309997683494
0.58  -0.66  0.376488360257
0.58  -0.64  0.457240466482
0.58  -0.62  0.555312902757
0.58  -0.6  0.67442066609
0.58  -0.58  0.819075574495
0.58  -0.56  0.994757175256
0.58  -0.54  1.20812031092
0.58  -0.52  1.4672472056
0.58  -0.5  1.78195362076
0.58  -0.48  2.1641606775
0.58  -0.46  2.62834643028
0.58  -0.44  3.19209429752
0.58  -0.42  3.87675912385
0.58  -0.4  4.70827610452
0.58  -0.38  5.71814321401
0.58  -0.36  6.94461435354
0.58  -0.34  8.434148414
0.58  -0.32  10.2431691449
0.58  -0.3  12.4402024935
0.58  -0.28  15.1084723772
0.58  -0.26  18.349053216
0.58  -0.24  22.2846986459
0.58  -0.22  27.0644914421
0.58  -0.2  16.8882917396
0.58  -0.18  15.9661602076
0.58  -0.16  14.9591480274
0.58  -0.14  13.8893478442
0.58  -0.12  12.7846720452
0.58  -0.1  11.6808880489
0.58  -0.08  10.6243290276
0.58  -0.06  9.67469158728
0.58  -0.04  8.90561866107
0.58  -0.02  8.39787031466
0.58  6.17561557e-16  8.21948238281
0.58  0.02  8.39787031466
0.58  0.04  8.90561866107
0.58  0.06  9.67469158729
0.58  0.08  10.6243290276
0.58  0.1  11.6808880489
0.58  0.12  12.7846720452
0.58  0.14  13.8893478442
0.58  0.16  14.9591480274
0.58  0.18  15.9661602076
0.58  0.2  32.8694907955
0.58  0.22  27.0644914421
0.58  0.24  22.2846986459
0.58  0.26  18.349053216
0.58  0.28  15.1084723772
0.58  0.3  12.4402024935
0.58  0.32  10.2431691449
0.58  0.34  8.434148414
0.58  0.36  6.94461435354
0.58  0.38  5.71814321401
0.58  0.4  4.70827610452
0.58  0.42  3.87675912385
0.58  0.44  3.19209429752
0.58  0.46  2.62834643028
0.58  0.48  2.1641606775
0.58  0.5  1.78195362076
0.58  0.52  1.4672472056
0.58  0.54  1.20812031092
0.58  0.56  0.994757175256
0.58  0.58  0.819075574495
0.58  0.6  0.67442066609
0.58  0.62  0.555312902757
0.58  0.64  0.457240466482
0.58  0.66  0.376488360257
0.58  0.68  0.309997683494
0.58  0.7  0.25524976046
0.58  0.72  0.210170732505
0.58  0.74  0.173053000019
0.58  0.76  0.142490538329
0.58  0.78  0.117325637296
0.58  0.8  0.0966050471028
0.58  0.82  0.0795438690196
0.58  0.84  0.065495823338
0.58  0.86  0.053928768208
0.58  0.88  0.0444045420335
0.58  0.9  0.0365623658526
0.58  0.92  0.0301051769825
0.58  0.94  0.0247883762445
0.58  0.96  0.0204105625155
0.58  0.98  0.0168059036255
0.6  -1  0.0119047137504
0.6  -0.98  0.0144581279083
0.6  -0.96  0.0175592178859
0.6  -0.94  0.0213254533864
0.6  -0.92  0.0258994999147
0.6  -0.9  0.0314546229651
0.6  -0.88  0.0382012513421
0.6  -0.86  0.0463949482315
0.6  -0.84  0.0563460919676
0.6  -0.82  0.0684316332066
0.6  -0.8  0.0831093738679
0.6  -0.78  0.100935308732
0.6  -0.76  0.122584686595
0.6  -0.74  0.14887758879
0.6  -0.72  0.180809993967
0.6  -0.7  0.219591505909
0.6  -0.68  0.266691173477
0.6  -0.66  0.32389313838
0.6  -0.64  0.393364218703
0.6  -0.62  0.477735988263
0.6  -0.6  0.580204460982
0.6  -0.58  0.704651156314
0.6  -0.56  0.855790131733
0.6  -0.54  1.03934655185
0.6  -0.52  1.26227355841
0.6  -0.5  1.53301565627
0.6  -0.48  1.86182859231
0.6  -0.46  2.26116784454
0.6  -0.44  2.74616043727
0.6  -0.42  3.3351779548
0.6  -0.4  4.05053245953
0.6  -0.38  4.91932167579
0.6  -0.36  5.97445545534
0.6  -0.34  7.25590240695
0.6  -0.32  8.81220391258
0.6  -0.3  10.7023128815
0.6  -0.28  12.9978268944
0.6  -0.26  15.7857003292
0.6  -0.24  19.1715382046
0.6  -0.22  23.2835965125
0.6  -0.2  14.5290064471
0.6  -0.18  13.7356961953
0.6  -0.16  12.8693630761
0.6  -0.14  11.9490134044
0.6  -0.12  10.9986602217
0.6  -0.1  10.0490742573
0.6  -0.08  9.14011596428
0.6  -0.06  8.32314236469
0.6  -0.04  7.66150851353
0.6  -0.02  7.22469233862
0.6  6.17561557e-16  7.07122510512
0.6  0.02  7.22469233862
0.6  0.04  7.66150851353
0.6  0.06  8.32314236469
0.6  0.08  9.14011596428
0.6  0.1  10.0490742573
0.6  0.12  10.9986602217
0.6  0.14  11.9490134044
0.6  0.16  12.8693630761
0.6  0.18  13.7356961953
0.6  0.2  28.2776405716
0.6  0.22  23.2835965125
0.6  0.24  19.1715382046
0.6  0.26  15.7857003292
0.6  0.28  12.9978268944
0.6  0.3  10.7023128815
0.6  0.32  8.81220391258
0.6  0.34  7.25590240695
0.6  0.36  5.97445545534
0.6  0.38  4.91932167579
0.6  0.4  4.05053245953
0.6  0.42  3.3351779548
0.6  0.44  2.74616043727
0.6  0.46  2.26116784454
0.6  0.48  1.86182859231
0.6  0.5  1.53301565627
0.6  0.52  1.26227355841
0.6  0.54  1.03934655185
0.6  0.56  0.855790131733
0.6  0.58  0.704651156314
0.6  0.6  0.580204460982
0.6  0.62  0.477735988263
0.6  0.64  0.393364218703
0.6  0.66  0.32389313838
0.6  0.68  0.266691173477
0.6  0.7  0.219591505909
0.6  0.72  0.180809993967
0.6  0.74  0.14887758879
0.6  0.76  0.122584686595
0.6  0.78  0.100935308732
0.6  0.8  0.0831093738679
0.6  0.82  0.0684316332066
0.6  0.84  0.0563460919676
0.6  0.86  0.0463949482315
0.6  0.88  0.0382012513421
0.6  0.9  0.0314546229651
0.6  0.92  0.0258994999147
0.6  0.94  0.0213254533864
0.6  0.96  0.0175592178859
0.6  0.98  0.0144581279083
0.62  -1  0.0102416316285
0.62  -0.98  0.0124383351988
0.62  -0.96  0.0151062045708
0.62  -0.94  0.0183462989932
0.62  -0.92  0.0222813536762
0.62  -0.9  0.0270604290177
0.62  -0.88  0.0328645570313
0.62  -0.86  0.0399135988625
0.62  -0.84  0.0484745731592
0.62  -0.82  0.0588717707731
0.62  -0.8  0.0714990389412
0.62  -0.78  0.0868347002711
0.62  -0.76  0.105459671666
0.62  -0.74  0.128079469534
0.62  -0.72  0.155550934846
0.62  -0.7  0.188914690383
0.62  -0.68  0.229434559669
0.62  -0.66  0.278645440774
0.62  -0.64  0.338411448459
0.62  -0.62  0.410996527091
0.62  -0.6  0.499150209163
0.62  -0.58  0.606211767945
0.62  -0.56  0.73623670961
0.62  -0.54  0.894150396345
0.62  -0.52  1.08593461973
0.62  -0.5  1.31885419182
0.62  -0.48  1.60173213715
0.62  -0.46  1.94528391016
0.62  -0.44  2.36252329797
0.62  -0.42  2.86925538442
0.62  -0.4  3.48467524874
0.62  -0.38  4.23209507775
0.62  -0.36  5.13982723457
0.62  -0.34  6.24225673475
0.62  -0.32  7.58114375528
0.62  -0.3  9.20720551563
0.62  -0.28  11.1820374529
0.62  -0.26  13.580446465
0.62  -0.24  16.4932846063
0.62  -0.22  20.0308905754
0.62  -0.2  12.4993120438
0.62  -0.18  11.8168268084
0.62  -0.16  11.0715199611
0.62  -0.14  10.2797426446
0.62  -0.12  9.46215329143
0.62  -0.1  8.64522397664
0.62  -0.08  7.86324666933
0.62  -0.06  7.16040384316
0.62  -0.04  6.59119988592
0.62  -0.02  6.21540669622
0.62  6.17561557e-16  6.08337875287
0.62  0.02  6.21540669622
0.62  0.04  6.59119988592
0.62  0.06  7.16040384316
0.62  0.08  7.86324666933
0.62  0.1  8.64522397664
0.62  0.12  9.46215329143
0.62  0.14  10.2797426446
0.62  0.16  11.0715199611
0.62  0.18  11.8168268084
0.62  0.2  24.3272693596
0.62  0.22  20.0308905754
0.62  0.24  16.4932846063
0.62  0.26  13.580446465
0.62  0.28  11.1820374529
0.62  0.3  9.20720551563
0.62  0.32  7.58114375527
0.62  0.34  6.24225673475
0.62  0.36  5.13982723457
0.62  0.38  4.23209507775
0.62  0.4  3.48467524874
0.62  0.42  2.86925538442
0.62  0.44  2.36252329797
0.62  0.46  1.94528391016
0.62  0.48  1.60173213715
0.62  0.5  1.31885419182
0.62  0.52  1.08593461973
0.62  0.54  0.894150396345
0.62  0.56  0.73623670961
0.62  0.58  0.606211767945
0.62  0.6  0.499150209163
0.62  0.62  0.410996527091
0.62  0.64  0.338411448459
0.62  0.66  0.278645440774
0.62  0.68  0.229434559669
0.62  0.7  0.188914690383
0.62  0.72  0.155550934846
0.62  0.74  0.128079469534
0.62  0.76  0.105459671666
0.62  0.78  0.0868347002711
0.62  0.8  0.0714990389412
0.62  0.82  0.0588717707731
0.62  0.84  0.0484745731592
0.62  0.86  0.0399135988625
0.62  0.88  0.0328645570313
0.62  0.9  0.0270604290177
0.62  0.92  0.0222813536762
0.62  0.94  0.0183462989932
0.62  0.96  0.0151062045708
0.62  0.98  0.0124383351988
0.64  -1  0.00881088118638
0.64  -0.98  0.0107007064469
0.64  -0.96  0.0129958758994
0.64  -0.94  0.0157833308698
0.64  -0.92  0.0191686605254
0.64  -0.9  0.0232801016066
0.64  -0.88  0.0282733960515
0.64  -0.86  0.034337690522
0.64  -0.84  0.0417027013039
0.64  -0.82  0.0506474159911
0.64  -0.8  0.0615106615728
0.64  -0.78  0.0747039392451
0.64  -0.76  0.0907270121317
0.64  -0.74  0.110186836377
0.64  -0.72  0.133820552728
0.64  -0.7  0.162523409522
0.64  -0.68  0.197382674814
0.64  -0.66  0.239718822239
0.64  -0.64  0.291135550725
0.64  -0.62  0.353580532828
0.64  -0.6  0.429419192824
0.64  -0.58  0.521524309301
0.64  -0.56  0.633384836396
0.64  -0.54  0.769238065843
0.64  -0.52  0.934230136149
0.64  -0.5  1.13461096902
0.64  -0.48  1.3779710172
0.64  -0.46  1.6735287919
0.64  -0.44  2.03248006115
0.64  -0.42  2.46842194707
0.64  -0.4  2.99786798663
0.64  -0.38  3.64087366664
0.64  -0.36  4.42179612831
0.64  -0.34  5.37021681896
0.64  -0.32  6.52206204126
0.64  -0.3  7.92096384636
0.64  -0.28  9.6199128218
0.64  -0.26  11.6832653821
0.64  -0.24  14.1891815983
0.64  -0.22  17.2325859121
0.64  -0.2  10.7531648593
0.64  -0.18  10.166022445
0.64  -0.16  9.52483456429
0.64  -0.14  8.84366811399
0.64  -0.12  8.1402955547
0.64  -0.1  7.43749082677
0.64  -0.08  6.76475532962
0.64  -0.06  6.16009926907
0.64  -0.04  5.67041279918
0.64  -0.02  5.3471177164
0.64  6.17561557e-16  5.23353400589
0.64  0.02  5.3471177164
0.64  0.04  5.67041279918
0.64  0.06  6.16009926907
0.64  0.08  6.76475532963
0.64  0.1  7.43749082677
0.64  0.12  8.1402955547
0.64  0.14  8.84366811399
0.64  0.16  9.52483456429
0.64  0.18  10.166022445
0.64  0.2  20.9287628859
0.64  0.22  17.2325859121
0.64  0.24  14.1891815983
0.64  0.26  11.6832653821
0.64  0.28  9.6199128218
0.64  0.3  7.92096384636
0.64  0.32  6.52206204126
0.64  0.34  5.37021681896
0.64  0.36  4.42179612831
0.64  0.38  3.64087366664
0.64  0.4  2.99786798663
0.64  0.42  2.46842194707
0.64  0.44  2.03248006115
0.64  0.46  1.6735287919
0.64  0.48  1.3779710172
0.64  0.5  1.13461096902
0.64  0.52  0.934230136149
0.64  0.54  0.769238065843
0.64  0.56  0.633384836396
0.64  0.58  0.521524309301
0.64  0.6  0.429419192824
0.64  0.62  0.353580532828
0.64  0.64  0.291135550725
0.64  0.66  0.239718822239
0.64  0.68  0.197382674814
0.64  0.7  0.162523409522
0.64  0.72  0.133820552728
0.64  0.74  0.110186836377
0.64  0.76  0.0907270121317
0.64  0.78  0.0747039392451
0.64  0.8  0.0615106615728
0.64  0.82  0.0506474159911
0.64  0.84  0.0417027013039
0.64  0.86  0.034337690522
0.64  0.88  0.0282733960515
0.64  0.9  0.0232801016066
0.64  0.92  0.0191686605254
0.64  0.94  0.0157833308698
0.64  0.96  0.0129958758994
0.64  0.98  0.0107007064469
0.66  -1  0.00758000581321
0.66  -0.98  0.00920582349903
0.66  -0.96  0.0111803590108
0.66  -0.94  0.0135784080178
0.66  -0.92  0.0164908089373
0.66  -0.9  0.020027883906
0.66  -0.88  0.0243236177967
0.66  -0.86  0.0295407335842
0.66  -0.84  0.0358768563125
0.66  -0.82  0.0435719991583
0.66  -0.8  0.0529176551622
0.66  -0.78  0.0642678390242
0.66  -0.76  0.0780524972277
0.66  -0.74  0.0947937944698
0.66  -0.72  0.11512589333
0.66  -0.7  0.139818976434
0.66  -0.68  0.169808421073
0.66  -0.66  0.206230231423
0.66  -0.64  0.250464070534
0.66  -0.62  0.304185522149
0.66  -0.6  0.369429562044
0.66  -0.58  0.44866764318
0.66  -0.56  0.544901314673
0.66  -0.54  0.661775920874
0.66  -0.52  0.803718687506
0.66  -0.5  0.97610642556
0.66  -0.48  1.18546920562
0.66  -0.46  1.43973771781
0.66  -0.44  1.74854368739
0.66  -0.42  2.1235847258
0.66  -0.4  2.57906743777
0.66  -0.38  3.13224556937
0.66  -0.36  3.80407358225
0.66  -0.34  4.62000041141
0.66  -0.32  5.61093347432
0.66  -0.3  6.814409448
0.66  -0.28  8.27601616335
0.66  -0.26  10.0511194783
0.66  -0.24  12.206960544
0.66  -0.22  14.8252029084
0.66  -0.2  9.25095349941
0.66  -0.18  8.74583456529
0.66  -0.16  8.19422028739
0.66  -0.14  7.60821242463
0.66  -0.12  7.00310063439
0.66  -0.1  6.39847734978
0.66  -0.08  5.81972264054
0.66  -0.06  5.29953670715
0.66  -0.04  4.8782591743
0.66  -0.02  4.60012824108
0.66  6.17561557e-16  4.50241211396
0.66  0.02  4.60012824108
0.66  0.04  4.8782591743
0.66  0.06  5.29953670715
0.66  0.08  5.81972264054
0.66  0.1  6.39847734978
0.66  0.12  7.0031006344
0.66  0.14  7.60821242463
0.66  0.16  8.19422028739
0.66  0.18  8.74583456529
0.66  0.2  18.0050259426
0.66  0.22  14.8252029084
0.66  0.24  12.206960544
0.66  0.26  10.0511194783
0.66  0.28  8.27601616335
0.66  0.3  6.814409448
0.66  0.32  5.61093347432
0.66  0.34  4.62000041141
0.66  0.36  3.80407358225
0.66  0.38  3.13224556937
0.66  0.4  2.57906743777
0.66  0.42  2.1235847258
0.66  0.44  1.74854368739
0.66  0.46  1.43973771781
0.66  0.48  1.18546920562
0.66  0.5  0.97610642556
0.66  0.52  0.803718687506
0.66  0.54  0.661775920874
0.66  0.56  0.544901314673
0.66  0.58  0.44866764318
0.66  0.6  0.369429562044
0.66  0.62  0.304185522149
0.66  0.64  0.250464070534
0.66  0.66  0.206230231423
0.66  0.68  0.169808421073
0.66  0.7  0.139818976434
0.66  0.72  0.11512589333
0.66  0.74  0.0947937944698
0.66  0.76  0.0780524972277
0.66  0.78  0.0642678390242
0.66  0.8  0.0529176551622
0.66  0.82  0.0435719991583
0.66  0.84  0.0358768563125
0.66  0.86  0.0295407335842
0.66  0.88  0.0243236177967
0.66  0.9  0.020027883906
0.66  0.92  0.0164908089373
0.66  0.94  0.0135784080178
0.66  0.96  0.0111803590108
0.66  0.98  0.00920582349903
0.68  -1  0.00652108306909
0.68  -0.98  0.00791977489674
0.68  -0.96  0.00961846885717
0.68  -0.94  0.0116815117049
0.68  -0.92  0.014187051779
0.68  -0.9  0.0172299992727
0.68  -0.88  0.0209256214444
0.68  -0.86  0.0254139089562
0.68  -0.84  0.0308648787398
0.68  -0.82  0.0374850142598
0.68  -0.8  0.0455250871356
0.68  -0.78  0.0552896564034
0.68  -0.76  0.0671486052537
0.68  -0.74  0.0815511522557
0.68  -0.72  0.0990428678169
0.68  -0.7  0.120286340463
0.68  -0.68  0.146086275781
0.68  -0.66  0.177419978772
0.68  -0.64  0.215474374298
0.68  -0.62  0.261690967953
0.68  -0.6  0.31782045049
0.68  -0.58  0.385989014216
0.68  -0.56  0.468778893447
0.68  -0.54  0.569326179886
0.68  -0.52  0.691439618196
0.68  -0.5  0.83974488176
0.68  -0.48  1.01985979381
0.68  -0.46  1.2386071313
0.68  -0.44  1.50427307266
0.68  -0.42  1.82692107928
0.68  -0.4  2.21877310084
0.68  -0.38  2.69467254433
0.68  -0.36  3.27264654435
0.68  -0.34  3.97458883337
0.68  -0.32  4.8270890792
0.68  -0.3  5.86244010523
0.68  -0.28  7.11986114685
0.68  -0.26  8.64698348138
0.68  -0.24  10.5016547072
0.68  -0.22  12.7541300184
0.68  -0.2  7.95860026029
0.68  -0.18  7.52404617018
0.68  -0.16  7.04949211086
0.68  -0.14  6.54534923204
0.68  -0.12  6.02477123415
0.68  -0.1  5.50461349791
0.68  -0.08  5.00671051095
0.68  -0.06  4.55919427328
0.68  -0.04  4.19676898568
0.68  -0.02  3.95749279457
0.68  6.17561557e-16  3.87342755797
0.68  0.02  3.95749279457
0.68  0.04  4.19676898568
0.68  0.06  4.55919427328
0.68  0.08  5.00671051095
0.68  0.1  5.50461349791
0.68  0.12  6.02477123415
0.68  0.14  6.54534923204
0.68  0.16  7.04949211086
0.68  0.18  7.52404617018
0.68  0.2  15.4897334813
0.68  0.22  12.7541300184
0.68  0.24  10.5016547072
0.68  0.26  8.64698348138
0.68  0.28  7.11986114685
0.68  0.3  5.86244010523
0.68  0.32  4.8270890792
0.68  0.34  3.97458883337
0.68  0.36  3.27264654435
0.68  0.38  2.69467254433
0.68  0.4  2.21877310084
0.68  0.42  1.82692107928
0.68  0.44  1.50427307266
0.68  0.46  1.2386071313
0.68  0.48  1.01985979381
0.68  0.5  0.83974488176
0.68  0.52  0.691439618196
0.68  0.54  0.569326179886
0.68  0.56  0.468778893447
0.68  0.58  0.385989014216
0.68  0.6  0.31782045049
0.68  0.62  0.261690967953
0.68  0.64  0.215474374298
0.68  0.66  0.177419978772
0.68  0.68  0.146086275781
0.68  0.7  0.120286340463
0.68  0.72  0.0990428678169
0.68  0.74  0.0815511522557
0.68  0.76  0.0671486052537
0.68  0.78  0.0552896564034
0.68  0.8  0.0455250871356
0.68  0.82  0.0374850142598
0.68  0.84  0.0308648787398
0.68  0.86  0.0254139089562
0.68  0.88  0.0209256214444
0.68  0.9  0.0172299992727
0.68  0.92  0.014187051779
0.68  0.94  0.0116815117049
0.68  0.96  0.00961846885717
0.68  0.98  0.00791977489674
0.7  -1  0.00561009126404
0.7  -0.98  0.006813386594
0.7  -0.96  0.0082747739198
0.7  -0.94  0.0100496107889
0.7  -0.92  0.0122051282593
0.7  -0.9  0.0148229776212
0.7  -0.88  0.0180023233588
0.7  -0.86  0.021863599514
0.7  -0.84  0.0265530717442
0.7  -0.82  0.0322483778849
0.7  -0.8  0.0391652568948
0.7  -0.78  0.0475657210764
0.7  -0.76  0.0577679811367
0.7  -0.74  0.0701585000519
0.7  -0.72  0.0852066323366
0.7  -0.7  0.103482403255
0.7  -0.68  0.125678101455
0.7  -0.66  0.152634502954
0.7  -0.64  0.185372719848
0.7  -0.62  0.225132880173
0.7  -0.6  0.273421104122
0.7  -0.58  0.33206655608
0.7  -0.56  0.403290733614
0.7  -0.54  0.489791618098
0.7  -0.52  0.594845874612
0.7  -0.5  0.722432972447
0.7  -0.48  0.877385927942
0.7  -0.46  1.06557437978
0.7  -0.44  1.29412693171
0.7  -0.42  1.57170118497
0.7  -0.4  1.90881168941
0.7  -0.38  2.31822823604
0.7  -0.36  2.81545957845
0.7  -0.34  3.4193409064
0.7  -0.32  4.15274732541
0.7  -0.3  5.04346036875
0.7  -0.28  6.12522036568
0.7  -0.26  7.43900452964
0.7  -0.24  9.03457918054
0.7  -0.22  10.9723848996
0.7  -0.2  6.8467880751
0.7  -0.18  6.47294095816
0.7  -0.16  6.06468184625
0.7  -0.14  5.63096745704
0.7  -0.12  5.18311392608
0.7  -0.1  4.73562194643
0.7  -0.08  4.30727573954
0.7  -0.06  3.9222772801
0.7  -0.04  3.61048261068
0.7  -0.02  3.40463317505
0.7  6.17561557e-16  3.33231180689
0.7  0.02  3.40463317505
0.7  0.04  3.61048261068
0.7  0.06  3.9222772801
0.7  0.08  4.30727573954
0.7  0.1  4.73562194643
0.7  0.12  5.18311392608
0.7  0.14  5.63096745704
0.7  0.16  6.06468184625
0.7  0.18  6.47294095816
0.7  0.2  13.3258260269
0.7  0.22  10.9723848996
0.7  0.24  9.03457918054
0.7  0.26  7.43900452964
0.7  0.28  6.12522036568
0.7  0.3  5.04346036874
0.7  0.32  4.15274732541
0.7  0.34  3.4193409064
0.7  0.36  2.81545957845
0.7  0.38  2.31822823604
0.7  0.4  1.90881168941
0.7  0.42  1.57170118497
0.7  0.44  1.29412693171
0.7  0.46  1.06557437978
0.7  0.48  0.877385927942
0.7  0.5  0.722432972447
0.7  0.52  0.594845874612
0.7  0.54  0.489791618098
0.7  0.56  0.403290733614
0.7  0.58  0.33206655608
0.7  0.6  0.273421104122
0.7  0.62  0.225132880173
0.7  0.64  0.185372719848
0.7  0.66  0.152634502954
0.7  0.68  0.125678101455
0.7  0.7  0.103482403255
0.7  0.72  0.0852066323366
0.7  0.74  0.0701585000519
0.7  0.76  0.0577679811367
0.7  0.78  0.0475657210764
0.7  0.8  0.0391652568948
0.7  0.82  0.0322483778849
0.7  0.84  0.0265530717442
0.7  0.86  0.021863599514
0.7  0.88  0.0180023233588
0.7  0.9  0.0148229776212
0.7  0.92  0.0122051282593
0.7  0.94  0.0100496107889
0.7  0.96  0.0082747739198
0.7  0.98  0.006813386594
0.72  -1  0.00482636452524
0.72  -0.98  0.00586156014339
0.72  -0.96  0.00711879244406
0.72  -0.94  0.00864568555502
0.72  -0.92  0.0105000783916
0.72  -0.9  0.0127522156026
0.72  -0.88  0.015487408447
0.72  -0.86  0.0188092663955
0.72  -0.84  0.0228436218719
0.72  -0.82  0.0277432968013
0.72  -0.8  0.0336938915256
0.72  -0.78  0.0409208153693
0.72  -0.76  0.0496978251744
0.72  -0.74  0.0603573952469
0.72  -0.72  0.0733033115273
0.72  -0.7  0.0890259670565
0.72  -0.68  0.10812093813
0.72  -0.66  0.131311544806
0.72  -0.64  0.15947625037
0.72  -0.62  0.193681937636
0.72  -0.6  0.235224322614
0.72  -0.58  0.285677036407
0.72  -0.56  0.346951234564
0.72  -0.54  0.421367991908
0.72  -0.52  0.511746225167
0.72  -0.5  0.621509473907
0.72  -0.48  0.754815584679
0.72  -0.46  0.916714210795
0.72  -0.44  1.11333809387
0.72  -0.42  1.35213537292
0.72  -0.4  1.64215172081
0.72  -0.38  1.9943729956
0.72  -0.36  2.42214138632
0.72  -0.34  2.94166081685
0.72  -0.32  3.57261075272
0.72  -0.3  4.33889166192
0.72  -0.28  5.26953036784
0.72  -0.26  6.39977958917
0.72  -0.24  7.77245331764
0.72  -0.22  9.43954861775
0.72  -0.2  5.8902954555
0.72  -0.18  5.56867458017
0.72  -0.16  5.21744904709
0.72  -0.14  4.84432432528
0.72  -0.12  4.45903569225
0.72  -0.1  4.074058102
0.72  -0.08  3.70555163033
0.72  -0.06  3.37433724906
0.72  -0.04  3.10610012762
0.72  -0.02  2.92900774767
0.72  6.17561557e-16  2.86678963583
0.72  0.02  2.92900774767
0.72  0.04  3.10610012762
0.72  0.06  3.37433724906
0.72  0.08  3.70555163033
0.72  0.1  4.074058102
0.72  0.12  4.45903569225
0.72  0.14  4.84432432528
0.72  0.16  5.21744904709
0.72  0.18  5.56867458017
0.72  0.2  11.4642152825
0.72  0.22  9.43954861775
0.72  0.24  7.77245331764
0.72  0.26  6.39977958917
0.72  0.28  5.26953036784
0.72  0.3  4.33889166192
0.72  0.32  3.57261075272
0.72  0.34  2.94166081685
0.72  0.36  2.42214138632
0.72  0.38  1.9943729956
0.72  0.4  1.64215172081
0.72  0.42  1.35213537292
0.72  0.44  1.11333809387
0.72  0.46  0.916714210795
0.72  0.48  0.754815584679
0.72  0.5  0.621509473907
0.72  0.52  0.511746225167
0.72  0.54  0.421367991908
0.72  0.56  0.346951234564
0.72  0.58  0.285677036407
0.72  0.6  0.235224322614
0.72  0.62  0.193681937636
0.72  0.64  0.15947625037
0.72  0.66  0.131311544806
0.72  0.68  0.10812093813
0.72  0.7  0.0890259670565
0.72  0.72  0.0733033115273
0.72  0.74  0.0603573952469
0.72  0.76  0.0496978251744
0.72  0.78  0.0409208153693
0.72  0.8  0.0336938915256
0.72  0.82  0.0277432968013
0.72  0.84  0.0228436218719
0.72  0.86  0.0188092663955
0.72  0.88  0.015487408447
0.72  0.9  0.0127522156026
0.72  0.92  0.0105000783916
0.72  0.94  0.00864568555502
0.72  0.96  0.00711879244406
0.72  0.98  0.00586156014339
0.74  -1  0.00415212399125
0.74  -0.98  0.0050427033371
0.74  -0.96  0.00612430096009
0.74  -0.94  0.0074378879229
0.74  -0.92  0.00903322307544
0.74  -0.9  0.0109707379267
0.74  -0.88  0.0133238257986
0.74  -0.86  0.0161816219745
0.74  -0.84  0.0196523801559
0.74  -0.82  0.0238675731272
0.74  -0.8  0.0289868729621
0.74  -0.78  0.0352041994233
0.74  -0.76  0.0427550656691
0.74  -0.74  0.0519254995231
0.74  -0.72  0.0630628782469
0.74  -0.7  0.0765890872366
0.74  -0.68  0.0930165010987
0.74  -0.66  0.112967392468
0.74  -0.64  0.13719750378
0.74  -0.62  0.166624674892
0.74  -0.6  0.202363610984
0.74  -0.58  0.245768107737
0.74  -0.56  0.298482333295
0.74  -0.54  0.362503109576
0.74  -0.52  0.440255552152
0.74  -0.5  0.53468493395
0.74  -0.48  0.649368252589
0.74  -0.46  0.788649727523
0.74  -0.44  0.957805359659
0.74  -0.42  1.16324278698
0.74  -0.4  1.41274400671
0.74  -0.38  1.71576015844
0.74  -0.36  2.08376953455
0.74  -0.34  2.53071237945
0.74  -0.32  3.07351894789
0.74  -0.3  3.73275082532
0.74  -0.28  4.53337980347
0.74  -0.26  5.50573381515
0.74  -0.24  6.68664576043
0.74  -0.22  8.12084874181
0.74  -0.2  5.06742434153
0.74  -0.18  4.79073372988
0.74  -0.16  4.48857421528
0.74  -0.14  4.16757481686
0.74  -0.12  3.83611079909
0.74  -0.1  3.50491437159
0.74  -0.08  3.18788805625
0.74  -0.06  2.90294414628
0.74  -0.04  2.67217960675
0.74  -0.02  2.51982693725
0.74  6.17561557e-16  2.46630066224
0.74  0.02  2.51982693725
0.74  0.04  2.67217960675
0.74  0.06  2.90294414628
0.74  0.08  3.18788805625
0.74  0.1  3.50491437159
0.74  0.12  3.83611079909
0.74  0.14  4.16757481686
0.74  0.16  4.48857421528
0.74  0.18  4.79073372988
0.74  0.2  9.86267056012
0.74  0.22  8.12084874181
0.74  0.24  6.68664576043
0.74  0.26  5.50573381515
0.74  0.28  4.53337980347
0.74  0.3  3.73275082532
0.74  0.32  3.07351894789
0.74  0.34  2.53071237945
0.74  0.36  2.08376953455
0.74  0.38  1.71576015844
0.74  0.4  1.41274400671
0.74  0.42  1.16324278698
0.74  0.44  0.957805359659
0.74  0.46  0.788649727523
0.74  0.48  0.649368252589
0.74  0.5  0.53468493395
0.74  0.52  0.440255552152
0.74  0.54  0.362503109576
0.74  0.56  0.298482333295
0.74  0.58  0.245768107737
0.74  0.6  0.202363610984
0.74  0.62  0.166624674892
0.74  0.64  0.13719750378
0.74  0.66  0.112967392468
0.74  0.68  0.0930165010987
0.74  0.7  0.0765890872366
0.74  0.72  0.0630628782469
0.74  0.74  0.0519254995231
0.74  0.76  0.0427550656691
0.74  0.78  0.0352041994233
0.74  0.8  0.0289868729621
0.74  0.82  0.0238675731272
0.74  0.84  0.0196523801559
0.74  0.86  0.0161816219745
0.74  0.88  0.0133238257986
0.74  0.9  0.0109707379267
0.74  0.92  0.00903322307544
0.74  0.94  0.0074378879229
0.74  0.96  0.00612430096009
0.74  0.98  0.0050427033371
0.76  -1  0.00357207449801
0.76  -0.98  0.0043382403872
0.76  -0.96  0.00526873940272
0.76  -0.94  0.00639881897179
0.76  -0.92  0.00777128665969
0.76  -0.9  0.00943813172608
0.76  -0.88  0.0114624944851
0.76  -0.86  0.0139210580689
0.76  -0.84  0.0169069531951
0.76  -0.82  0.0205332859705
0.76  -0.8  0.0249374223658
0.76  -0.78  0.030286191657
0.76  -0.76  0.0367822059406
0.76  -0.74  0.0446715351068
0.76  -0.72  0.054253028
0.76  -0.7  0.065889632853
0.76  -0.68  0.0800221458148
0.76  -0.66  0.0971859083671
0.76  -0.64  0.118031086132
0.76  -0.62  0.143347297233
0.76  -0.6  0.174093523133
0.76  -0.58  0.211434434983
0.76  -0.56  0.256784511521
0.76  -0.54  0.311861619714
0.76  -0.52  0.37875208779
0.76  -0.5  0.459989735629
0.76  -0.48  0.558651856201
0.76  -0.46  0.678475783836
0.76  -0.44  0.824000464944
0.76  -0.42  1.00073839392
0.76  -0.4  1.21538442715
0.76  -0.38  1.47606938511
0.76  -0.36  1.79266804888
0.76  -0.34  2.17717321821
0.76  -0.32  2.64415000035
0.76  -0.3  3.21128753829
0.76  -0.28  3.90006907787
0.76  -0.26  4.73658575596
0.76  -0.24  5.75252493625
0.76  -0.22  6.98637053083
0.76  -0.2  4.35950788057
0.76  -0.18  4.12147079888
0.76  -0.16  3.8615228063
0.76  -0.14  3.58536685158
0.76  -0.12  3.30020817919
0.76  -0.1  3.01527971488
0.76  -0.08  2.74254180564
0.76  -0.06  2.49740440698
0.76  -0.04  2.29887754978
0.76  -0.02  2.16780846644
