-0.24  -0.16  14.6591291649
-0.24  -0.14  13.0917102476
-0.24  -0.12  11.5562314059
-0.24  -0.1  10.0704734779
-0.24  -0.08  8.66317981939
-0.24  -0.06  7.3823774314
-0.24  -0.04  6.30835786122
-0.24  -0.02  5.56444255809
-0.24  6.17561557e-16  5.29313262196
-0.24  0.02  5.56444255809
-0.24  0.04  6.30835786122
-0.24  0.06  7.3823774314
-0.24  0.08  8.66317981939
-0.24  0.1  10.0704734779
-0.24  0.12  11.5562314059
-0.24  0.14  13.0917102476
-0.24  0.16  14.6591291649
-0.24  0.18  16.2470003786
-0.24  0.2  42.2604467396
-0.24  0.22  33.0572626338
-0.24  0.24  25.8582835051
-0.24  0.26  20.2270476305
-0.24  0.28  15.8221428644
-0.24  0.3  12.3765074071
-0.24  0.32  9.68123830698
-0.24  0.34  7.57292603428
-0.24  0.36  5.92374724206
-0.24  0.38  4.63371505663
-0.24  0.4  3.62461704538
-0.24  0.42  2.83527333145
-0.24  0.44  2.21782736312
-0.24  0.46  1.73484445327
-0.24  0.48  1.3570421788
-0.24  0.5  1.0615150376
-0.24  0.52  0.830345727391
-0.24  0.54  0.649518850484
-0.24  0.56  0.508071184348
-0.24  0.58  0.397427000268
-0.24  0.6  0.310878131663
-0.24  0.62  0.243177269488
-0.24  0.64  0.190219826913
-0.24  0.66  0.148795085276
-0.24  0.68  0.116391533741
-0.24  0.7  0.0910446007098
-0.24  0.72  0.0712175452286
-0.24  0.74  0.0557082870246
-0.24  0.76  0.043576526448
-0.24  0.78  0.034086735721
-0.24  0.8  0.0266635651535
-0.24  0.82  0.0208569606816
-0.24  0.84  0.0163148778631
-0.24  0.86  0.0127619380288
-0.24  0.88  0.00998273254738
-0.24  0.9  0.00780876297062
-0.24  0.92  0.00610822526217
-0.24  0.94  0.00477801874558
-0.24  0.96  0.00373749528762
-0.24  0.98  0.00292356974068
-0.22  -1  0.00271325499382
-0.22  -0.98  0.00346862864682
-0.22  -0.96  0.00443429928884
-0.22  -0.94  0.00566881387002
-0.22  -0.92  0.00724701888611
-0.22  -0.9  0.00926459819283
-0.22  -0.88  0.0118438741534
-0.22  -0.86  0.0151412238332
-0.22  -0.84  0.0193565598719
-0.22  -0.82  0.0247454508436
-0.22  -0.8  0.0316346159392
-0.22  -0.78  0.0404417333896
-0.22  -0.76  0.0517007635779
-0.22  -0.74  0.0660943221398
-0.22  -0.72  0.0844950657747
-0.22  -0.7  0.108018599921
-0.22  -0.68  0.138091115995
-0.22  -0.66  0.176535858923
-0.22  -0.64  0.225683667347
-0.22  -0.62  0.28851428836
-0.22  -0.6  0.368837034448
-0.22  -0.58  0.471521735557
-0.22  -0.56  0.602793988504
-0.22  -0.54  0.770612604204
-0.22  -0.52  0.985152136689
-0.22  -0.5  1.25941974882
-0.22  -0.48  1.61004381419
-0.22  -0.46  2.05828206684
-0.22  -0.44  2.63131042108
-0.22  -0.42  3.36387060045
-0.22  -0.4  4.30037646867
-0.22  -0.38  5.49760676579
-0.22  -0.36  7.02814750557
-0.22  -0.34  8.98479274062
-0.22  -0.32  11.4861705062
-0.22  -0.3  14.6839350341
-0.22  -0.28  18.7719612876
-0.22  -0.26  23.9980992673
-0.22  -0.24  30.6792007302
-0.22  -0.22  39.2203293671
-0.22  -0.2  21.1749872454
-0.22  -0.18  19.2760275748
-0.22  -0.16  17.3921198634
-0.22  -0.14  15.5324774945
-0.22  -0.12  13.710729984
-0.22  -0.1  11.9479731598
-0.22  -0.08  10.2783091766
-0.22  -0.06  8.75871900159
-0.22  -0.04  7.48446342406
-0.22  -0.02  6.60185546183
-0.22  6.17561557e-16  6.27996356252
-0.22  0.02  6.60185546183
-0.22  0.04  7.48446342406
-0.22  0.06  8.75871900159
-0.22  0.08  10.2783091766
-0.22  0.1  11.9479731598
-0.22  0.12  13.710729984
-0.22  0.14  15.5324774945
-0.22  0.16  17.3921198634
-0.22  0.18  19.2760275748
-0.22  0.2  50.1393191168
-0.22  0.22  39.2203293671
-0.22  0.24  30.6792007302
-0.22  0.26  23.9980992673
-0.22  0.28  18.7719612876
-0.22  0.3  14.6839350341
-0.22  0.32  11.4861705062
-0.22  0.34  8.98479274062
-0.22  0.36  7.02814750557
-0.22  0.38  5.49760676579
-0.22  0.4  4.30037646867
-0.22  0.42  3.36387060045
-0.22  0.44  2.63131042108
-0.22  0.46  2.05828206684
-0.22  0.48  1.61004381419
-0.22  0.5  1.25941974882
-0.22  0.52  0.985152136689
-0.22  0.54  0.770612604204
-0.22  0.56  0.602793988504
-0.22  0.58  0.471521735557
-0.22  0.6  0.368837034448
-0.22  0.62  0.28851428836
-0.22  0.64  0.225683667347
-0.22  0.66  0.176535858923
-0.22  0.68  0.138091115995
-0.22  0.7  0.108018599921
-0.22  0.72  0.0844950657747
-0.22  0.74  0.0660943221398
-0.22  0.76  0.0517007635779
-0.22  0.78  0.0404417333896
-0.22  0.8  0.0316346159392
-0.22  0.82  0.0247454508436
-0.22  0.84  0.0193565598719
-0.22  0.86  0.0151412238332
-0.22  0.88  0.0118438741534
-0.22  0.9  0.00926459819283
-0.22  0.92  0.00724701888611
-0.22  0.94  0.00566881387002
-0.22  0.96  0.00443429928884
-0.22  0.98  0.00346862864682
-0.2  -1  0.00321910364125
-0.2  -0.98  0.00411530620328
-0.2  -0.96  0.00526101270232
-0.2  -0.94  0.00672568535288
-0.2  -0.92  0.00859812473861
-0.2  -0.9  0.010991853639
-0.2  -0.88  0.0140519997201
-0.2  -0.86  0.0179640943757
-0.2  -0.84  0.0229653211762
-0.2  -0.82  0.0293588959005
-0.2  -0.8  0.0375324499878
-0.2  -0.78  0.0479815319642
-0.2  -0.76  0.0613396516982
-0.2  -0.74  0.0784166890142
-0.2  -0.72  0.100247995313
-0.2  -0.7  0.128157165147
-0.2  -0.68  0.163836283481
-0.2  -0.66  0.209448513895
-0.2  -0.64  0.267759247466
-0.2  -0.62  0.342303763682
-0.2  -0.6  0.437601568347
-0.2  -0.58  0.559430403453
-0.2  -0.56  0.715176541733
-0.2  -0.54  0.914282603677
-0.2  -0.52  1.16882004737
-0.2  -0.5  1.49422104024
-0.2  -0.48  1.9102140848
-0.2  -0.46  2.44202012387
-0.2  -0.44  3.12188164292
-0.2  -0.42  3.99101747653
-0.2  -0.4  5.10212183543
-0.2  -0.38  6.52255906587
-0.2  -0.36  8.33844783406
-0.2  -0.34  10.6598823528
-0.2  -0.32  13.6276072042
-0.2  -0.3  17.4215504417
-0.2  -0.28  22.2717323185
-0.2  -0.26  28.4722110198
-0.2  -0.24  36.3989109046
-0.2  -0.22  46.5324141536
-0.2  -0.2  25.1227690359
-0.2  -0.18  22.8697747526
-0.2  -0.16  20.6346386568
-0.2  -0.14  18.4282918391
-0.2  -0.12  16.266904849
-0.2  -0.1  14.1755065381
-0.2  -0.08  12.1945569332
-0.2  -0.06  10.3916603102
-0.2  -0.04  8.87983750739
-0.2  -0.02  7.83267956923
-0.2  6.17561557e-16  7.45077540338
-0.2  0.02  7.83267956923
-0.2  0.04  8.87983750739
-0.2  0.06  10.3916603102
-0.2  0.08  12.1945569332
-0.2  0.1  14.1755065381
-0.2  0.12  16.266904849
-0.2  0.14  18.4282918391
-0.2  0.16  20.6346386568
-0.2  0.18  22.8697747526
-0.2  0.2  59.4870976398
-0.2  0.22  46.5324141536
-0.2  0.24  36.3989109046
-0.2  0.26  28.4722110198
-0.2  0.28  22.2717323185
-0.2  0.3  17.4215504417
-0.2  0.32  13.6276072042
-0.2  0.34  10.6598823528
-0.2  0.36  8.33844783406
-0.2  0.38  6.52255906587
-0.2  0.4  5.10212183543
-0.2  0.42  3.99101747653
-0.2  0.44  3.12188164292
-0.2  0.46  2.44202012387
-0.2  0.48  1.9102140848
-0.2  0.5  1.49422104024
-0.2  0.52  1.16882004737
-0.2  0.54  0.914282603677
-0.2  0.56  0.715176541733
-0.2  0.58  0.559430403453
-0.2  0.6  0.437601568347
-0.2  0.62  0.342303763682
-0.2  0.64  0.267759247466
-0.2  0.66  0.209448513895
-0.2  0.68  0.163836283481
-0.2  0.7  0.128157165147
-0.2  0.72  0.100247995313
-0.2  0.74  0.0784166890142
-0.2  0.76  0.0613396516982
-0.2  0.78  0.0479815319642
-0.2  0.8  0.0375324499878
-0.2  0.82  0.0293588959005
-0.2  0.84  0.0229653211762
-0.2  0.86  0.0179640943757
-0.2  0.88  0.0140519997201
-0.2  0.9  0.010991853639
-0.2  0.92  0.00859812473861
-0.2  0.94  0.00672568535288
-0.2  0.96  0.00526101270232
-0.2  0.98  0.00411530620328
-0.18  -1  0.00381926073175
-0.18  -0.98  0.00488254779371
-0.18  -0.96  0.0062418553307
-0.18  -0.94  0.00797959582078
-0.18  -0.92  0.010201125481
-0.18  -0.9  0.0130411318339
-0.18  -0.88  0.0166717995799
-0.18  -0.86  0.0213132498599
-0.18  -0.84  0.0272468858213
-0.18  -0.82  0.0348324536071
-0.18  -0.8  0.0445298531454
-0.18  -0.78  0.0569270210912
-0.18  -0.76  0.0727755764146
-0.18  -0.74  0.0930363897664
-0.18  -0.72  0.118937839413
-0.18  -0.7  0.152050285697
-0.18  -0.68  0.194381279285
-0.18  -0.66  0.248497275512
-0.18  -0.64  0.317679234153
-0.18  -0.62  0.406121538371
-0.18  -0.6  0.519186292956
-0.18  -0.58  0.663728419513
-0.18  -0.56  0.848511258572
-0.18  -0.54  1.08473787585
-0.18  -0.52  1.38673028485
-0.18  -0.5  1.77279776594
-0.18  -0.48  2.26634692646
-0.18  -0.46  2.89730080316
-0.18  -0.44  3.70391304436
-0.18  -0.42  4.73508716294
-0.18  -0.4  6.05334147213
-0.18  -0.38  7.7385994634
-0.18  -0.36  9.8930354302
-0.18  -0.34  12.6472691197
-0.18  -0.32  16.1682849834
-0.18  -0.3  20.6695561571
-0.18  -0.28  26.4239869702
-0.18  -0.26  33.7804586657
-0.18  -0.24  43.1849814697
-0.18  -0.22  55.2077354246
-0.18  -0.2  29.8065598206
-0.18  -0.18  27.1335260963
-0.18  -0.16  24.4816799702
-0.18  -0.14  21.8639904825
-0.18  -0.12  19.2996429568
-0.18  -0.1  16.8183325258
-0.18  -0.08  14.4680624256
-0.18  -0.06  12.3290408087
-0.18  -0.04  10.5353596764
-0.18  -0.02  9.29297370853
-0.18  6.17561557e-16  8.83986882391
-0.18  0.02  9.29297370853
-0.18  0.04  10.5353596764
-0.18  0.06  12.3290408087
-0.18  0.08  14.4680624256
-0.18  0.1  16.8183325258
-0.18  0.12  19.2996429568
-0.18  0.14  21.8639904825
-0.18  0.16  24.4816799702
-0.18  0.18  27.1335260963
-0.18  0.2  70.5776394243
-0.18  0.22  55.2077354246
-0.18  0.24  43.1849814697
-0.18  0.26  33.7804586657
-0.18  0.28  26.4239869702
-0.18  0.3  20.6695561571
-0.18  0.32  16.1682849834
-0.18  0.34  12.6472691197
-0.18  0.36  9.8930354302
-0.18  0.38  7.7385994634
-0.18  0.4  6.05334147213
-0.18  0.42  4.73508716294
-0.18  0.44  3.70391304436
-0.18  0.46  2.89730080316
-0.18  0.48  2.26634692646
-0.18  0.5  1.77279776594
-0.18  0.52  1.38673028485
-0.18  0.54  1.08473787585
-0.18  0.56  0.848511258572
-0.18  0.58  0.663728419513
-0.18  0.6  0.519186292956
-0.18  0.62  0.406121538371
-0.18  0.64  0.317679234153
-0.18  0.66  0.248497275512
-0.18  0.68  0.194381279285
-0.18  0.7  0.152050285697
-0.18  0.72  0.118937839413
-0.18  0.74  0.0930363897664
-0.18  0.76  0.0727755764146
-0.18  0.78  0.0569270210912
-0.18  0.8  0.0445298531454
-0.18  0.82  0.0348324536071
-0.18  0.84  0.0272468858213
-0.18  0.86  0.0213132498599
-0.18  0.88  0.0166717995799
-0.18  0.9  0.0130411318339
-0.18  0.92  0.010201125481
-0.18  0.94  0.00797959582078
-0.18  0.96  0.0062418553307
-0.18  0.98  0.00488254779371
-0.16  -1  0.00453130876254
-0.16  -0.98  0.00579283090499
-0.16  -0.96  0.0074055624219
-0.16  -0.94  0.00946728045131
-0.16  -0.92  0.0121029834113
-0.16  -0.9  0.0154724694392
-0.16  -0.88  0.0197800246774
-0.16  -0.86  0.0252868087913
-0.16  -0.84  0.0323266886305
-0.16  -0.82  0.0413264800013
-0.16  -0.8  0.0528318247755
-0.16  -0.78  0.0675402722183
-0.16  -0.76  0.0863435702005
-0.16  -0.74  0.110381730338
-0.16  -0.72  0.141112144936
-0.16  -0.7  0.180397946177
-0.16  -0.68  0.230620964621
-0.16  -0.66  0.294826135496
-0.16  -0.64  0.376906107882
-0.16  -0.62  0.481837249333
-0.16  -0.6  0.61598135448
-0.16  -0.58  0.787471349698
-0.16  -0.56  1.00670437844
-0.16  -0.54  1.28697216218
-0.16  -0.52  1.6452668546
-0.16  -0.5  2.10331124665
-0.16  -0.48  2.68887578202
-0.16  -0.46  3.43746223134
-0.16  -0.44  4.39445610352
-0.16  -0.42  5.61787829105
-0.16  -0.4  7.18190277695
-0.16  -0.38  9.18135367578
-0.16  -0.36  11.7374542566
-0.16  -0.34  15.0051765012
-0.16  -0.32  19.1826367892
-0.16  -0.3  24.5231073526
-0.16  -0.28  31.3503717366
-0.16  -0.26  40.0783552382
-0.16  -0.24  51.2362204854
-0.16  -0.22  65.5004496575
-0.16  -0.2  35.3635782374
-0.16  -0.18  32.1921945617
-0.16  -0.16  29.0459486173
-0.16  -0.14  25.9402273413
-0.16  -0.12  22.897792894
-0.16  -0.1  19.9538766525
-0.16  -0.08  17.1654313885
-0.16  -0.06  14.6276189488
-0.16  -0.04  12.4995309227
-0.16  -0.02  11.0255193748
-0.16  6.17561557e-16  10.487939388
-0.16  0.02  11.0255193748
-0.16  0.04  12.4995309227
-0.16  0.06  14.6276189488
-0.16  0.08  17.1654313885
-0.16  0.1  19.9538766525
-0.16  0.12  22.897792894
-0.16  0.14  25.9402273413
-0.16  0.16  29.0459486173
-0.16  0.18  32.1921945617
-0.16  0.2  83.7358584355
-0.16  0.22  65.5004496575
-0.16  0.24  51.2362204854
-0.16  0.26  40.0783552382
-0.16  0.28  31.3503717366
-0.16  0.3  24.5231073526
-0.16  0.32  19.1826367892
-0.16  0.34  15.0051765012
-0.16  0.36  11.7374542566
-0.16  0.38  9.18135367578
-0.16  0.4  7.18190277695
-0.16  0.42  5.61787829105
-0.16  0.44  4.39445610352
-0.16  0.46  3.43746223134
-0.16  0.48  2.68887578202
-0.16  0.5  2.10331124665
-0.16  0.52  1.6452668546
-0.16  0.54  1.28697216218
-0.16  0.56  1.00670437844
-0.16  0.58  0.787471349698
-0.16  0.6  0.61598135448
-0.16  0.62  0.481837249333
-0.16  0.64  0.376906107882
-0.16  0.66  0.294826135496
-0.16  0.68  0.230620964621
-0.16  0.7  0.180397946177
-0.16  0.72  0.141112144936
-0.16  0.74  0.110381730338
-0.16  0.76  0.0863435702005
-0.16  0.78  0.0675402722183
-0.16  0.8  0.0528318247755
-0.16  0.82  0.0413264800013
-0.16  0.84  0.0323266886305
-0.16  0.86  0.0252868087913
-0.16  0.88  0.0197800246774
-0.16  0.9  0.0154724694392
-0.16  0.92  0.0121029834113
-0.16  0.94  0.00946728045131
-0.16  0.96  0.0074055624219
-0.16  0.98  0.00579283090499
-0.14  -1  0.00537610824281
-0.14  -0.98  0.00687282363873
-0.14  -0.96  0.00878622651102
-0.14  -0.94  0.0112323231849
-0.14  -0.92  0.0143594162945
-0.14  -0.9  0.0183570961168
-0.14  -0.88  0.0234677351034
-0.14  -0.86  0.0300011825063
-0.14  -0.84  0.0383535500044
-0.14  -0.82  0.0490312272733
-0.14  -0.8  0.0626815835211
-0.14  -0.78  0.0801322163691
-0.14  -0.76  0.102441127673
-0.14  -0.74  0.130960868355
-0.14  -0.72  0.167420541241
-0.14  -0.7  0.214030633588
-0.14  -0.68  0.27361703513
-0.14  -0.66  0.349792366907
-0.14  -0.64  0.447175008268
-0.14  -0.62  0.571669101265
-0.14  -0.6  0.730822508636
-0.14  -0.58  0.934284427733
-0.14  -0.56  1.19439040477
-0.14  -0.54  1.52691021777
-0.14  -0.52  1.95200397108
-0.14  -0.5  2.49544436782
-0.14  -0.48  3.19017926457
-0.14  -0.46  4.07832924321
-0.14  -0.44  5.21374130938
-0.14  -0.42  6.66525354382
-0.14  -0.4  8.52086863678
-0.14  -0.38  10.8930893398
-0.14  -0.36  13.925739314
-0.14  -0.34  17.8026829114
-0.14  -0.32  22.7589725542
-0.14  -0.3  29.0950995588
-0.14  -0.28  37.1952124079
-0.14  -0.26  47.5504070117
-0.14  -0.24  60.7885010088
-0.14  -0.22  77.7120972694
-0.14  -0.2  41.95662543
-0.14  -0.18  38.1939813875
-0.14  -0.16  34.4611616566
-0.14  -0.14  30.7764218548
-0.14  -0.12  27.1667678304
-0.14  -0.1  23.6739993608
-0.14  -0.08  20.3656872695
-0.14  -0.06  17.3547350058
-0.14  -0.04  14.8298945727
-0.14  -0.02  13.0810740778
-0.14  6.17561557e-16  12.4432697811
-0.14  0.02  13.0810740778
-0.14  0.04  14.8298945727
-0.14  0.06  17.3547350058
-0.14  0.08  20.3656872695
-0.14  0.1  23.6739993608
-0.14  0.12  27.1667678304
-0.14  0.14  30.7764218548
-0.14  0.16  34.4611616566
-0.14  0.18  38.1939813875
-0.14  0.2  99.3472443272
-0.14  0.22  77.7120972694
-0.14  0.24  60.7885010088
-0.14  0.26  47.5504070117
-0.14  0.28  37.1952124079
-0.14  0.3  29.0950995588
-0.14  0.32  22.7589725542
-0.14  0.34  17.8026829114
-0.14  0.36  13.925739314
-0.14  0.38  10.8930893398
-0.14  0.4  8.52086863678
-0.14  0.42  6.66525354382
-0.14  0.44  5.21374130938
-0.14  0.46  4.07832924321
-0.14  0.48  3.19017926457
-0.14  0.5  2.49544436782
-0.14  0.52  1.95200397108
-0.14  0.54  1.52691021777
-0.14  0.56  1.19439040477
-0.14  0.58  0.934284427733
-0.14  0.6  0.730822508636
-0.14  0.62  0.571669101265
-0.14  0.64  0.447175008268
-0.14  0.66  0.349792366907
-0.14  0.68  0.27361703513
-0.14  0.7  0.214030633588
-0.14  0.72  0.167420541241
-0.14  0.74  0.130960868355
-0.14  0.76  0.102441127673
-0.14  0.78  0.0801322163691
-0.14  0.8  0.0626815835211
-0.14  0.82  0.0490312272733
-0.14  0.84  0.0383535500044
-0.14  0.86  0.0300011825063
-0.14  0.88  0.0234677351034
-0.14  0.9  0.0183570961168
-0.14  0.92  0.0143594162945
-0.14  0.94  0.0112323231849
-0.14  0.96  0.00878622651102
-0.14  0.98  0.00687282363873
-0.12  -1  0.00637840883354
-0.12  -0.98  0.00815416599307
-0.12  -0.96  0.0104242962121
-0.12  -0.94  0.0133264335813
-0.12  -0.92  0.0170365296978
-0.12  -0.9  0.0217795213081
-0.12  -0.88  0.0278429678359
-0.12  -0.86  0.0355944856153
-0.12  -0.84  0.0455040358371
-0.12  -0.82  0.0581724174876
-0.12  -0.8  0.0743676927572
-0.12  -0.78  0.0950717533306
-0.12  -0.76  0.121539850791
-0.12  -0.74  0.155376700363
-0.12  -0.72  0.19863377204
-0.12  -0.7  0.253933667677
-0.12  -0.68  0.324629124835
-0.12  -0.66  0.415006287488
-0.12  -0.64  0.530544567566
-0.12  -0.62  0.67824885227
-0.12  -0.6  0.86707419834
-0.12  -0.58  1.10846876174
-0.12  -0.56  1.41706787966
-0.12  -0.54  1.81158138586
-0.12  -0.52  2.31592795567
-0.12  -0.5  2.96068525417
-0.12  -0.48  3.78494380743
-0.12  -0.46  4.83867699385
-0.12  -0.44  6.18577084418
-0.12  -0.42  7.90789734163
-0.12  -0.4  10.1094660538
-0.12  -0.38  12.9239543051
-0.12  -0.36  16.5219996775
-0.12  -0.34  21.1217454735
-0.12  -0.32  27.0020663695
-0.12  -0.3  34.5194761074
-0.12  -0.28  44.1297423103
-0.12  -0.26  56.415518889
-0.12  -0.24  72.1216713466
-0.12  -0.22  92.2004366929
-0.12  -0.2  49.7788545507
-0.12  -0.18  45.3147178716
-0.12  -0.16  40.8859658319
-0.12  -0.14  36.5142575553
-0.12  -0.12  32.2316337547
-0.12  -0.1  28.0876871945
-0.12  -0.08  24.1625863383
-0.12  -0.06  20.5902839127
-0.12  -0.04  17.5947221058
-0.12  -0.02  15.5198583588
-0.12  6.17561557e-16  14.763144324
-0.12  0.02  15.5198583588
-0.12  0.04  17.5947221058
-0.12  0.06  20.5902839127
-0.12  0.08  24.1625863383
-0.12  0.1  28.0876871945
-0.12  0.12  32.2316337547
-0.12  0.14  36.5142575553
-0.12  0.16  40.8859658319
-0.12  0.18  45.3147178716
-0.12  0.2  117.869155937
-0.12  0.22  92.2004366929
-0.12  0.24  72.1216713466
-0.12  0.26  56.415518889
-0.12  0.28  44.1297423103
-0.12  0.3  34.5194761074
-0.12  0.32  27.0020663695
-0.12  0.34  21.1217454735
-0.12  0.36  16.5219996775
-0.12  0.38  12.9239543051
-0.12  0.4  10.1094660538
-0.12  0.42  7.90789734163
-0.12  0.44  6.18577084418
-0.12  0.46  4.83867699385
-0.12  0.48  3.78494380743
-0.12  0.5  2.96068525417
-0.12  0.52  2.31592795567
-0.12  0.54  1.81158138586
-0.12  0.56  1.41706787966
-0.12  0.58  1.10846876174
-0.12  0.6  0.86707419834
-0.12  0.62  0.67824885227
-0.12  0.64  0.530544567566
-0.12  0.66  0.415006287488
-0.12  0.68  0.324629124835
-0.12  0.7  0.253933667677
-0.12  0.72  0.19863377204
-0.12  0.74  0.155376700363
-0.12  0.76  0.121539850791
-0.12  0.78  0.0950717533306
-0.12  0.8  0.0743676927572
-0.12  0.82  0.0581724174876
-0.12  0.84  0.0455040358371
-0.12  0.86  0.0355944856153
-0.12  0.88  0.0278429678359
-0.12  0.9  0.0217795213081
-0.12  0.92  0.0170365296978
-0.12  0.94  0.0133264335813
-0.12  0.96  0.0104242962121
-0.12  0.98  0.00815416599307
-0.1  -1  0.00756757442563
-0.1  -0.98  0.00967439680365
-0.1  -0.96  0.0123677612205
-0.1  -0.94  0.0158109617283
-0.1  -0.92  0.0202127536518
-0.1  -0.9  0.0258400100645
-0.1  -0.88  0.0330339018441
-0.1  -0.86  0.0422305822762
-0.1  -0.84  0.0539876302776
-0.1  -0.82  0.0690178554472
-0.1  -0.8  0.088232514486
-0.1  -0.78  0.112796559123
-0.1  -0.76  0.144199265137
-0.1  -0.74  0.184344524582
-0.1  -0.72  0.23566627549
-0.1  -0.7  0.30127606735
-0.1  -0.68  0.385151708996
-0.1  -0.66  0.492378436321
-0.1  -0.64  0.629457221378
-0.1  -0.62  0.804698915138
-0.1  -0.6  1.02872812009
-0.1  -0.58  1.31512734161
-0.1  -0.56  1.68126047191
-0.1  -0.54  2.14932553296
-0.1  -0.52  2.74770050436
-0.1  -0.5  3.51266383145
-0.1  -0.48  4.49059392508
-0.1  -0.46  5.74078100482
-0.1  -0.44  7.33902176309
-0.1  -0.42  9.38221478818
-0.1  -0.4  11.994235359
-0.1  -0.38  15.3334457903
-0.1  -0.36  19.6022966672
-0.1  -0.34  25.0596010763
-0.1  -0.32  32.0362259977
-0.1  -0.3  40.9551522008
-0.1  -0.28  52.3571188415
-0.1  -0.26  66.9334075465
-0.1  -0.24  85.5677536295
-0.1  -0.22  109.389925444
-0.1  -0.2  59.05942947
-0.1  -0.18  53.7630166111
-0.1  -0.16  48.5085853653
-0.1  -0.14  43.3218328987
-0.1  -0.12  38.2407734694
-0.1  -0.1  33.3242457227
-0.1  -0.08  28.6673644168
-0.1  -0.06  24.429055901
-0.1  -0.04  20.8750132688
-0.1  -0.02  18.4133200412
-0.1  6.17561557e-16  17.5155272018
-0.1  0.02  18.4133200412
-0.1  0.04  20.8750132688
-0.1  0.06  24.429055901
-0.1  0.08  28.6673644168
-0.1  0.1  33.3242457227
-0.1  0.12  38.2407734694
-0.1  0.14  43.3218328987
-0.1  0.16  48.5085853653
-0.1  0.18  53.7630166111
-0.1  0.2  139.844220293
-0.1  0.22  109.389925444
-0.1  0.24  85.5677536295
-0.1  0.26  66.9334075465
-0.1  0.28  52.3571188415
-0.1  0.3  40.9551522008
-0.1  0.32  32.0362259977
-0.1  0.34  25.0596010763
-0.1  0.36  19.6022966672
-0.1  0.38  15.3334457903
-0.1  0.4  11.994235359
-0.1  0.42  9.38221478818
-0.1  0.44  7.33902176309
-0.1  0.46  5.74078100482
-0.1  0.48  4.49059392508
-0.1  0.5  3.51266383145
-0.1  0.52  2.74770050436
-0.1  0.54  2.14932553296
-0.1  0.56  1.68126047191
-0.1  0.58  1.31512734161
-0.1  0.6  1.02872812009
-0.1  0.62  0.804698915138
-0.1  0.64  0.629457221378
-0.1  0.66  0.492378436321
-0.1  0.68  0.385151708996
-0.1  0.7  0.30127606735
-0.1  0.72  0.23566627549
-0.1  0.74  0.184344524582
-0.1  0.76  0.144199265137
-0.1  0.78  0.112796559123
-0.1  0.8  0.088232514486
-0.1  0.82  0.0690178554472
-0.1  0.84  0.0539876302776
-0.1  0.86  0.0422305822762
-0.1  0.88  0.0330339018441
-0.1  0.9  0.0258400100645
-0.1  0.92  0.0202127536518
-0.1  0.94  0.0158109617283
-0.1  0.96  0.0123677612205
-0.1  0.98  0.00967439680365
-0.08  -1  0.00897844339898
-0.08  -0.98  0.0114780534998
-0.08  -0.96  0.0146735582427
-0.08  -0.94  0.0187586955842
-0.08  -0.92  0.0239811403751
-0.08  -0.9  0.0306575204609
-0.08  -0.88  0.0391926132831
-0.08  -0.86  0.0501038868397
-0.08  -0.84  0.0640528728797
-0.08  -0.82  0.0818852744352
-0.08  -0.8  0.104682239342
-0.08  -0.78  0.133825908373
-0.08  -0.76  0.171083212056
-0.08  -0.74  0.218712996633
-0.08  -0.72  0.279602974022
-0.08  -0.7  0.357444798826
-0.08  -0.68  0.456957886999
-0.08  -0.66  0.58417554592
-0.08  -0.64  0.746810763444
-0.08  -0.62  0.954723833085
-0.08  -0.6  1.22052016666
-0.08  -0.58  1.56031453871
-0.08  -0.56  1.9947080976
-0.08  -0.54  2.55003737767
-0.08  -0.52  3.25997103803
-0.08  -0.5  4.16755113548
-0.08  -0.48  5.32780269032
-0.08  -0.46  6.81106975878
-0.08  -0.44  8.70728027208
-0.08  -0.42  11.1313982123
-0.08  -0.4  14.2303936807
-0.08  -0.38  18.1921534426
-0.08  -0.36  23.2568721783
-0.08  -0.34  29.7316150738
-0.08  -0.32  38.0089346545
-0.08  -0.3  48.5906705703
-0.08  -0.28  62.1183752697
-0.08  -0.26  79.4122102217
-0.08  -0.24  101.520670895
-0.08  -0.22  129.784155236
-0.08  -0.2  70.0702384739
-0.08  -0.18  63.7863831198
-0.08  -0.16  57.5523362667
-0.08  -0.14  51.3985859596
-0.08  -0.12  45.3702336861
-0.08  -0.1  39.5370877386
-0.08  -0.08  34.0119956988
-0.08  -0.06  28.9835135225
-0.08  -0.04  24.7668690845
-0.08  -0.02  21.8462274012
-0.08  6.17561557e-16  20.7810535767
-0.08  0.02  21.8462274012
-0.08  0.04  24.7668690845
-0.08  0.06  28.9835135225
-0.08  0.08  34.0119956988
-0.08  0.1  39.5370877386
-0.08  0.12  45.3702336861
-0.08  0.14  51.3985859596
-0.08  0.16  57.5523362667
-0.08  0.18  63.7863831198
-0.08  0.2  165.916229687
-0.08  0.22  129.784155236
-0.08  0.24  101.520670895
-0.08  0.26  79.4122102217
-0.08  0.28  62.1183752697
-0.08  0.3  48.5906705703
-0.08  0.32  38.0089346545
-0.08  0.34  29.7316150738
-0.08  0.36  23.2568721783
-0.08  0.38  18.1921534426
-0.08  0.4  14.2303936807
-0.08  0.42  11.1313982123
-0.08  0.44  8.70728027208
-0.08  0.46  6.81106975878
-0.08  0.48  5.32780269032
-0.08  0.5  4.16755113548
-0.08  0.52  3.25997103803
-0.08  0.54  2.55003737767
-0.08  0.56  1.9947080976
-0.08  0.58  1.56031453871
-0.08  0.6  1.22052016666
-0.08  0.62  0.954723833085
-0.08  0.64  0.746810763444
-0.08  0.66  0.58417554592
-0.08  0.68  0.456957886999
-0.08  0.7  0.357444798826
-0.08  0.72  0.279602974022
-0.08  0.74  0.218712996633
-0.08  0.76  0.171083212056
-0.08  0.78  0.133825908373
-0.08  0.8  0.104682239342
-0.08  0.82  0.0818852744352
-0.08  0.84  0.0640528728796
-0.08  0.86  0.0501038868397
-0.08  0.88  0.0391926132831
-0.08  0.9  0.0306575204609
-0.08  0.92  0.0239811403751
-0.08  0.94  0.0187586955842
-0.08  0.96  0.0146735582427
-0.08  0.98  0.0114780534998
-0.06  -1  0.0106523492647
-0.06  -0.98  0.0136179768948
-0.06  -0.96  0.0174092390419
-0.06  -0.94  0.0222559934093
-0.06  -0.92  0.0284520903781
-0.06  -0.9  0.0363731886506
-0.06  -0.88  0.0464995307913
-0.06  -0.86  0.0594450595075
-0.06  -0.84  0.0759946399396
-0.06  -0.82  0.097151644685
-0.06  -0.8  0.124198786553
-0.06  -0.78  0.158775887234
-0.06  -0.76  0.202979296874
-0.06  -0.74  0.259488992171
-0.06  -0.72  0.331731058758
-0.06  -0.7  0.424085408879
-0.06  -0.68  0.54215132794
-0.06  -0.66  0.693086949545
-0.06  -0.64  0.886043240833
-0.06  -0.62  1.13271880987
-0.06  -0.6  1.44806917214
-0.06  -0.58  1.85121347773
-0.06  -0.56  2.36659367249
-0.06  -0.54  3.02545637122
-0.06  -0.52  3.86774728613
-0.06  -0.5  4.9445330667
-0.06  -0.48  6.3210973828
-0.06  -0.46  8.08089896131
-0.06  -0.44  10.3306315452
-0.06  -0.42  13.2066925516
-0.06  -0.4  16.8834526126
-0.06  -0.38  21.5838273671
-0.06  -0.36  27.5927924519
-0.06  -0.34  35.2746610851
-0.06  -0.32  45.0951717495
-0.06  -0.3  57.6497251162
-0.06  -0.28  73.6994821625
-0.06  -0.26  94.2175120536
-0.06  -0.24  120.447787652
-0.06  -0.22  153.980605453
-0.06  -0.2  83.1338596367
-0.06  -0.18  75.6784668714
-0.06  -0.16  68.2821687091
-0.06  -0.14  60.9811372667
-0.06  -0.12  53.8288825769
-0.06  -0.1  46.9082277168
-0.06  -0.08  40.3530591299
-0.06  -0.06  34.387086407
-0.06  -0.04  29.3843072744
-0.06  -0.02  25.9191525806
-0.06  6.17561557e-16  24.6553919149
-0.06  0.02  25.9191525806
-0.06  0.04  29.3843072744
-0.06  0.06  34.387086407
-0.06  0.08  40.3530591299
-0.06  0.1  46.9082277168
-0.06  0.12  53.8288825769
-0.06  0.14  60.9811372667
-0.06  0.16  68.2821687091
-0.06  0.18  75.6784668714
-0.06  0.2  196.849002525
-0.06  0.22  153.980605453
-0.06  0.24  120.447787652
-0.06  0.26  94.2175120536
-0.06  0.28  73.6994821625
-0.06  0.3  57.6497251162
-0.06  0.32  45.0951717495
-0.06  0.34  35.2746610851
-0.06  0.36  27.5927924519
-0.06  0.38  21.5838273671
-0.06  0.4  16.8834526126
-0.06  0.42  13.2066925516
-0.06  0.44  10.3306315452
-0.06  0.46  8.08089896131
-0.06  0.48  6.3210973828
-0.06  0.5  4.9445330667
-0.06  0.52  3.86774728613
-0.06  0.54  3.02545637122
-0.06  0.56  2.36659367249
-0.06  0.58  1.85121347773
-0.06  0.6  1.44806917214
-0.06  0.62  1.13271880987
-0.06  0.64  0.886043240833
-0.06  0.66  0.693086949545
-0.06  0.68  0.54215132794
-0.06  0.7  0.424085408879
-0.06  0.72  0.331731058758
-0.06  0.74  0.259488992171
-0.06  0.76  0.202979296874
-0.06  0.78  0.158775887234
-0.06  0.8  0.124198786553
-0.06  0.82  0.097151644685
-0.06  0.84  0.0759946399396
-0.06  0.86  0.0594450595075
-0.06  0.88  0.0464995307913
-0.06  0.9  0.0363731886506
-0.06  0.92  0.0284520903781
-0.06  0.94  0.0222559934093
-0.06  0.96  0.0174092390419
-0.06  0.98  0.0136179768948
-0.04  -1  0.0126383315922
-0.04  -0.98  0.0161568592368
-0.04  -0.96  0.0206549494681
-0.04  -0.94  0.0264053137604
-0.04  -0.92  0.0337565868103
-0.04  -0.9  0.0431544636593
-0.04  -0.88  0.0551687214169
-0.04  -0.86  0.070527763867
-0.04  -0.84  0.0901627833369
-0.04  -0.82  0.115264217286
-0.04  -0.8  0.147353922481
-0.04  -0.78  0.188377442557
-0.04  -0.76  0.240821962976
-0.04  -0.74  0.307867104812
-0.04  -0.72  0.393577699699
-0.04  -0.7  0.503150233589
-0.04  -0.68  0.643227900753
-0.04  -0.66  0.822303369225
-0.04  -0.64  1.05123367666
-0.04  -0.62  1.34389847385
-0.04  -0.6  1.71804152409
-0.04  -0.58  2.19634647701
-0.04  -0.56  2.80781213923
-0.04  -0.54  3.5895106222
-0.04  -0.52  4.58883496044
-0.04  -0.5  5.86637246981
-0.04  -0.48  7.49957805221
-0.04  -0.46  9.58747015309
-0.04  -0.44  12.2566340795
-0.04  -0.42  15.6688966494
-0.04  -0.4  20.0311374736
-0.04  -0.38  25.6078317105
-0.04  -0.36  32.7370847401
-0.04  -0.34  41.8511309116
-0.04  -0.32  53.5025391689
-0.04  -0.3  68.3977143547
-0.04  -0.28  87.4397253219
-0.04  -0.26  111.783056444
-0.04  -0.24  142.903602019
-0.04  -0.22  182.688147198
-0.04  -0.2  98.6330112274
-0.04  -0.18  89.7876641986
-0.04  -0.16  81.0124291395
-0.04  -0.14  72.3502219549
-0.04  -0.12  63.8645288787
-0.04  -0.1  55.6536141985
-0.04  -0.08  47.8763256225
-0.04  -0.06  40.7980802826
-0.04  -0.04  34.8626025782
-0.04  -0.02  30.7514179981
-0.04  6.17561557e-16  29.2520467375
-0.04  0.02  30.7514179981
-0.04  0.04  34.8626025782
-0.04  0.06  40.7980802826
-0.04  0.08  47.8763256225
-0.04  0.1  55.6536141985
-0.04  0.12  63.8645288787
-0.04  0.14  72.3502219549
-0.04  0.16  81.0124291395
-0.04  0.18  89.7876641986
-0.04  0.2  233.548760529
-0.04  0.22  182.688147198
-0.04  0.24  142.903602019
-0.04  0.26  111.783056444
-0.04  0.28  87.4397253219
-0.04  0.3  68.3977143547
-0.04  0.32  53.5025391689
-0.04  0.34  41.8511309116
-0.04  0.36  32.7370847401
-0.04  0.38  25.6078317105
-0.04  0.4  20.0311374736
-0.04  0.42  15.6688966494
-0.04  0.44  12.2566340795
-0.04  0.46  9.58747015309
-0.04  0.48  7.49957805221
-0.04  0.5  5.86637246981
-0.04  0.52  4.58883496044
-0.04  0.54  3.5895106222
-0.04  0.56  2.80781213923
-0.04  0.58  2.19634647701
-0.04  0.6  1.71804152409
-0.04  0.62  1.34389847385
-0.04  0.64  1.05123367666
-0.04  0.66  0.822303369225
-0.04  0.68  0.643227900753
-0.04  0.7  0.503150233589
-0.04  0.72  0.393577699699
-0.04  0.74  0.307867104812
-0.04  0.76  0.240821962976
-0.04  0.78  0.188377442557
-0.04  0.8  0.147353922481
-0.04  0.82  0.115264217286
-0.04  0.84  0.0901627833369
-0.04  0.86  0.070527763867
-0.04  0.88  0.0551687214169
-0.04  0.9  0.0431544636593
-0.04  0.92  0.0337565868103
-0.04  0.94  0.0264053137604
-0.04  0.96  0.0206549494681
-0.04  0.98  0.0161568592368
-0.02  -1  0.014994572696
-0.02  -0.98  0.0191690808711
-0.02  -0.96  0.0245057774496
-0.02  -0.94  0.0313282171665
-0.02  -0.92  0.0400500328075
-0.02  -0.9  0.0512000130539
-0.02  -0.88  0.0654541620308
-0.02  -0.86  0.0836766842744
-0.02  -0.84  0.106972379967
-0.02  -0.82  0.13675362707
-0.02  -0.8  0.174826011375
-0.02  -0.78  0.223497796059
-0.02  -0.76  0.285719867715
-0.02  -0.74  0.36526464353
-0.02  -0.72  0.466954786448
-0.02  -0.7  0.596955594934
-0.02  -0.68  0.763148794413
-0.02  -0.66  0.975610392727
-0.02  -0.64  1.24722157116
-0.02  -0.62  1.59444964831
-0.02  -0.6  2.03834646527
-0.02  -0.58  2.60582472259
-0.02  -0.56  3.33128965098
-0.02  -0.54  4.25872494128
-0.02  -0.52  5.44435940002
-0.02  -0.5  6.96007600521
-0.02  -0.48  8.89777004769
-0.02  -0.46  11.3749205845
-0.02  -0.44  14.5417129922
-0.02  -0.42  18.5901444477
-0.02  -0.4  23.7656643872
-0.02  -0.38  30.3820556829
-0.02  -0.36  38.8404587593
-0.02  -0.34  49.653692047
-0.02  -0.32  63.4773432822
-0.02  -0.3  81.1495166633
-0.02  -0.28  103.741645667
-0.02  -0.26  132.623452219
-0.02  -0.24  169.545990574
-0.02  -0.22  216.747810728
-0.02  -0.2  117.021764012
-0.02  -0.18  106.527325084
-0.02  -0.16  96.1160695268
-0.02  -0.14  85.8389143192
-0.02  -0.12  75.7711818199
-0.02  -0.1  66.0294563258
-0.02  -0.08  56.8022004906
-0.02  -0.06  48.404314778
-0.02  -0.04  41.3622498286
-0.02  -0.02  36.4845920773
-0.02  6.17561557e-16  34.7056839041
-0.02  0.02  36.4845920773
-0.02  0.04  41.3622498286
-0.02  0.06  48.404314778
-0.02  0.08  56.8022004906
-0.02  0.1  66.0294563258
-0.02  0.12  75.7711818199
-0.02  0.14  85.8389143192
-0.02  0.16  96.1160695268
-0.02  0.18  106.527325084
-0.02  0.2  277.090677854
-0.02  0.22  216.747810728
-0.02  0.24  169.545990574
-0.02  0.26  132.623452219
-0.02  0.28  103.741645667
-0.02  0.3  81.1495166633
-0.02  0.32  63.4773432822
-0.02  0.34  49.653692047
-0.02  0.36  38.8404587593
-0.02  0.38  30.3820556829
-0.02  0.4  23.7656643872
-0.02  0.42  18.5901444477
-0.02  0.44  14.5417129922
-0.02  0.46  11.3749205845
-0.02  0.48  8.89777004768
-0.02  0.5  6.96007600521
-0.02  0.52  5.44435940002
-0.02  0.54  4.25872494128
-0.02  0.56  3.33128965098
-0.02  0.58  2.60582472259
-0.02  0.6  2.03834646527
-0.02  0.62  1.59444964831
-0.02  0.64  1.24722157116
-0.02  0.66  0.975610392727
-0.02  0.68  0.763148794413
-0.02  0.7  0.596955594934
-0.02  0.72  0.466954786448
-0.02  0.74  0.36526464353
-0.02  0.76  0.285719867715
-0.02  0.78  0.223497796059
-0.02  0.8  0.174826011375
-0.02  0.82  0.13675362707
-0.02  0.84  0.106972379967
-0.02  0.86  0.0836766842744
-0.02  0.88  0.0654541620308
-0.02  0.9  0.0512000130539
-0.02  0.92  0.0400500328075
-0.02  0.94  0.0313282171665
-0.02  0.96  0.0245057774496
-0.02  0.98  0.0191690808711
2.8449465e-16  -1  0.0169271985979
2.8449465e-16  -0.98  0.0216397522905
2.8449465e-16  -0.96  0.0276642869453
2.8449465e-16  -0.94  0.0353660597368
2.8449465e-16  -0.92  0.0452120159025
2.8449465e-16  -0.9  0.0577990988305
2.8449465e-16  -0.88  0.0738904417095
2.8449465e-16  -0.86  0.0944616349822
2.8449465e-16  -0.84  0.120759874716
2.8449465e-16  -0.82  0.154379577953
2.8449465e-16  -0.8  0.197359049478
2.8449465e-16  -0.78  0.252304060727
2.8449465e-16  -0.76  0.322545833231
2.8449465e-16  -0.74  0.412343004843
2.8449465e-16  -0.72  0.527139823633
2.8449465e-16  -0.7  0.673896223282
2.8449465e-16  -0.68  0.861509791886
2.8449465e-16  -0.66  1.10135521743
2.8449465e-16  -0.64  1.40797391554
2.8449465e-16  -0.62  1.79995565051
2.8449465e-16  -0.6  2.30106560076
2.8449465e-16  -0.58  2.94168520069
2.8449465e-16  -0.56  3.76065411481
2.8449465e-16  -0.54  4.80762501982
2.8449465e-16  -0.52  6.14607396094
2.8449465e-16  -0.5  7.85714879544
2.8449465e-16  -0.48  10.0445890476
2.8449465e-16  -0.46  12.8410154576
2.8449465e-16  -0.44  16.415970549
2.8449465e-16  -0.42  20.9861977003
2.8449465e-16  -0.4  26.8287819231
2.8449465e-16  -0.38  34.2979490501
2.8449465e-16  -0.36  43.8465418375
2.8449465e-16  -0.34  56.0534750431
2.8449465e-16  -0.32  71.6588340319
2.8449465e-16  -0.3  91.6087448792
2.8449465e-16  -0.28  117.112736367
2.8449465e-16  -0.26  149.717071634
2.8449465e-16  -0.24  191.398495449
2.8449465e-16  -0.22  244.684080849
2.8449465e-16  -0.2  95.1106236977
2.8449465e-16  -0.18  87.5517931053
2.8449465e-16  -0.16  80.1476354301
2.8449465e-16  -0.14  72.9595543322
2.8449465e-16  -0.12  66.072109741
2.8449465e-16  -0.1  59.6031261986
2.8449465e-16  -0.08  53.7167435868
2.8449465e-16  -0.06  48.636522993
2.8449465e-16  -0.04  44.6483394389
2.8449465e-16  -0.02  42.0713888162
2.8449465e-16  6.17561557e-16  41.1760758508
2.8449465e-16  0.02  42.0713888162
2.8449465e-16  0.04  44.6483394389
2.8449465e-16  0.06  48.636522993
2.8449465e-16  0.08  53.7167435868
2.8449465e-16  0.1  59.6031261986
2.8449465e-16  0.12  66.072109741
2.8449465e-16  0.14  72.9595543322
2.8449465e-16  0.16  80.1476354301
2.8449465e-16  0.18  87.5517931053
2.8449465e-16  0.2  312.80444123
2.8449465e-16  0.22  244.684080849
2.8449465e-16  0.24  191.398495449
2.8449465e-16  0.26  149.717071634
2.8449465e-16  0.28  117.112736367
2.8449465e-16  0.3  91.6087448792
2.8449465e-16  0.32  71.6588340319
2.8449465e-16  0.34  56.0534750431
2.8449465e-16  0.36  43.8465418375
2.8449465e-16  0.38  34.2979490501
2.8449465e-16  0.4  26.8287819231
2.8449465e-16  0.42  20.9861977003
2.8449465e-16  0.44  16.415970549
2.8449465e-16  0.46  12.8410154576
2.8449465e-16  0.48  10.0445890476
2.8449465e-16  0.5  7.85714879544
2.8449465e-16  0.52  6.14607396094
2.8449465e-16  0.54  4.80762501982
2.8449465e-16  0.56  3.76065411481
2.8449465e-16  0.58  2.94168520069
2.8449465e-16  0.6  2.30106560076
2.8449465e-16  0.62  1.79995565051
2.8449465e-16  0.64  1.40797391554
2.8449465e-16  0.66  1.10135521743
2.8449465e-16  0.68  0.861509791886
2.8449465e-16  0.7  0.673896223282
2.8449465e-16  0.72  0.527139823633
2.8449465e-16  0.74  0.412343004843
2.8449465e-16  0.76  0.322545833231
2.8449465e-16  0.78  0.252304060727
2.8449465e-16  0.8  0.197359049478
2.8449465e-16  0.82  0.154379577953
2.8449465e-16  0.84  0.120759874716
2.8449465e-16  0.86  0.0944616349822
2.8449465e-16  0.88  0.0738904417095
2.8449465e-16  0.9  0.0577990988305
2.8449465e-16  0.92  0.0452120159025
2.8449465e-16  0.94  0.0353660597368
2.8449465e-16  0.96  0.0276642869453
2.8449465e-16  0.98  0.0216397522905
0.02  -1  0.016083417197
0.02  -0.98  0.0205610610707
0.02  -0.96  0.0262852867133
0.02  -0.94  0.0336031440802
0.02  -0.92  0.0429583022773
0.02  -0.9  0.0549179484557
0.02  -0.88  0.0702071753934
0.02  -0.86  0.089752942623
0.02  -0.84  0.114740276394
0.02  -0.82  0.146684115777
0.02  -0.8  0.187521160811
0.02  -0.78  0.2397272913
0.02  -0.76  0.306467675143
0.02  -0.74  0.391788667025
0.02  -0.72  0.500863131935
0.02  -0.7  0.640304067079
0.02  -0.68  0.818565536526
0.02  -0.66  1.04645522657
0.02  -0.64  1.33778969716
0.02  -0.62  1.71023205617
0.02  -0.6  2.18636284324
0.02  -0.58  2.79504904909
0.02  -0.56  3.57319427147
0.02  -0.54  4.56797611684
0.02  -0.52  5.83970649753
0.02  -0.5  7.46548823922
0.02  -0.48  9.54388969266
0.02  -0.46  12.2009207632
0.02  -0.44  15.5976726748
0.02  -0.42  19.9400846537
0.02  -0.4  25.4914296693
0.02  -0.38  32.588276222
0.02  -0.36  41.6608939121
0.02  -0.34  53.2593399459
0.02  -0.32  68.0868081577
0.02  -0.3  87.0422624429
0.02  -0.28  111.274939393
0.02  -0.26  142.254024531
0.02  -0.24  181.857726509
0.02  -0.22  232.48714966
0.02  -0.2  94.939033033
0.02  -0.18  87.2057078455
0.02  -0.16  79.6121776041
0.02  -0.14  72.2172899243
0.02  -0.12  65.10326493
0.02  -0.1  58.3869294881
0.02  -0.08  52.2352838813
0.02  -0.06  46.8833848001
0.02  -0.04  42.6439316099
0.02  -0.02  39.8813436077
0.02  6.17561557e-16  38.9163791435
0.02  0.02  39.8813436077
0.02  0.04  42.6439316099
0.02  0.06  46.8833848001
0.02  0.08  52.2352838813
0.02  0.1  58.3869294881
0.02  0.12  65.10326493
0.02  0.14  72.2172899243
0.02  0.16  79.6121776041
0.02  0.18  87.2057078455
0.02  0.2  297.211868831
0.02  0.22  232.48714966
0.02  0.24  181.857726509
0.02  0.26  142.254024531
0.02  0.28  111.274939393
0.02  0.3  87.0422624429
0.02  0.32  68.0868081577
0.02  0.34  53.2593399459
0.02  0.36  41.6608939121
0.02  0.38  32.588276222
0.02  0.4  25.4914296693
0.02  0.42  19.9400846537
0.02  0.44  15.5976726748
0.02  0.46  12.2009207632
0.02  0.48  9.54388969266
0.02  0.5  7.46548823922
0.02  0.52  5.83970649753
0.02  0.54  4.56797611684
0.02  0.56  3.57319427147
0.02  0.58  2.79504904909
0.02  0.6  2.18636284324
0.02  0.62  1.71023205616
0.02  0.64  1.33778969716
0.02  0.66  1.04645522657
0.02  0.68  0.818565536526
0.02  0.7  0.640304067079
0.02  0.72  0.500863131935
0.02  0.74  0.391788667025
0.02  0.76  0.306467675143
0.02  0.78  0.2397272913
0.02  0.8  0.187521160811
0.02  0.82  0.146684115777
0.02  0.84  0.114740276394
0.02  0.86  0.089752942623
0.02  0.88  0.0702071753934
0.02  0.9  0.0549179484557
0.02  0.92  0.0429583022773
0.02  0.94  0.0336031440802
0.02  0.96  0.0262852867133
0.02  0.98  0.0205610610707
0.04  -1  0.014720643211
0.04  -0.98  0.0188188890678
0.04  -0.96  0.0240580918014
0.04  -0.94  0.0307558952624
0.04  -0.92  0.0393183757549
0.04  -0.9  0.0502646617441
0.04  -0.88  0.0642584077226
0.04  -0.86  0.0821480304408
0.04  -0.84  0.105018146955
0.04  -0.82  0.134255333094
0.04  -0.8  0.171632189167
0.04  -0.78  0.219414809672
0.04  -0.76  0.280500172708
0.04  -0.74  0.358591778771
0.04  -0.72  0.458424187624
0.04  -0.7  0.586050066511
0.04  -0.68  0.749207152959
0.04  -0.66  0.9577873805
0.04  -0.64  1.22443660958
0.04  -0.62  1.56532132435
0.04  -0.6  2.00110877875
0.04  -0.58  2.55822001661
0.04  -0.56  3.2704317341
0.04  -0.54  4.18092410268
0.04  -0.52  5.34489870866
0.04  -0.5  6.83292533045
0.04  -0.48  8.73522046279
0.04  -0.46  11.1671169877
0.04  -0.44  14.2760566089
0.04  -0.42  18.2505289882
0.04  -0.4  23.3314995503
0.04  -0.38  29.8270188014
0.04  -0.36  38.1308989017
0.04  -0.34  48.7465898195
0.04  -0.32  62.3177026368
0.04  -0.3  79.6670305823
0.04  -0.28  101.846433569
0.04  -0.26  130.200610654
0.04  -0.24  166.448626825
0.04  -0.22  212.788136959
0.04  -0.2  94.6798375566
0.04  -0.18  86.681504837
0.04  -0.16  78.7983036927
0.04  -0.14  71.0839655748
0.04  -0.12  63.6152276465
0.04  -0.1  56.5045391874
0.04  -0.08  49.9195512525
0.04  -0.06  44.1097475769
0.04  -0.04  39.4310146363
0.04  -0.02  36.3321227049
0.04  6.17561557e-16  35.2380294891
0.04  0.02  36.3321227049
0.04  0.04  39.4310146363
0.04  0.06  44.1097475769
0.04  0.08  49.9195512525
0.04  0.1  56.5045391874
0.04  0.12  63.6152276465
0.04  0.14  71.0839655747
0.04  0.16  78.7983036927
0.04  0.18  86.681504837
0.04  0.2  272.028625854
0.04  0.22  212.788136959
0.04  0.24  166.448626825
0.04  0.26  130.200610654
0.04  0.28  101.846433569
0.04  0.3  79.6670305823
0.04  0.32  62.3177026368
0.04  0.34  48.7465898195
0.04  0.36  38.1308989016
0.04  0.38  29.8270188014
0.04  0.4  23.3314995503
0.04  0.42  18.2505289882
0.04  0.44  14.2760566089
0.04  0.46  11.1671169877
0.04  0.48  8.73522046279
0.04  0.5  6.83292533045
0.04  0.52  5.34489870866
0.04  0.54  4.18092410268
0.04  0.56  3.2704317341
0.04  0.58  2.55822001661
0.04  0.6  2.00110877875
0.04  0.62  1.56532132435
0.04  0.64  1.22443660958
0.04  0.66  0.9577873805
0.04  0.68  0.749207152959
0.04  0.7  0.586050066511
0.04  0.72  0.458424187624
0.04  0.74  0.358591778771
0.04  0.76  0.280500172708
0.04  0.78  0.219414809672
0.04  0.8  0.171632189167
0.04  0.82  0.134255333094
0.04  0.84  0.105018146955
0.04  0.86  0.0821480304408
0.04  0.88  0.0642584077226
0.04  0.9  0.0502646617441
0.04  0.92  0.0393183757549
0.04  0.94  0.0307558952624
0.04  0.96  0.0240580918014
0.04  0.98  0.0188188890678
0.06  -1  0.0129096295818
0.06  -0.98  0.016503686933
0.06  -0.96  0.0210983344376
0.06  -0.94  0.0269721376712
0.06  -0.92  0.0344812152214
0.06  -0.9  0.0440808295447
0.06  -0.88  0.056352988747
0.06  -0.86  0.0720417327333
0.06  -0.84  0.0920982430677
0.06  -0.82  0.117738511476
0.06  -0.8  0.150517063331
0.06  -0.78  0.192421205856
0.06  -0.76  0.245991515139
0.06  -0.74  0.314475866895
0.06  -0.72  0.40202634958
0.06  -0.7  0.513950998379
0.06  -0.68  0.657035612245
0.06  -0.66  0.839955165219
0.06  -0.64  1.07379975519
0.06  -0.62  1.37274697744
0.06  -0.6  1.75492148789
0.06  -0.58  2.2434938698
0.06  -0.56  2.86808542635
0.06  -0.54  3.66656406937
0.06  -0.52  4.68734018564
0.06  -0.5  5.99230167542
0.06  -0.48  7.66056610938
0.06  -0.46  9.79327749083
0.06  -0.44  12.5197384427
0.06  -0.42  16.0052496031
0.06  -0.4  20.4611315189
0.06  -0.38  26.1575366468
0.06  -0.36  33.4398282322
0.06  -0.34  42.7495190888
0.06  -0.32  54.6510397611
0.06  -0.3  69.8659589775
0.06  -0.28  89.3167311215
0.06  -0.26  114.182623054
0.06  -0.24  145.971211035
0.06  -0.22  186.609782479
0.06  -0.2  94.3699473326
0.06  -0.18  86.0524848557
0.06  -0.16  77.8170488825
0.06  -0.14  69.7089791418
0.06  -0.12  61.794697225
0.06  -0.1  54.1753551124
0.06  -0.08  47.0104128692
0.06  -0.06  40.5565206479
0.06  -0.04  35.2203829188
0.06  -0.02  31.5846462609
0.06  6.17561557e-16  30.275116998
0.06  0.02  31.5846462609
0.06  0.04  35.2203829188
0.06  0.06  40.5565206479
0.06  0.08  47.0104128692
0.06  0.1  54.1753551124
0.06  0.12  61.794697225
0.06  0.14  69.7089791418
0.06  0.16  77.8170488825
0.06  0.18  86.0524848557
0.06  0.2  238.562184077
0.06  0.22  186.609782479
0.06  0.24  145.971211035
0.06  0.26  114.182623054
0.06  0.28  89.3167311215
0.06  0.3  69.8659589775
0.06  0.32  54.6510397611
0.06  0.34  42.7495190888
0.06  0.36  33.4398282322
0.06  0.38  26.1575366468
0.06  0.4  20.4611315189
0.06  0.42  16.0052496031
0.06  0.44  12.5197384427
0.06  0.46  9.79327749083
0.06  0.48  7.66056610938
0.06  0.5  5.99230167542
0.06  0.52  4.68734018564
0.06  0.54  3.66656406937
0.06  0.56  2.86808542635
0.06  0.58  2.2434938698
0.06  0.6  1.75492148789
0.06  0.62  1.37274697744
0.06  0.64  1.07379975519
0.06  0.66  0.839955165219
0.06  0.68  0.657035612245
0.06  0.7  0.513950998379
0.06  0.72  0.40202634958
0.06  0.74  0.314475866895
0.06  0.76  0.245991515139
0.06  0.78  0.192421205856
0.06  0.8  0.150517063331
0.06  0.82  0.117738511476
0.06  0.84  0.0920982430677
0.06  0.86  0.0720417327333
0.06  0.88  0.056352988747
0.06  0.9  0.0440808295447
0.06  0.92  0.0344812152214
0.06  0.94  0.0269721376712
0.06  0.96  0.0210983344376
0.06  0.98  0.016503686933
0.08  -1  0.0107605689661
0.08  -0.98  0.0137563250991
0.08  -0.96  0.0175861035629
0.08  -0.94  0.0224820972386
0.08  -0.92  0.028741141802
0.08  -0.9  0.0367427123599
0.08  -0.88  0.0469719303728
0.08  -0.86  0.0600489757353
0.08  -0.84  0.076766687216
0.08  -0.82  0.0981386309085
0.08  -0.8  0.125460551
0.08  -0.78  0.160388928515
0.08  -0.76  0.205041410905
0.08  -0.74  0.26212520138
0.08  -0.72  0.335101191975
0.08  -0.7  0.428393791486
0.08  -0.68  0.547659169762
0.08  -0.66  0.70012818156
0.08  -0.64  0.895044760827
0.08  -0.62  1.14422636452
0.08  -0.6  1.46278044469
0.08  -0.58  1.87002038733
0.08  -0.56  2.39063644973
0.08  -0.54  3.05619268832
0.08  -0.52  3.90704063314
0.08  -0.5  4.99476573166
0.08  -0.48  6.3853148858
0.08  -0.46  8.1629946991
0.08  -0.44  10.4355828411
0.08  -0.42  13.3408624223
0.08  -0.4  17.0549755466
0.08  -0.38  21.8031025047
0.08  -0.36  27.8731140677
0.08  -0.34  35.6330245965
0.08  -0.32  45.5533041199
0.08  -0.3  58.2354021231
0.08  -0.28  74.4482123956
0.08  -0.26  95.1746897392
0.08  -0.24  121.671444827
0.08  -0.22  155.544930347
0.08  -0.2  94.053871029
0.08  -0.18  85.4082842145
0.08  -0.16  76.8066713326
0.08  -0.14  68.2828143163
0.08  -0.12  59.8872730187
0.08  -0.1  51.7000943617
0.08  -0.08  43.8556674923
0.08  -0.06  36.5923969263
0.08  -0.04  30.3468728505
0.08  -0.02  25.8806700073
0.08  6.17561557e-16  24.2085590779
0.08  0.02  25.8806700073
0.08  0.04  30.3468728505
0.08  0.06  36.5923969263
0.08  0.08  43.8556674923
0.08  0.1  51.7000943617
0.08  0.12  59.8872730187
0.08  0.14  68.2828143163
0.08  0.16  76.8066713326
0.08  0.18  85.4082842145
0.08  0.2  198.848837465
0.08  0.22  155.544930347
0.08  0.24  121.671444827
0.08  0.26  95.1746897392
0.08  0.28  74.4482123956
0.08  0.3  58.2354021231
0.08  0.32  45.5533041199
0.08  0.34  35.6330245965
0.08  0.36  27.8731140677
0.08  0.38  21.8031025047
0.08  0.4  17.0549755466
0.08  0.42  13.3408624223
0.08  0.44  10.4355828411
0.08  0.46  8.1629946991
0.08  0.48  6.3853148858
0.08  0.5  4.99476573166
0.08  0.52  3.90704063314
0.08  0.54  3.05619268832
0.08  0.56  2.39063644973
0.08  0.58  1.87002038733
0.08  0.6  1.46278044469
0.08  0.62  1.14422636452
0.08  0.64  0.895044760827
0.08  0.66  0.70012818156
0.08  0.68  0.547659169762
0.08  0.7  0.428393791486
0.08  0.72  0.335101191975
0.08  0.74  0.26212520138
0.08  0.76  0.205041410905
0.08  0.78  0.160388928515
0.08  0.8  0.125460551
0.08  0.82  0.0981386309085
0.08  0.84  0.076766687216
0.08  0.86  0.0600489757353
0.08  0.88  0.0469719303728
0.08  0.9  0.0367427123599
0.08  0.92  0.028741141802
0.08  0.94  0.0224820972386
0.08  0.96  0.0175861035629
0.08  0.98  0.0137563250991
0.1  -1  0.00845228417844
0.1  -0.98  0.0108054108807
0.1  -0.96  0.0138136510601
0.1  -0.94  0.0176593891445
0.1  -0.92  0.0225757856197
0.1  -0.9  0.028860913148
0.1  -0.88  0.0368958282014
0.1  -0.86  0.04716767386
0.1  -0.84  0.0602992144592
0.1  -0.82  0.0770865927199
0.1  -0.8  0.098547598513
0.1  -0.78  0.125983375708
0.1  -0.76  0.161057308288
0.1  -0.74  0.205895868461
0.1  -0.72  0.263217541009
0.1  -0.7  0.336497640351
0.1  -0.68  0.430179012872
0.1  -0.66  0.54994139906
0.1  -0.64  0.703045786407
0.1  -0.62  0.898774630587
0.1  -0.6  1.14899463478
0.1  -0.58  1.46887620748
0.1  -0.56  1.87781321826
0.1  -0.54  2.40059881473
0.1  -0.52  3.06892858846
0.1  -0.5  3.92332222412
0.1  -0.48  5.01558013836
0.1  -0.46  6.41192404989
0.1  -0.44  8.19701188843
0.1  -0.42  10.4790704594
0.1  -0.4  13.3964570489
0.1  -0.38  17.1260477882
0.1  -0.36  21.8939613492
0.1  -0.34  27.9892681304
0.1  -0.32  35.7815160985
0.1  -0.3  45.7431358456
0.1  -0.28  58.4780832435
0.1  -0.26  74.7584562496
0.1  -0.24  95.5713058781
0.1  -0.22  122.178479405
0.1  -0.2  93.7774376768
0.1  -0.18  84.8426611969
0.1  -0.16  75.9148243986
0.1  -0.14  67.0146839555
0.1  -0.12  58.1733186553
0.1  -0.1  49.4410803984
0.1  -0.08  40.9072365088
0.1  -0.06  32.7471266507
0.1  -0.04  25.3445559489
0.1  -0.02  19.5969559983
0.1  6.17561557e-16  17.2595052927
0.1  0.02  19.5969559983
0.1  0.04  25.3445559489
0.1  0.06  32.7471266507
0.1  0.08  40.9072365088
0.1  0.1  49.4410803984
0.1  0.12  58.1733186553
