-0.48  0.44  0.523611518823
-0.48  0.46  0.419502501117
-0.48  0.48  0.336093348059
-0.48  0.5  0.269268331675
-0.48  0.52  0.215730048993
-0.48  0.54  0.172836715514
-0.48  0.56  0.138471809417
-0.48  0.58  0.110939634245
-0.48  0.6  0.0888816467279
-0.48  0.62  0.0712094210409
-0.48  0.64  0.0570509416922
-0.48  0.66  0.0457075749302
-0.48  0.68  0.0366195954709
-0.48  0.7  0.0293385675022
-0.48  0.72  0.0235052171389
-0.48  0.74  0.0188317044691
-0.48  0.76  0.0150874204273
-0.48  0.78  0.0120876076578
-0.48  0.8  0.00968424387679
-0.48  0.82  0.00775873788428
-0.48  0.84  0.00621607781907
-0.48  0.86  0.00498014290842
-0.48  0.88  0.00398994737682
-0.48  0.9  0.00319663117355
-0.48  0.92  0.00256104903014
-0.48  0.94  0.00205183888247
-0.48  0.96  0.00164387434604
-0.48  0.98  0.0013170248837
-0.46  -1  0.00122959182949
-0.46  -0.98  0.00153474280525
-0.46  -0.96  0.00191562388572
-0.46  -0.94  0.00239102920632
-0.46  -0.92  0.00298441709153
-0.46  -0.9  0.0037250675787
-0.46  -0.88  0.00464952720761
-0.46  -0.86  0.00580341236704
-0.46  -0.84  0.00724366018265
-0.46  -0.82  0.00904133801343
-0.46  -0.8  0.0112851501881
-0.46  -0.78  0.0140858150176
-0.46  -0.76  0.0175815280615
-0.46  -0.74  0.0219447812277
-0.46  -0.72  0.0273908741862
-0.46  -0.7  0.0341885380811
-0.46  -0.68  0.0426731957576
-0.46  -0.66  0.0532635128139
-0.46  -0.64  0.0664820561691
-0.46  -0.62  0.0829810795228
-0.46  -0.6  0.103574708057
-0.46  -0.58  0.129279110502
-0.46  -0.56  0.161362640799
-0.46  -0.54  0.201408423561
-0.46  -0.52  0.25139247152
-0.46  -0.5  0.313781189582
-0.46  -0.48  0.391653076723
-0.46  -0.46  0.488850630947
-0.46  -0.44  0.610169952899
-0.46  -0.42  0.761597403895
-0.46  -0.4  0.950604995973
-0.46  -0.38  1.18651908968
-0.46  -0.36  1.4809805925
-0.46  -0.34  1.84851936597
-0.46  -0.32  2.30727118482
-0.46  -0.3  2.8798726258
-0.46  -0.28  3.59457804327
-0.46  -0.26  4.48665374761
-0.46  -0.24  5.60011818038
-0.46  -0.22  6.98991395334
-0.46  -0.2  4.17725662351
-0.46  -0.18  3.87024136816
-0.46  -0.16  3.55101776759
-0.46  -0.14  3.22344070218
-0.46  -0.12  2.89248440526
-0.46  -0.1  2.56488102871
-0.46  -0.08  2.2502014244
-0.46  -0.06  1.96257034596
-0.46  -0.04  1.72281927756
-0.46  -0.02  1.55905829025
-0.46  6.17561557e-16  1.50009704161
-0.46  0.02  1.55905829025
-0.46  0.04  1.72281927756
-0.46  0.06  1.96257034596
-0.46  0.08  2.2502014244
-0.46  0.1  2.56488102871
-0.46  0.12  2.89248440526
-0.46  0.14  3.22344070218
-0.46  0.16  3.55101776759
-0.46  0.18  3.87024136816
-0.46  0.2  8.72461892791
-0.46  0.22  6.98991395334
-0.46  0.24  5.60011818038
-0.46  0.26  4.48665374761
-0.46  0.28  3.59457804327
-0.46  0.3  2.8798726258
-0.46  0.32  2.30727118482
-0.46  0.34  1.84851936597
-0.46  0.36  1.4809805925
-0.46  0.38  1.18651908968
-0.46  0.4  0.950604995973
-0.46  0.42  0.761597403895
-0.46  0.44  0.610169952899
-0.46  0.46  0.488850630947
-0.46  0.48  0.391653076723
-0.46  0.5  0.313781189582
-0.46  0.52  0.25139247152
-0.46  0.54  0.201408423561
-0.46  0.56  0.161362640799
-0.46  0.58  0.129279110502
-0.46  0.6  0.103574708057
-0.46  0.62  0.0829810795228
-0.46  0.64  0.0664820561691
-0.46  0.66  0.0532635128139
-0.46  0.68  0.0426731957576
-0.46  0.7  0.0341885380811
-0.46  0.72  0.0273908741862
-0.46  0.74  0.0219447812277
-0.46  0.76  0.0175815280615
-0.46  0.78  0.0140858150176
-0.46  0.8  0.0112851501881
-0.46  0.82  0.00904133801343
-0.46  0.84  0.00724366018265
-0.46  0.86  0.00580341236704
-0.46  0.88  0.00464952720761
-0.46  0.9  0.0037250675787
-0.46  0.92  0.00298441709153
-0.46  0.94  0.00239102920632
-0.46  0.96  0.00191562388572
-0.46  0.98  0.00153474280524
-0.44  -1  0.00143285615712
-0.44  -0.98  0.00178845176533
-0.44  -0.96  0.00223229645281
-0.44  -0.94  0.00278629122117
-0.44  -0.92  0.00347777230008
-0.44  -0.9  0.00434086002186
-0.44  -0.88  0.00541814244967
-0.44  -0.86  0.00676277683618
-0.44  -0.84  0.00844111260654
-0.44  -0.82  0.0105359652939
-0.44  -0.8  0.0131507029758
-0.44  -0.78  0.0164143468524
-0.44  -0.76  0.0204879376475
-0.44  -0.74  0.0255724819771
-0.44  -0.72  0.0319188707873
-0.44  -0.7  0.0398402592775
-0.44  -0.68  0.0497275191807
-0.44  -0.66  0.0620685258757
-0.44  -0.64  0.0774722320328
-0.44  -0.62  0.0966987156771
-0.44  -0.6  0.120696685357
-0.44  -0.58  0.15065029307
-0.44  -0.56  0.188037564867
-0.44  -0.54  0.234703332337
-0.44  -0.52  0.292950263683
-0.44  -0.5  0.365652486214
-0.44  -0.48  0.456397406829
-0.44  -0.46  0.569662728448
-0.44  -0.44  0.711037397072
-0.44  -0.42  0.887497381851
-0.44  -0.4  1.10774989619
-0.44  -0.38  1.38266304509
-0.44  -0.36  1.72580209924
-0.44  -0.34  2.15409885749
-0.44  -0.32  2.68868712692
-0.44  -0.3  3.35594554602
-0.44  -0.28  4.18879920802
-0.44  -0.26  5.22834431146
-0.44  -0.24  6.52587600447
-0.44  -0.22  8.1454194844
-0.44  -0.2  4.86780062238
-0.44  -0.18  4.51003254975
-0.44  -0.16  4.13803796537
-0.44  -0.14  3.75630900146
-0.44  -0.12  3.3706421839
-0.44  -0.1  2.98888255934
-0.44  -0.08  2.62218314109
-0.44  -0.06  2.28700365158
-0.44  -0.04  2.00761923612
-0.44  -0.02  1.8167868531
-0.44  6.17561557e-16  1.74807869635
-0.44  0.02  1.8167868531
-0.44  0.04  2.00761923612
-0.44  0.06  2.28700365158
-0.44  0.08  2.62218314109
-0.44  0.1  2.98888255934
-0.44  0.12  3.3706421839
-0.44  0.14  3.75630900146
-0.44  0.16  4.13803796537
-0.44  0.18  4.51003254975
-0.44  0.2  10.166889247
-0.44  0.22  8.1454194844
-0.44  0.24  6.52587600447
-0.44  0.26  5.22834431146
-0.44  0.28  4.18879920802
-0.44  0.3  3.35594554602
-0.44  0.32  2.68868712692
-0.44  0.34  2.15409885749
-0.44  0.36  1.72580209924
-0.44  0.38  1.38266304509
-0.44  0.4  1.10774989619
-0.44  0.42  0.887497381851
-0.44  0.44  0.711037397072
-0.44  0.46  0.569662728448
-0.44  0.48  0.456397406829
-0.44  0.5  0.365652486214
-0.44  0.52  0.292950263683
-0.44  0.54  0.234703332337
-0.44  0.56  0.188037564867
-0.44  0.58  0.15065029307
-0.44  0.6  0.120696685357
-0.44  0.62  0.0966987156771
-0.44  0.64  0.0774722320328
-0.44  0.66  0.0620685258757
-0.44  0.68  0.0497275191807
-0.44  0.7  0.0398402592775
-0.44  0.72  0.0319188707873
-0.44  0.74  0.0255724819771
-0.44  0.76  0.0204879376475
-0.44  0.78  0.0164143468524
-0.44  0.8  0.0131507029758
-0.44  0.82  0.0105359652939
-0.44  0.84  0.00844111260654
-0.44  0.86  0.00676277683618
-0.44  0.88  0.00541814244967
-0.44  0.9  0.00434086002186
-0.44  0.92  0.00347777230008
-0.44  0.94  0.00278629122117
-0.44  0.96  0.00223229645281
-0.44  0.98  0.00178845176533
-0.42  -1  0.00166972219379
-0.42  -0.98  0.00208410145726
-0.42  -0.96  0.00260131829134
-0.42  -0.94  0.00324689416116
-0.42  -0.92  0.00405268425971
-0.42  -0.9  0.00505844936535
-0.42  -0.88  0.00631381779138
-0.42  -0.86  0.00788073423761
-0.42  -0.84  0.00983651637979
-0.42  -0.82  0.0122776700207
-0.42  -0.8  0.0153246510569
-0.42  -0.78  0.0191278092359
-0.42  -0.76  0.0238748069895
-0.42  -0.74  0.0297998794193
-0.42  -0.72  0.0371953923563
-0.42  -0.7  0.0464262688138
-0.42  -0.68  0.0579479956905
-0.42  -0.66  0.0723290992437
-0.42  -0.64  0.0902791983582
-0.42  -0.62  0.112684019868
-0.42  -0.6  0.140649103719
-0.42  -0.58  0.175554354559
-0.42  -0.56  0.21912213153
-0.42  -0.54  0.273502236084
-0.42  -0.52  0.341377991445
-0.42  -0.5  0.426098648083
-0.42  -0.48  0.531844648594
-0.42  -0.46  0.663833906799
-0.42  -0.44  0.828579279647
-0.42  -0.42  1.03420993659
-0.42  -0.4  1.29087248405
-0.42  -0.38  1.61123163791
-0.42  -0.36  2.01109514927
-0.42  -0.34  2.51019381959
-0.42  -0.32  3.13315509422
-0.42  -0.3  3.91071827517
-0.42  -0.28  4.88125131626
-0.42  -0.26  6.0926440454
-0.42  -0.24  7.60467123264
-0.42  -0.22  9.49194210683
-0.42  -0.2  5.67249873181
-0.42  -0.18  5.25558787294
-0.42  -0.16  4.82209871184
-0.42  -0.14  4.37726597697
-0.42  -0.12  3.92784442025
-0.42  -0.1  3.48297595621
-0.42  -0.08  3.05565730733
-0.42  -0.06  2.66506915948
-0.42  -0.04  2.33949959217
-0.42  -0.02  2.11712062996
-0.42  6.17561557e-16  2.03705429975
-0.42  0.02  2.11712062996
-0.42  0.04  2.33949959217
-0.42  0.06  2.66506915948
-0.42  0.08  3.05565730733
-0.42  0.1  3.48297595621
-0.42  0.12  3.92784442025
-0.42  0.14  4.37726597697
-0.42  0.16  4.82209871184
-0.42  0.18  5.25558787294
-0.42  0.2  11.8475818616
-0.42  0.22  9.49194210683
-0.42  0.24  7.60467123264
-0.42  0.26  6.0926440454
-0.42  0.28  4.88125131625
-0.42  0.3  3.91071827517
-0.42  0.32  3.13315509422
-0.42  0.34  2.51019381959
-0.42  0.36  2.01109514927
-0.42  0.38  1.61123163791
-0.42  0.4  1.29087248405
-0.42  0.42  1.03420993659
-0.42  0.44  0.828579279647
-0.42  0.46  0.663833906799
-0.42  0.48  0.531844648594
-0.42  0.5  0.426098648083
-0.42  0.52  0.341377991445
-0.42  0.54  0.273502236084
-0.42  0.56  0.21912213153
-0.42  0.58  0.175554354559
-0.42  0.6  0.140649103719
-0.42  0.62  0.112684019868
-0.42  0.64  0.0902791983582
-0.42  0.66  0.0723290992437
-0.42  0.68  0.0579479956905
-0.42  0.7  0.0464262688138
-0.42  0.72  0.0371953923563
-0.42  0.74  0.0297998794193
-0.42  0.76  0.0238748069895
-0.42  0.78  0.0191278092359
-0.42  0.8  0.0153246510569
-0.42  0.82  0.0122776700207
-0.42  0.84  0.00983651637979
-0.42  0.86  0.00788073423761
-0.42  0.88  0.00631381779138
-0.42  0.9  0.00505844936535
-0.42  0.92  0.00405268425971
-0.42  0.94  0.00324689416116
-0.42  0.96  0.00260131829134
-0.42  0.98  0.00208410145726
-0.4  -1  0.00194574465174
-0.4  -0.98  0.00242862512053
-0.4  -0.96  0.00303134328074
-0.4  -0.94  0.00378363956133
-0.4  -0.92  0.00472263515023
-0.4  -0.9  0.00589466369635
-0.4  -0.88  0.00735755758972
-0.4  -0.86  0.00918350163378
-0.4  -0.84  0.0114625949208
-0.4  -0.82  0.0143072966673
-0.4  -0.8  0.0178579753834
-0.4  -0.78  0.0222898351946
-0.4  -0.76  0.027821561086
-0.4  -0.74  0.0347261096596
-0.4  -0.72  0.0433441778613
-0.4  -0.7  0.0541010142769
-0.4  -0.68  0.0675274025303
-0.4  -0.66  0.0842858521867
-0.4  -0.64  0.105203289519
-0.4  -0.62  0.131311861225
-0.4  -0.6  0.163899864512
-0.4  -0.58  0.204575316627
-0.4  -0.56  0.255345300606
-0.4  -0.54  0.318715002458
-0.4  -0.52  0.397811326666
-0.4  -0.5  0.496537189662
-0.4  -0.48  0.619764104716
-0.4  -0.46  0.773572561114
-0.4  -0.44  0.965552058847
-0.4  -0.42  1.2051756037
-0.4  -0.4  1.50426714172
-0.4  -0.38  1.87758499817
-0.4  -0.36  2.34355010994
-0.4  -0.34  2.92515498534
-0.4  -0.32  3.65109824277
-0.4  -0.3  4.55720071079
-0.4  -0.28  5.68817296538
-0.4  -0.26  7.09982152144
-0.4  -0.24  8.86180254067
-0.4  -0.22  11.061058934
-0.4  -0.2  6.61022181442
-0.4  -0.18  6.12439125116
-0.4  -0.16  5.61924181976
-0.4  -0.14  5.10087360377
-0.4  -0.12  4.57715798592
-0.4  -0.1  4.05874813435
-0.4  -0.08  3.56078926506
-0.4  -0.06  3.10563283094
-0.4  -0.04  2.72624322546
-0.4  -0.02  2.46710270616
-0.4  6.17561557e-16  2.3738005782
-0.4  0.02  2.46710270616
-0.4  0.04  2.72624322546
-0.4  0.06  3.10563283094
-0.4  0.08  3.56078926506
-0.4  0.1  4.05874813435
-0.4  0.12  4.57715798592
-0.4  0.14  5.10087360377
-0.4  0.16  5.61924181976
-0.4  0.18  6.12439125116
-0.4  0.2  13.806110459
-0.4  0.22  11.061058934
-0.4  0.24  8.86180254067
-0.4  0.26  7.09982152144
-0.4  0.28  5.68817296537
-0.4  0.3  4.55720071079
-0.4  0.32  3.65109824277
-0.4  0.34  2.92515498534
-0.4  0.36  2.34355010994
-0.4  0.38  1.87758499817
-0.4  0.4  1.50426714172
-0.4  0.42  1.2051756037
-0.4  0.44  0.965552058847
-0.4  0.46  0.773572561114
-0.4  0.48  0.619764104716
-0.4  0.5  0.496537189662
-0.4  0.52  0.397811326666
-0.4  0.54  0.318715002458
-0.4  0.56  0.255345300606
-0.4  0.58  0.204575316627
-0.4  0.6  0.163899864511
-0.4  0.62  0.131311861225
-0.4  0.64  0.105203289519
-0.4  0.66  0.0842858521867
-0.4  0.68  0.0675274025303
-0.4  0.7  0.0541010142769
-0.4  0.72  0.0433441778613
-0.4  0.74  0.0347261096596
-0.4  0.76  0.027821561086
-0.4  0.78  0.0222898351946
-0.4  0.8  0.0178579753834
-0.4  0.82  0.0143072966673
-0.4  0.84  0.0114625949208
-0.4  0.86  0.00918350163378
-0.4  0.88  0.00735755758972
-0.4  0.9  0.00589466369635
-0.4  0.92  0.00472263515023
-0.4  0.94  0.00378363956133
-0.4  0.96  0.00303134328074
-0.4  0.98  0.00242862512053
-0.38  -1  0.00226739649497
-0.38  -0.98  0.00283010213132
-0.38  -0.96  0.0035324558768
-0.38  -0.94  0.00440911456286
-0.38  -0.92  0.00550333589615
-0.38  -0.9  0.00686911296001
-0.38  -0.88  0.00857383844049
-0.38  -0.86  0.0107016300404
-0.38  -0.84  0.0133574811698
-0.38  -0.82  0.016672441724
-0.38  -0.8  0.0208100845891
-0.38  -0.78  0.0259745769561
-0.38  -0.76  0.0324207547144
-0.38  -0.74  0.0404666970333
-0.38  -0.72  0.05050942161
-0.38  -0.7  0.0630444750477
-0.38  -0.68  0.0786903850281
-0.38  -0.66  0.0982191808431
-0.38  -0.64  0.122594488285
-0.38  -0.62  0.153019078646
-0.38  -0.6  0.190994218068
-0.38  -0.58  0.238393745789
-0.38  -0.56  0.29755653656
-0.38  -0.54  0.371401909712
-0.38  -0.52  0.463573679586
-0.38  -0.5  0.578619955324
-0.38  -0.48  0.722217562046
-0.38  -0.46  0.901452157202
-0.38  -0.44  1.12516786413
-0.38  -0.42  1.40440367507
-0.38  -0.4  1.75293815742
-0.38  -0.38  2.18796934123
-0.38  -0.36  2.73096333597
-0.38  -0.34  3.40871355091
-0.38  -0.32  4.25466278478
-0.38  -0.3  5.31055342195
-0.38  -0.28  6.62848716195
-0.38  -0.26  8.27349591749
-0.38  -0.24  10.3267507388
-0.38  -0.22  12.889567105
-0.38  -0.2  7.70296028289
-0.38  -0.18  7.13681687075
-0.38  -0.16  6.54816098049
-0.38  -0.14  5.94410110296
-0.38  -0.12  5.33380984238
-0.38  -0.1  4.72970144648
-0.38  -0.08  4.14942479308
-0.38  -0.06  3.6190262629
-0.38  -0.04  3.17691960675
-0.38  -0.02  2.87494046235
-0.38  6.17561557e-16  2.7662145215
-0.38  0.02  2.87494046235
-0.38  0.04  3.17691960675
-0.38  0.06  3.6190262629
-0.38  0.08  4.14942479308
-0.38  0.1  4.72970144648
-0.38  0.12  5.33380984238
-0.38  0.14  5.94410110296
-0.38  0.16  6.54816098049
-0.38  0.18  7.13681687075
-0.38  0.2  16.0884042189
-0.38  0.22  12.889567105
-0.38  0.24  10.3267507388
-0.38  0.26  8.27349591749
-0.38  0.28  6.62848716194
-0.38  0.3  5.31055342195
-0.38  0.32  4.25466278478
-0.38  0.34  3.40871355091
-0.38  0.36  2.73096333597
-0.38  0.38  2.18796934123
-0.38  0.4  1.75293815742
-0.38  0.42  1.40440367507
-0.38  0.44  1.12516786413
-0.38  0.46  0.901452157202
-0.38  0.48  0.722217562046
-0.38  0.5  0.578619955324
-0.38  0.52  0.463573679586
-0.38  0.54  0.371401909712
-0.38  0.56  0.29755653656
-0.38  0.58  0.238393745789
-0.38  0.6  0.190994218068
-0.38  0.62  0.153019078646
-0.38  0.64  0.122594488285
-0.38  0.66  0.0982191808431
-0.38  0.68  0.0786903850281
-0.38  0.7  0.0630444750477
-0.38  0.72  0.05050942161
-0.38  0.74  0.0404666970333
-0.38  0.76  0.0324207547144
-0.38  0.78  0.0259745769561
-0.38  0.8  0.0208100845891
-0.38  0.82  0.016672441724
-0.38  0.84  0.0133574811698
-0.38  0.86  0.0107016300404
-0.38  0.88  0.00857383844049
-0.38  0.9  0.00686911296001
-0.38  0.92  0.00550333589615
-0.38  0.94  0.00440911456286
-0.38  0.96  0.0035324558768
-0.38  0.98  0.00283010213132
-0.36  -1  0.0026422207358
-0.36  -0.98  0.00329794747077
-0.36  -0.96  0.00411640760083
-0.36  -0.94  0.0051379870924
-0.36  -0.92  0.0064130946013
-0.36  -0.9  0.00800464882952
-0.36  -0.88  0.00999118317557
-0.36  -0.86  0.0124707208741
-0.36  -0.84  0.0155656118386
-0.36  -0.82  0.0194285698762
-0.36  -0.8  0.0242502081737
-0.36  -0.78  0.0302684448836
-0.36  -0.76  0.0377802429204
-0.36  -0.74  0.0471562632509
-0.36  -0.72  0.0588591547299
-0.36  -0.7  0.073466382972
-0.36  -0.68  0.0916987247227
-0.36  -0.66  0.114455833752
-0.36  -0.64  0.142860633225
-0.36  -0.62  0.178314725046
-0.36  -0.6  0.22256755028
-0.36  -0.58  0.277802713291
-0.36  -0.56  0.346745729173
-0.36  -0.54  0.432798511128
-0.36  -0.52  0.540207233932
-0.36  -0.5  0.67427185651
-0.36  -0.48  0.841607642259
-0.36  -0.46  1.05047158156
-0.36  -0.44  1.31116982339
-0.36  -0.42  1.6365662203
-0.36  -0.4  2.04271708032
-0.36  -0.38  2.54966344683
-0.36  -0.36  3.18242000066
-0.36  -0.34  3.9722093805
-0.36  -0.32  4.9580028278
-0.36  -0.3  6.18844317753
-0.36  -0.28  7.72424508248
-0.36  -0.26  9.6411909074
-0.36  -0.24  12.033870122
-0.36  -0.22  15.0203467086
-0.36  -0.2  8.97633979398
-0.36  -0.18  8.3166069831
-0.36  -0.16  7.63064014716
-0.36  -0.14  6.9267228845
-0.36  -0.12  6.21554412632
-0.36  -0.1  5.51157032471
-0.36  -0.08  4.8353679007
-0.36  -0.06  4.21728897282
-0.36  -0.04  3.70209748474
-0.36  -0.02  3.35019804461
-0.36  6.17561557e-16  3.22349857407
-0.36  0.02  3.35019804461
-0.36  0.04  3.70209748474
-0.36  0.06  4.21728897282
-0.36  0.08  4.8353679007
-0.36  0.1  5.51157032471
-0.36  0.12  6.21554412632
-0.36  0.14  6.9267228845
-0.36  0.16  7.63064014716
-0.36  0.18  8.3166069831
-0.36  0.2  18.7479848926
-0.36  0.22  15.0203467086
-0.36  0.24  12.033870122
-0.36  0.26  9.64119090739
-0.36  0.28  7.72424508248
-0.36  0.3  6.18844317753
-0.36  0.32  4.9580028278
-0.36  0.34  3.9722093805
-0.36  0.36  3.18242000066
-0.36  0.38  2.54966344683
-0.36  0.4  2.04271708032
-0.36  0.42  1.6365662203
-0.36  0.44  1.31116982339
-0.36  0.46  1.05047158156
-0.36  0.48  0.841607642259
-0.36  0.5  0.67427185651
-0.36  0.52  0.540207233932
-0.36  0.54  0.432798511128
-0.36  0.56  0.346745729173
-0.36  0.58  0.277802713291
-0.36  0.6  0.22256755028
-0.36  0.62  0.178314725046
-0.36  0.64  0.142860633225
-0.36  0.66  0.114455833752
-0.36  0.68  0.0916987247227
-0.36  0.7  0.073466382972
-0.36  0.72  0.0588591547299
-0.36  0.74  0.0471562632509
-0.36  0.76  0.0377802429204
-0.36  0.78  0.0302684448836
-0.36  0.8  0.0242502081737
-0.36  0.82  0.0194285698762
-0.36  0.84  0.0155656118386
-0.36  0.86  0.0124707208741
-0.36  0.88  0.00999118317557
-0.36  0.9  0.00800464882952
-0.36  0.92  0.0064130946013
-0.36  0.94  0.0051379870924
-0.36  0.96  0.00411640760083
-0.36  0.98  0.00329794747077
-0.34  -1  0.003079007325
-0.34  -0.98  0.0038431325144
-0.34  -0.96  0.00479689262291
-0.34  -0.94  0.00598734983755
-0.34  -0.92  0.00747324588964
-0.34  -0.9  0.00932790059749
-0.34  -0.88  0.0116428297478
-0.34  -0.86  0.0145322608361
-0.34  -0.84  0.0181387694903
-0.34  -0.82  0.0226403146992
-0.34  -0.8  0.0282590199932
-0.34  -0.78  0.0352721338722
-0.34  -0.76  0.0440257103111
-0.34  -0.74  0.0549516843926
-0.34  -0.72  0.0685891856427
-0.34  -0.7  0.0856111407527
-0.34  -0.68  0.106857478366
-0.34  -0.66  0.133376574385
-0.34  -0.64  0.166476982863
-0.34  -0.62  0.207792005086
-0.34  -0.6  0.259360282937
-0.34  -0.58  0.32372639331
-0.34  -0.56  0.404066407311
-0.34  -0.54  0.504344609804
-0.34  -0.52  0.629509112452
-0.34  -0.5  0.785736012555
-0.34  -0.48  0.980734145404
-0.34  -0.46  1.22412546783
-0.34  -0.44  1.52791984252
-0.34  -0.42  1.90710765073
-0.34  -0.4  2.38039947533
-0.34  -0.38  2.97114935278
-0.34  -0.36  3.70850715101
-0.34  -0.34  4.62885693587
-0.34  -0.32  5.77761230065
-0.34  -0.3  7.21145724724
-0.34  -0.28  9.00114319248
-0.34  -0.26  11.2349801148
-0.34  -0.24  14.0231941078
-0.34  -0.22  17.5033663589
-0.34  -0.2  10.4602221922
-0.34  -0.18  9.69142868088
-0.34  -0.16  8.89206438706
-0.34  -0.14  8.07178227416
-0.34  -0.12  7.24303826495
-0.34  -0.1  6.42269026661
-0.34  -0.08  5.63470454365
-0.34  -0.06  4.91445073571
-0.34  -0.04  4.31409273228
-0.34  -0.02  3.90402065195
-0.34  6.17561557e-16  3.75637644017
-0.34  0.02  3.90402065195
-0.34  0.04  4.31409273228
-0.34  0.06  4.91445073571
-0.34  0.08  5.63470454365
-0.34  0.1  6.42269026661
-0.34  0.12  7.24303826495
-0.34  0.14  8.07178227416
-0.34  0.16  8.89206438706
-0.34  0.18  9.69142868088
-0.34  0.2  21.8472219338
-0.34  0.22  17.5033663589
-0.34  0.24  14.0231941078
-0.34  0.26  11.2349801148
-0.34  0.28  9.00114319248
-0.34  0.3  7.21145724724
-0.34  0.32  5.77761230065
-0.34  0.34  4.62885693587
-0.34  0.36  3.70850715101
-0.34  0.38  2.97114935278
-0.34  0.4  2.38039947533
-0.34  0.42  1.90710765073
-0.34  0.44  1.52791984252
-0.34  0.46  1.22412546783
-0.34  0.48  0.980734145404
-0.34  0.5  0.785736012555
-0.34  0.52  0.629509112452
-0.34  0.54  0.504344609804
-0.34  0.56  0.404066407311
-0.34  0.58  0.32372639331
-0.34  0.6  0.259360282937
-0.34  0.62  0.207792005086
-0.34  0.64  0.166476982863
-0.34  0.66  0.133376574385
-0.34  0.68  0.106857478366
-0.34  0.7  0.0856111407527
-0.34  0.72  0.0685891856427
-0.34  0.74  0.0549516843926
-0.34  0.76  0.0440257103111
-0.34  0.78  0.0352721338722
-0.34  0.8  0.0282590199932
-0.34  0.82  0.0226403146992
-0.34  0.84  0.0181387694903
-0.34  0.86  0.0145322608361
-0.34  0.88  0.0116428297478
-0.34  0.9  0.00932790059749
-0.34  0.92  0.00747324588964
-0.34  0.94  0.00598734983755
-0.34  0.96  0.00479689262291
-0.34  0.98  0.0038431325144
-0.32  -1  0.0035879992837
-0.32  -0.98  0.0044784423203
-0.32  -0.96  0.00558986890198
-0.32  -0.94  0.00697712108508
-0.32  -0.92  0.00870865122054
-0.32  -0.9  0.0108698996558
-0.32  -0.88  0.0135675106896
-0.32  -0.86  0.0169345948115
-0.32  -0.84  0.0211372968845
-0.32  -0.82  0.0263829943709
-0.32  -0.8  0.0329305301324
-0.32  -0.78  0.0411029847316
-0.32  -0.76  0.0513036184675
-0.32  -0.74  0.0640357697877
-0.32  -0.72  0.0799276919405
-0.32  -0.7  0.0997635534033
-0.32  -0.68  0.124522131767
-0.32  -0.66  0.155425110382
-0.32  -0.64  0.193997360907
-0.32  -0.62  0.242142186332
-0.32  -0.6  0.30223523726
-0.32  -0.58  0.377241735633
-0.32  -0.56  0.470862790168
-0.32  -0.54  0.587718023279
-0.32  -0.52  0.733573520991
-0.32  -0.5  0.915626353769
-0.32  -0.48  1.14285970762
-0.32  -0.46  1.42648614899
-0.32  -0.44  1.78050089585
-0.32  -0.42  2.22237239554
-0.32  -0.4  2.77390428501
-0.32  -0.38  3.46231126603
-0.32  -0.36  4.3215619831
-0.32  -0.34  5.39405516686
-0.32  -0.32  6.73271175027
-0.32  -0.3  8.40358619072
-0.32  -0.28  10.4891258507
-0.32  -0.26  13.0922392672
-0.32  -0.24  16.3413740543
-0.32  -0.22  20.396855002
-0.32  -0.2  12.1894057959
-0.32  -0.18  11.2935227151
-0.32  -0.16  10.3620151834
-0.32  -0.14  9.40613189929
-0.32  -0.12  8.44038787936
-0.32  -0.1  7.4844278183
-0.32  -0.08  6.56617985358
-0.32  -0.06  5.72686059442
-0.32  -0.04  5.02725716419
-0.32  -0.02  4.54939590075
-0.32  6.17561557e-16  4.377344564
-0.32  0.02  4.54939590075
-0.32  0.04  5.02725716419
-0.32  0.06  5.72686059442
-0.32  0.08  6.56617985358
-0.32  0.1  7.4844278183
-0.32  0.12  8.44038787936
-0.32  0.14  9.40613189929
-0.32  0.16  10.3620151834
-0.32  0.18  11.2935227151
-0.32  0.2  25.4587951165
-0.32  0.22  20.396855002
-0.32  0.24  16.3413740543
-0.32  0.26  13.0922392672
-0.32  0.28  10.4891258507
-0.32  0.3  8.40358619072
-0.32  0.32  6.73271175027
-0.32  0.34  5.39405516686
-0.32  0.36  4.3215619831
-0.32  0.38  3.46231126603
-0.32  0.4  2.77390428501
-0.32  0.42  2.22237239554
-0.32  0.44  1.78050089585
-0.32  0.46  1.42648614899
-0.32  0.48  1.14285970762
-0.32  0.5  0.915626353769
-0.32  0.52  0.733573520991
-0.32  0.54  0.587718023279
-0.32  0.56  0.470862790168
-0.32  0.58  0.377241735633
-0.32  0.6  0.30223523726
-0.32  0.62  0.242142186332
-0.32  0.64  0.193997360907
-0.32  0.66  0.155425110382
-0.32  0.68  0.124522131767
-0.32  0.7  0.0997635534033
-0.32  0.72  0.0799276919405
-0.32  0.74  0.0640357697877
-0.32  0.76  0.0513036184675
-0.32  0.78  0.0411029847316
-0.32  0.8  0.0329305301324
-0.32  0.82  0.0263829943709
-0.32  0.84  0.0211372968845
-0.32  0.86  0.0169345948115
-0.32  0.88  0.0135675106896
-0.32  0.9  0.0108698996558
-0.32  0.92  0.00870865122054
-0.32  0.94  0.00697712108508
-0.32  0.96  0.00558986890198
-0.32  0.98  0.0044784423203
-0.3  -1  0.00418113291101
-0.3  -0.98  0.00521877544975
-0.3  -0.96  0.00651393241367
-0.3  -0.94  0.00813051182186
-0.3  -0.92  0.0101482819114
-0.3  -0.9  0.0126668072083
-0.3  -0.88  0.0158103614241
-0.3  -0.86  0.0197340595977
-0.3  -0.84  0.0246315120673
-0.3  -0.82  0.030744377948
-0.3  -0.8  0.0383742895209
-0.3  -0.78  0.0478977359284
-0.3  -0.76  0.0597846405943
-0.3  -0.74  0.0746215490504
-0.3  -0.72  0.0931405713463
-0.3  -0.7  0.116255507171
-0.3  -0.68  0.145106936238
-0.3  -0.66  0.181118498872
-0.3  -0.64  0.226067143888
-0.3  -0.62  0.282170810071
-0.3  -0.6  0.352197867797
-0.3  -0.58  0.439603721057
-0.3  -0.56  0.548701310362
-0.3  -0.54  0.684873929795
-0.3  -0.52  0.854840859417
-0.3  -0.5  1.06698892035
-0.3  -0.48  1.33178631275
-0.3  -0.46  1.66229915701
-0.3  -0.44  2.07483622629
-0.3  -0.42  2.58975368411
-0.3  -0.4  3.23245953553
-0.3  -0.38  4.0346673558
-0.3  -0.36  5.03596115992
-0.3  -0.34  6.28574863001
-0.3  -0.32  7.84569908007
-0.3  -0.3  9.79278645684
-0.3  -0.28  12.2230875299
-0.3  -0.26  15.2565226887
-0.3  -0.24  19.0427732748
-0.3  -0.22  23.7686674346
-0.3  -0.2  14.2044414475
-0.3  -0.18  13.1604595687
-0.3  -0.16  12.0749641463
-0.3  -0.14  10.961063406
-0.3  -0.12  9.83567184767
-0.3  -0.1  8.7216816384
-0.3  -0.08  7.65163772751
-0.3  -0.06  6.67357025875
-0.3  -0.04  5.85831509968
-0.3  -0.02  5.30145839556
-0.3  6.17561557e-16  5.10096518206
-0.3  0.02  5.30145839556
-0.3  0.04  5.85831509968
-0.3  0.06  6.67357025875
-0.3  0.08  7.65163772751
-0.3  0.1  8.7216816384
-0.3  0.12  9.83567184767
-0.3  0.14  10.961063406
-0.3  0.16  12.0749641463
-0.3  0.18  13.1604595687
-0.3  0.2  29.6673989373
-0.3  0.22  23.7686674346
-0.3  0.24  19.0427732748
-0.3  0.26  15.2565226887
-0.3  0.28  12.2230875299
-0.3  0.3  9.79278645683
-0.3  0.32  7.84569908007
-0.3  0.34  6.28574863001
-0.3  0.36  5.03596115992
-0.3  0.38  4.0346673558
-0.3  0.4  3.23245953553
-0.3  0.42  2.58975368411
-0.3  0.44  2.07483622629
-0.3  0.46  1.66229915701
-0.3  0.48  1.33178631275
-0.3  0.5  1.06698892035
-0.3  0.52  0.854840859417
-0.3  0.54  0.684873929795
-0.3  0.56  0.548701310362
-0.3  0.58  0.439603721057
-0.3  0.6  0.352197867797
-0.3  0.62  0.282170810071
-0.3  0.64  0.226067143888
-0.3  0.66  0.181118498872
-0.3  0.68  0.145106936238
-0.3  0.7  0.116255507171
-0.3  0.72  0.0931405713463
-0.3  0.74  0.0746215490504
-0.3  0.76  0.0597846405943
-0.3  0.78  0.0478977359284
-0.3  0.8  0.0383742895209
-0.3  0.82  0.030744377948
-0.3  0.84  0.0246315120673
-0.3  0.86  0.0197340595977
-0.3  0.88  0.0158103614241
-0.3  0.9  0.0126668072083
-0.3  0.92  0.0101482819114
-0.3  0.94  0.00813051182186
-0.3  0.96  0.00651393241367
-0.3  0.98  0.00521877544975
-0.28  -1  0.00487231770056
-0.28  -0.98  0.00608149335126
-0.28  -0.96  0.00759075324196
-0.28  -0.94  0.00947457005251
-0.28  -0.92  0.0118258985398
-0.28  -0.9  0.0147607622824
-0.28  -0.88  0.0184239787298
-0.28  -0.86  0.0229963050513
-0.28  -0.84  0.0287033573893
-0.28  -0.82  0.0358267436259
-0.28  -0.8  0.0447179589978
-0.28  -0.78  0.0558157302214
-0.28  -0.76  0.0696676639534
-0.28  -0.74  0.0869572678074
-0.28  -0.72  0.108537677244
-0.28  -0.7  0.135473752552
-0.28  -0.68  0.169094623145
-0.28  -0.66  0.211059271909
-0.28  -0.64  0.263438395794
-0.28  -0.62  0.328816581953
-0.28  -0.6  0.410419841198
-0.28  -0.58  0.512274791766
-0.28  -0.56  0.639407348126
-0.28  -0.54  0.798090718906
-0.28  -0.52  0.996154951097
-0.28  -0.5  1.24337329465
-0.28  -0.48  1.55194445216
-0.28  -0.46  1.93709450971
-0.28  -0.44  2.41782825045
-0.28  -0.42  3.01786692356
-0.28  -0.4  3.76681874183
-0.28  -0.38  4.70163986458
-0.28  -0.36  5.8684579565
-0.28  -0.34  7.32484830382
-0.28  -0.32  9.14267480003
-0.28  -0.3  11.4116359864
-0.28  -0.28  14.2436911227
-0.28  -0.26  17.7785846868
-0.28  -0.24  22.190741904
-0.28  -0.22  27.6978755579
-0.28  -0.2  16.5525834658
-0.28  -0.18  15.3360205161
-0.28  -0.16  14.071081402
-0.28  -0.14  12.7730412754
-0.28  -0.12  11.4616107788
-0.28  -0.1  10.1634663929
-0.28  -0.08  8.916533086
-0.28  -0.06  7.77678088443
-0.28  -0.04  6.82675556198
-0.28  -0.02  6.17784464862
-0.28  6.17561557e-16  5.94420782009
-0.28  0.02  6.17784464862
-0.28  0.04  6.82675556198
-0.28  0.06  7.77678088443
-0.28  0.08  8.916533086
-0.28  0.1  10.1634663929
-0.28  0.12  11.4616107788
-0.28  0.14  12.7730412754
-0.28  0.16  14.071081402
-0.28  0.18  15.3360205161
-0.28  0.2  34.571728775
-0.28  0.22  27.6978755579
-0.28  0.24  22.190741904
-0.28  0.26  17.7785846868
-0.28  0.28  14.2436911227
-0.28  0.3  11.4116359864
-0.28  0.32  9.14267480003
-0.28  0.34  7.32484830382
-0.28  0.36  5.8684579565
-0.28  0.38  4.70163986458
-0.28  0.4  3.76681874183
-0.28  0.42  3.01786692356
-0.28  0.44  2.41782825045
-0.28  0.46  1.93709450971
-0.28  0.48  1.55194445216
-0.28  0.5  1.24337329465
-0.28  0.52  0.996154951097
-0.28  0.54  0.798090718906
-0.28  0.56  0.639407348126
-0.28  0.58  0.512274791766
-0.28  0.6  0.410419841198
-0.28  0.62  0.328816581953
-0.28  0.64  0.263438395794
-0.28  0.66  0.211059271909
-0.28  0.68  0.169094623145
-0.28  0.7  0.135473752552
-0.28  0.72  0.108537677244
-0.28  0.74  0.0869572678074
-0.28  0.76  0.0696676639534
-0.28  0.78  0.0558157302214
-0.28  0.8  0.0447179589978
-0.28  0.82  0.0358267436259
-0.28  0.84  0.0287033573893
-0.28  0.86  0.0229963050513
-0.28  0.88  0.0184239787298
-0.28  0.9  0.0147607622824
-0.28  0.92  0.0118258985398
-0.28  0.94  0.00947457005251
-0.28  0.96  0.00759075324196
-0.28  0.98  0.00608149335126
-0.26  -1  0.00567776253002
-0.26  -0.98  0.00708682750149
-0.26  -0.96  0.00884558376128
-0.26  -0.94  0.0110408150983
-0.26  -0.92  0.0137808426584
-0.26  -0.9  0.0172008699252
-0.26  -0.88  0.02146965418
-0.26  -0.86  0.0267978336336
-0.26  -0.84  0.0334483211249
-0.26  -0.82  0.0417492772502
-0.26  -0.8  0.0521103030674
-0.26  -0.78  0.0650426513854
-0.26  -0.76  0.0811844539414
-0.26  -0.74  0.101332209271
-0.26  -0.72  0.126480085008
-0.26  -0.7  0.157868973929
-0.26  -0.68  0.197047724373
-0.26  -0.66  0.245949566367
-0.26  -0.64  0.306987504619
-0.26  -0.62  0.38317338544
-0.26  -0.6  0.478266512807
-0.26  -0.58  0.596959146861
-0.26  -0.56  0.745108038048
-0.26  -0.54  0.930023421675
-0.26  -0.52  1.160829733
-0.26  -0.5  1.44891584191
-0.26  -0.48  1.80849702353
-0.26  -0.46  2.25731639443
-0.26  -0.44  2.81752042623
-0.26  -0.42  3.51675173752
-0.26  -0.4  4.38951308682
-0.26  -0.38  5.47886987125
-0.26  -0.36  6.8385751386
-0.26  -0.34  8.53572196918
-0.26  -0.32  10.6540541061
-0.26  -0.3  13.2980981931
-0.26  -0.28  16.5983215209
-0.26  -0.26  20.717569784
-0.26  -0.24  25.8591025132
-0.26  -0.22  32.2766226812
-0.26  -0.2  19.2888978004
-0.26  -0.18  17.8712243325
-0.26  -0.16  16.3971776168
-0.26  -0.14  14.8845579465
-0.26  -0.12  13.3563343387
-0.26  -0.1  11.8435931742
-0.26  -0.08  10.3905288129
-0.26  -0.06  9.06236370932
-0.26  -0.04  7.95528931271
-0.26  -0.02  7.19910667118
-0.26  6.17561557e-16  6.92684724308
-0.26  0.02  7.19910667118
-0.26  0.04  7.95528931271
-0.26  0.06  9.06236370932
-0.26  0.08  10.3905288129
-0.26  0.1  11.8435931742
-0.26  0.12  13.3563343387
-0.26  0.14  14.8845579465
-0.26  0.16  16.3971776168
-0.26  0.18  17.8712243325
-0.26  0.2  40.2867953816
-0.26  0.22  32.2766226812
-0.26  0.24  25.8591025132
-0.26  0.26  20.717569784
-0.26  0.28  16.5983215209
-0.26  0.3  13.2980981931
-0.26  0.32  10.6540541061
-0.26  0.34  8.53572196918
-0.26  0.36  6.8385751386
-0.26  0.38  5.47886987125
-0.26  0.4  4.38951308682
-0.26  0.42  3.51675173752
-0.26  0.44  2.81752042623
-0.26  0.46  2.25731639443
-0.26  0.48  1.80849702353
-0.26  0.5  1.44891584191
-0.26  0.52  1.160829733
-0.26  0.54  0.930023421675
-0.26  0.56  0.745108038048
-0.26  0.58  0.596959146861
-0.26  0.6  0.478266512807
-0.26  0.62  0.38317338544
-0.26  0.64  0.306987504619
-0.26  0.66  0.245949566367
-0.26  0.68  0.197047724373
-0.26  0.7  0.157868973929
-0.26  0.72  0.126480085008
-0.26  0.74  0.101332209271
-0.26  0.76  0.0811844539413
-0.26  0.78  0.0650426513854
-0.26  0.8  0.0521103030674
-0.26  0.82  0.0417492772502
-0.26  0.84  0.0334483211249
-0.26  0.86  0.0267978336336
-0.26  0.88  0.02146965418
-0.26  0.9  0.0172008699252
-0.26  0.92  0.0137808426584
-0.26  0.94  0.0110408150983
-0.26  0.96  0.00884558376128
-0.26  0.98  0.00708682750149
-0.24  -1  0.00661635577327
-0.24  -0.98  0.00825835385079
-0.24  -0.96  0.0103078508263
-0.24  -0.94  0.0128659767525
-0.24  -0.92  0.0160589593878
-0.24  -0.9  0.0200443527592
-0.24  -0.88  0.025018811483
-0.24  -0.86  0.0312277944586
-0.24  -0.84  0.0389776767539
-0.24  -0.82  0.0486508673273
-0.24  -0.8  0.0607246785549
-0.24  -0.78  0.0757948786564
-0.24  -0.76  0.0946050891869
-0.24  -0.74  0.118083478181
-0.24  -0.72  0.147388559529
-0.24  -0.7  0.1839663585
-0.24  -0.68  0.229621764185
-0.24  -0.66  0.286607589656
-0.24  -0.64  0.357735734415
-0.24  -0.62  0.446515934316
-0.24  -0.6  0.557328945414
-0.24  -0.58  0.695642707292
-0.24  -0.56  0.868282152201
-0.24  -0.54  1.08376597343
-0.24  -0.52  1.35272697037
-0.24  -0.5  1.68843671164
-0.24  -0.48  2.10746040527
-0.24  -0.46  2.63047428973
-0.24  -0.44  3.28328587887
-0.24  -0.42  4.09810740387
-0.24  -0.4  5.11514528835
-0.24  -0.38  6.38458408782
-0.24  -0.36  7.96906278837
-0.24  -0.34  9.94676565481
-0.24  -0.32  12.4152801426
-0.24  -0.3  15.4964122378
-0.24  -0.28  19.342196832
-0.24  -0.26  24.1423997083
-0.24  -0.24  30.1338813134
-0.24  -0.22  37.6122843619
-0.24  -0.2  22.4775533755
-0.24  -0.18  20.8255237275
-0.24  -0.16  19.107801747
-0.24  -0.14  17.3451303011
-0.24  -0.12  15.5642754245
-0.24  -0.1  13.8014624
-0.24  -0.08  12.1081913756
-0.24  -0.06  10.5604667561
-0.24  -0.04  9.2703814388
-0.24  -0.02  8.38919393589
-0.24  6.17561557e-16  8.07192719051
-0.24  0.02  8.38919393589
-0.24  0.04  9.2703814388
-0.24  0.06  10.5604667561
-0.24  0.08  12.1081913756
-0.24  0.1  13.8014624
-0.24  0.12  15.5642754245
-0.24  0.14  17.3451303011
-0.24  0.16  19.107801747
-0.24  0.18  20.8255237275
-0.24  0.2  46.9466219836
-0.24  0.22  37.6122843619
-0.24  0.24  30.1338813134
-0.24  0.26  24.1423997083
-0.24  0.28  19.342196832
-0.24  0.3  15.4964122378
-0.24  0.32  12.4152801426
-0.24  0.34  9.94676565481
-0.24  0.36  7.96906278837
-0.24  0.38  6.38458408782
-0.24  0.4  5.11514528835
-0.24  0.42  4.09810740387
-0.24  0.44  3.28328587887
-0.24  0.46  2.63047428973
-0.24  0.48  2.10746040527
-0.24  0.5  1.68843671164
-0.24  0.52  1.35272697037
-0.24  0.54  1.08376597343
-0.24  0.56  0.868282152201
-0.24  0.58  0.695642707292
-0.24  0.6  0.557328945414
-0.24  0.62  0.446515934316
-0.24  0.64  0.357735734415
-0.24  0.66  0.286607589656
-0.24  0.68  0.229621764185
-0.24  0.7  0.1839663585
-0.24  0.72  0.147388559529
-0.24  0.74  0.118083478181
-0.24  0.76  0.0946050891869
-0.24  0.78  0.0757948786564
-0.24  0.8  0.0607246785549
-0.24  0.82  0.0486508673273
-0.24  0.84  0.0389776767539
-0.24  0.86  0.0312277944586
-0.24  0.88  0.025018811483
-0.24  0.9  0.0200443527592
-0.24  0.92  0.0160589593878
-0.24  0.94  0.0128659767525
-0.24  0.96  0.0103078508263
-0.24  0.98  0.00825835385079
-0.22  -1  0.00771010824898
-0.22  -0.98  0.00962354569947
-0.22  -0.96  0.0120118458573
-0.22  -0.94  0.0149928566253
-0.22  -0.92  0.0187136725244
-0.22  -0.9  0.0233578929021
-0.22  -0.88  0.0291546814296
-0.22  -0.86  0.0363900739174
-0.22  -0.84  0.0454210924208
-0.22  -0.82  0.0566933620795
-0.22  -0.8  0.0707630999734
-0.22  -0.78  0.0883245610099
-0.22  -0.76  0.110244295127
-0.22  -0.74  0.137603906197
-0.22  -0.72  0.171753422514
-0.22  -0.7  0.214377912375
-0.22  -0.68  0.267580631825
-0.22  -0.66  0.333986807383
-0.22  -0.64  0.416873174809
-0.22  -0.62  0.520329665824
-0.22  -0.6  0.649461221054
-0.22  -0.58  0.81063968741
-0.22  -0.56  1.01181822948
-0.22  -0.54  1.26292376923
-0.22  -0.52  1.57634681844
-0.22  -0.5  1.96755287418
-0.22  -0.48  2.45584554578
-0.22  -0.46  3.06531906913
-0.22  -0.44  3.82604720876
-0.22  -0.42  4.77556721291
-0.22  -0.4  5.96073204554
-0.22  -0.38  7.44002229154
-0.22  -0.36  9.28643181335
-0.22  -0.34  11.5910695485
-0.22  -0.32  14.4676551747
-0.22  -0.3  18.0581304752
-0.22  -0.28  22.5396632918
-0.22  -0.26  28.1333896665
-0.22  -0.24  35.1153255432
-0.22  -0.22  43.8299864546
-0.22  -0.2  26.1933269062
-0.22  -0.18  24.2681995623
-0.22  -0.16  22.2665202594
-0.22  -0.14  20.2124608768
-0.22  -0.12  18.137212153
-0.22  -0.1  16.0829877874
-0.22  -0.08  14.1098014382
-0.22  -0.06  12.3062218296
-0.22  -0.04  10.8028719815
-0.22  -0.02  9.77601501248
-0.22  6.17561557e-16  9.40630077182
-0.22  0.02  9.77601501248
-0.22  0.04  10.8028719815
-0.22  0.06  12.3062218296
-0.22  0.08  14.1098014382
-0.22  0.1  16.0829877874
-0.22  0.12  18.137212153
-0.22  0.14  20.2124608768
-0.22  0.16  22.2665202594
-0.22  0.18  24.2681995623
-0.22  0.2  54.7073872418
-0.22  0.22  43.8299864546
-0.22  0.24  35.1153255432
-0.22  0.26  28.1333896665
-0.22  0.28  22.5396632918
-0.22  0.3  18.0581304752
-0.22  0.32  14.4676551747
-0.22  0.34  11.5910695485
-0.22  0.36  9.28643181334
-0.22  0.38  7.44002229154
-0.22  0.4  5.96073204554
-0.22  0.42  4.77556721291
-0.22  0.44  3.82604720876
-0.22  0.46  3.06531906913
-0.22  0.48  2.45584554578
-0.22  0.5  1.96755287418
-0.22  0.52  1.57634681844
-0.22  0.54  1.26292376923
-0.22  0.56  1.01181822948
-0.22  0.58  0.81063968741
-0.22  0.6  0.649461221054
-0.22  0.62  0.520329665824
-0.22  0.64  0.416873174809
-0.22  0.66  0.333986807383
-0.22  0.68  0.267580631825
-0.22  0.7  0.214377912375
-0.22  0.72  0.171753422514
-0.22  0.74  0.137603906197
-0.22  0.76  0.110244295127
-0.22  0.78  0.0883245610099
-0.22  0.8  0.0707630999734
-0.22  0.82  0.0566933620794
-0.22  0.84  0.0454210924208
-0.22  0.86  0.0363900739174
-0.22  0.88  0.0291546814296
-0.22  0.9  0.0233578929021
-0.22  0.92  0.0187136725244
-0.22  0.94  0.0149928566253
-0.22  0.96  0.0120118458573
-0.22  0.98  0.00962354569947
-0.2  -1  0.00898466939326
-0.2  -0.98  0.0112144179703
-0.2  -0.96  0.0139975290029
-0.2  -0.94  0.0174713318787
-0.2  -0.92  0.0218072373741
-0.2  -0.9  0.0272191957197
-0.2  -0.88  0.0339742537267
-0.2  -0.86  0.0424057319023
-0.2  -0.84  0.0529296717637
-0.2  -0.82  0.0660653649245
-0.2  -0.8  0.0824609769373
-0.2  -0.78  0.102925530272
-0.2  -0.76  0.12846882459
-0.2  -0.74  0.160351264143
-0.2  -0.72  0.200146050952
-0.2  -0.7  0.249816812645
-0.2  -0.68  0.31181449538
-0.2  -0.66  0.389198302948
-0.2  -0.64  0.485786649633
-0.2  -0.62  0.60634557544
-0.2  -0.6  0.756823920817
-0.2  -0.58  0.944646865288
-0.2  -0.56  1.17908231433
-0.2  -0.54  1.47169821343
-0.2  -0.52  1.83693335495
-0.2  -0.5  2.29280984357
-0.2  -0.48  2.86182237619
-0.2  -0.46  3.57204821666
-0.2  -0.44  4.45853263581
-0.2  -0.42  5.56501817973
-0.2  -0.4  6.946103095
-0.2  -0.38  8.66993541586
-0.2  -0.36  10.82157565
-0.2  -0.34  13.5071939907
-0.2  -0.32  16.8593091618
-0.2  -0.3  21.043327401
-0.2  -0.28  26.2657042382
-0.2  -0.26  32.7841318049
-0.2  -0.24  40.9202543536
-0.2  -0.22  51.0755394204
-0.2  -0.2  30.5233564773
-0.2  -0.18  28.2799855457
-0.2  -0.16  25.9474078196
-0.2  -0.14  23.5537910413
-0.2  -0.12  21.1354821032
-0.2  -0.1  18.7416730685
-0.2  -0.08  16.4422984779
-0.2  -0.06  14.3405683875
-0.2  -0.04  12.5886991618
-0.2  -0.02  11.3920920478
-0.2  6.17561557e-16  10.961260195
-0.2  0.02  11.3920920478
-0.2  0.04  12.5886991618
-0.2  0.06  14.3405683875
-0.2  0.08  16.4422984779
-0.2  0.1  18.7416730685
-0.2  0.12  21.1354821032
-0.2  0.14  23.5537910413
-0.2  0.16  25.9474078196
-0.2  0.18  28.2799855457
-0.2  0.2  63.7510877752
-0.2  0.22  51.0755394204
-0.2  0.24  40.9202543536
-0.2  0.26  32.7841318049
-0.2  0.28  26.2657042382
-0.2  0.3  21.043327401
-0.2  0.32  16.8593091618
-0.2  0.34  13.5071939907
-0.2  0.36  10.82157565
-0.2  0.38  8.66993541586
-0.2  0.4  6.946103095
-0.2  0.42  5.56501817973
-0.2  0.44  4.45853263581
-0.2  0.46  3.57204821666
-0.2  0.48  2.86182237619
-0.2  0.5  2.29280984357
-0.2  0.52  1.83693335495
-0.2  0.54  1.47169821343
-0.2  0.56  1.17908231433
-0.2  0.58  0.944646865288
-0.2  0.6  0.756823920817
-0.2  0.62  0.60634557544
-0.2  0.64  0.485786649633
-0.2  0.66  0.389198302948
-0.2  0.68  0.31181449538
-0.2  0.7  0.249816812645
-0.2  0.72  0.200146050952
-0.2  0.74  0.160351264143
-0.2  0.76  0.12846882459
-0.2  0.78  0.102925530272
-0.2  0.8  0.0824609769373
-0.2  0.82  0.0660653649245
-0.2  0.84  0.0529296717637
-0.2  0.86  0.0424057319023
-0.2  0.88  0.0339742537267
-0.2  0.9  0.0272191957197
-0.2  0.92  0.0218072373741
-0.2  0.94  0.0174713318787
-0.2  0.96  0.0139975290029
-0.2  0.98  0.0112144179703
-0.18  -1  0.010469928761
-0.18  -0.98  0.0130682779862
-0.18  -0.96  0.0163114662405
-0.18  -0.94  0.0203595248888
-0.18  -0.92  0.0254122006929
-0.18  -0.9  0.0317188120834
-0.18  -0.88  0.039590551489
-0.18  -0.86  0.0494158407662
-0.18  -0.84  0.0616794974252
-0.18  -0.82  0.0769866573884
-0.18  -0.8  0.0960926347207
-0.18  -0.78  0.119940191727
-0.18  -0.76  0.149706058464
-0.18  -0.74  0.186858997123
-0.18  -0.72  0.233232276396
-0.18  -0.7  0.291114131995
-0.18  -0.68  0.36336067699
-0.18  -0.66  0.453536833399
-0.18  -0.64  0.566092239131
-0.18  -0.62  0.706580810213
-0.18  -0.6  0.881934792336
-0.18  -0.58  1.10080682448
-0.18  -0.56  1.37399689338
-0.18  -0.54  1.7149852463
-0.18  -0.52  2.14059755826
-0.18  -0.5  2.67183517544
-0.18  -0.48  3.33491140227
-0.18  -0.46  4.16254496656
-0.18  -0.44  5.19557448718
-0.18  -0.42  6.48497360838
-0.18  -0.4  8.09436623517
-0.18  -0.38  10.1031659812
-0.18  -0.36  12.6104947414
-0.18  -0.34  15.740073747
-0.18  -0.32  19.6463284465
-0.18  -0.3  24.52200845
-0.18  -0.28  30.6076985356
-0.18  -0.26  38.2036900262
-0.18  -0.24  47.6847983171
-0.18  -0.22  59.5188577067
-0.18  -0.2  35.5691850056
-0.18  -0.18  32.9549615088
-0.18  -0.16  30.2367844059
-0.18  -0.14  27.4474778602
-0.18  -0.12  24.6293972837
-0.18  -0.1  21.8398666996
-0.18  -0.08  19.1603815561
-0.18  -0.06  16.7112136059
-0.18  -0.04  14.6697421628
-0.18  -0.02  13.275323438
-0.18  6.17561557e-16  12.7732705955
-0.18  0.02  13.275323438
-0.18  0.04  14.6697421628
-0.18  0.06  16.7112136059
-0.18  0.08  19.1603815561
-0.18  0.1  21.8398666996
-0.18  0.12  24.6293972837
-0.18  0.14  27.4474778602
-0.18  0.16  30.2367844059
-0.18  0.18  32.9549615088
-0.18  0.2  74.2898061381
-0.18  0.22  59.5188577067
-0.18  0.24  47.6847983171
-0.18  0.26  38.2036900262
-0.18  0.28  30.6076985356
-0.18  0.3  24.52200845
-0.18  0.32  19.6463284465
-0.18  0.34  15.740073747
-0.18  0.36  12.6104947414
-0.18  0.38  10.1031659812
-0.18  0.4  8.09436623517
-0.18  0.42  6.48497360838
-0.18  0.44  5.19557448718
-0.18  0.46  4.16254496656
-0.18  0.48  3.33491140227
-0.18  0.5  2.67183517544
-0.18  0.52  2.14059755826
-0.18  0.54  1.7149852463
-0.18  0.56  1.37399689338
-0.18  0.58  1.10080682448
-0.18  0.6  0.881934792336
-0.18  0.62  0.706580810213
-0.18  0.64  0.566092239131
-0.18  0.66  0.453536833399
-0.18  0.68  0.36336067699
-0.18  0.7  0.291114131995
-0.18  0.72  0.233232276396
-0.18  0.74  0.186858997123
-0.18  0.76  0.149706058464
-0.18  0.78  0.119940191727
-0.18  0.8  0.0960926347207
-0.18  0.82  0.0769866573884
-0.18  0.84  0.0616794974252
-0.18  0.86  0.0494158407662
-0.18  0.88  0.039590551489
-0.18  0.9  0.0317188120834
-0.18  0.92  0.0254122006929
-0.18  0.94  0.0203595248888
-0.18  0.96  0.0163114662405
-0.18  0.98  0.0130682779862
-0.16  -1  0.0122007169615
-0.16  -0.98  0.0152286003586
-0.16  -0.96  0.019007921388
-0.16  -0.94  0.0237251662652
-0.16  -0.92  0.0296131019705
-0.16  -0.9  0.0369622618662
-0.16  -0.88  0.0461352817287
-0.16  -0.86  0.05758479359
-0.16  -0.84  0.0718757603411
-0.16  -0.82  0.0897133531709
-0.16  -0.8  0.111977747421
-0.16  -0.78  0.139767553818
-0.16  -0.76  0.174454028145
-0.16  -0.74  0.217748734271
-0.16  -0.72  0.271787999285
-0.16  -0.7  0.339238328078
-0.16  -0.68  0.423427978939
-0.16  -0.66  0.528511192602
-0.16  -0.64  0.659673178435
-0.16  -0.62  0.823385972593
-0.16  -0.6  1.02772779313
-0.16  -0.58  1.28278165033
-0.16  -0.56  1.60113288111
-0.16  -0.54  1.99849015795
-0.16  -0.52  2.49446061506
-0.16  -0.5  3.11351733975
-0.16  -0.48  3.88620696852
-0.16  -0.46  4.85065697542
-0.16  -0.44  6.05445702809
-0.16  -0.42  7.55700724474
-0.16  -0.4  9.43244922412
-0.16  -0.38  11.7733244768
-0.16  -0.36  14.6951407786
-0.16  -0.34  18.3420717681
-0.16  -0.32  22.8940710277
-0.16  -0.3  28.5757516843
-0.16  -0.28  35.667469684
-0.16  -0.26  44.5191576309
-0.16  -0.24  55.5675918065
-0.16  -0.22  69.3579443881
-0.16  -0.2  41.4491415091
-0.16  -0.18  38.4027596582
-0.16  -0.16  35.2352395881
-0.16  -0.14  31.9848316378
-0.16  -0.12  28.70089301
-0.16  -0.1  25.4502239855
-0.16  -0.08  22.3277920583
-0.16  -0.06  19.4737511537
-0.16  -0.04  17.0948032324
-0.16  -0.02  15.4698725786
-0.16  6.17561557e-16  14.8848251757
-0.16  0.02  15.4698725786
-0.16  0.04  17.0948032324
-0.16  0.06  19.4737511537
-0.16  0.08  22.3277920583
-0.16  0.1  25.4502239855
-0.16  0.12  28.70089301
-0.16  0.14  31.9848316378
-0.16  0.16  35.2352395881
-0.16  0.18  38.4027596582
-0.16  0.2  86.5706843388
-0.16  0.22  69.3579443881
-0.16  0.24  55.5675918065
-0.16  0.26  44.5191576309
-0.16  0.28  35.667469684
-0.16  0.3  28.5757516843
-0.16  0.32  22.8940710277
-0.16  0.34  18.3420717681
-0.16  0.36  14.6951407786
-0.16  0.38  11.7733244768
-0.16  0.4  9.43244922412
-0.16  0.42  7.55700724474
-0.16  0.44  6.05445702809
-0.16  0.46  4.85065697542
-0.16  0.48  3.88620696852
-0.16  0.5  3.11351733975
-0.16  0.52  2.49446061506
-0.16  0.54  1.99849015795
-0.16  0.56  1.60113288111
-0.16  0.58  1.28278165033
-0.16  0.6  1.02772779313
-0.16  0.62  0.823385972593
-0.16  0.64  0.659673178435
-0.16  0.66  0.528511192602
-0.16  0.68  0.423427978939
-0.16  0.7  0.339238328078
-0.16  0.72  0.271787999285
-0.16  0.74  0.217748734271
-0.16  0.76  0.174454028145
-0.16  0.78  0.139767553818
-0.16  0.8  0.111977747421
-0.16  0.82  0.0897133531709
-0.16  0.84  0.0718757603411
-0.16  0.86  0.05758479359
-0.16  0.88  0.0461352817287
-0.16  0.9  0.0369622618662
-0.16  0.92  0.0296131019705
-0.16  0.94  0.0237251662652
-0.16  0.96  0.019007921388
-0.16  0.98  0.0152286003586
-0.14  -1  0.0142176224665
-0.14  -0.98  0.0177460465049
-0.14  -0.96  0.0221501286376
-0.14  -0.94  0.0276471831924
-0.14  -0.92  0.0345084559544
-0.14  -0.9  0.0430725084747
-0.14  -0.88  0.0537619239979
-0.14  -0.86  0.0671041593422
-0.14  -0.84  0.0837575716449
-0.14  -0.82  0.104543904232
-0.14  -0.8  0.130488834591
-0.14  -0.78  0.162872585235
-0.14  -0.76  0.203293094803
-0.14  -0.74  0.253744866486
-0.14  -0.72  0.316717384474
-0.14  -0.7  0.395317954674
-0.14  -0.68  0.493425031111
-0.14  -0.66  0.615879593752
-0.14  -0.64  0.768724021044
-0.14  -0.62  0.959500244082
-0.14  -0.6  1.19762189445
-0.14  -0.58  1.49483880897
-0.14  -0.56  1.86581681176
-0.14  -0.54  2.32886138236
-0.14  -0.52  2.90682091835
-0.14  -0.5  3.62821416309
-0.14  -0.48  4.52863743003
-0.14  -0.46  5.65252106155
-0.14  -0.44  7.0553217927
-0.14  -0.42  8.80625919947
-0.14  -0.4  10.9917312586
-0.14  -0.38  13.7195775555
-0.14  -0.36  17.1244005038
-0.14  -0.34  21.374207145
-0.14  -0.32  26.6786992617
-0.14  -0.3  33.2996208687
-0.14  -0.28  41.5636736679
-0.14  -0.26  51.8786377653
-0.14  -0.24  64.7534931078
-0.14  -0.22  80.8235345082
-0.14  -0.2  48.3011160243
-0.14  -0.18  44.7511355451
-0.14  -0.16  41.0599914382
-0.14  -0.14  37.2722572219
-0.14  -0.12  33.445449358
-0.14  -0.1  29.6574109091
-0.14  -0.08  26.0188084845
-0.14  -0.06  22.6929649121
-0.14  -0.04  19.9207521382
-0.14  -0.02  18.0272035341
-0.14  6.17561557e-16  17.345441706
-0.14  0.02  18.0272035341
-0.14  0.04  19.9207521382
-0.14  0.06  22.6929649121
-0.14  0.08  26.0188084845
-0.14  0.1  29.6574109091
-0.14  0.12  33.445449358
-0.14  0.14  37.2722572219
-0.14  0.16  41.0599914382
-0.14  0.18  44.7511355451
-0.14  0.2  100.881719532
-0.14  0.22  80.8235345082
-0.14  0.24  64.7534931078
-0.14  0.26  51.8786377653
-0.14  0.28  41.5636736679
-0.14  0.3  33.2996208687
-0.14  0.32  26.6786992617
-0.14  0.34  21.374207145
-0.14  0.36  17.1244005038
-0.14  0.38  13.7195775555
-0.14  0.4  10.9917312586
-0.14  0.42  8.80625919947
-0.14  0.44  7.0553217927
-0.14  0.46  5.65252106155
-0.14  0.48  4.52863743003
-0.14  0.5  3.62821416309
-0.14  0.52  2.90682091835
-0.14  0.54  2.32886138236
-0.14  0.56  1.86581681176
-0.14  0.58  1.49483880897
-0.14  0.6  1.19762189445
-0.14  0.62  0.959500244082
-0.14  0.64  0.768724021044
-0.14  0.66  0.615879593752
-0.14  0.68  0.493425031111
-0.14  0.7  0.395317954674
-0.14  0.72  0.316717384474
-0.14  0.74  0.253744866486
