0.18  -0.92  0.00284526895678
0.18  -0.9  0.00371338816672
0.18  -0.88  0.00484637898427
0.18  -0.86  0.00632505631101
0.18  -0.84  0.0082548924604
0.18  -0.82  0.0107735403737
0.18  -0.8  0.0140606522424
0.18  -0.78  0.0183506938875
0.18  -0.76  0.0239496689304
0.18  -0.74  0.0312569456716
0.18  -0.72  0.0407937435609
0.18  -0.7  0.0532403111678
0.18  -0.68  0.0694844475113
0.18  -0.66  0.0906848277189
0.18  -0.64  0.11835364996
0.18  -0.62  0.154464498761
0.18  -0.6  0.201593118468
0.18  -0.58  0.263101138058
0.18  -0.56  0.34337585218
0.18  -0.54  0.448143161715
0.18  -0.52  0.584875995552
0.18  -0.5  0.763327345805
0.18  -0.48  0.996225937267
0.18  -0.46  1.30018415237
0.18  -0.44  1.69688297286
0.18  -0.42  2.21461845872
0.18  -0.4  2.89032007284
0.18  -0.38  3.77218481611
0.18  -0.36  4.92311506279
0.18  -0.34  6.42520531284
0.18  -0.32  8.38559789597
0.18  -0.3  10.9441253079
0.18  -0.28  14.2832842979
0.18  -0.26  18.6412531466
0.18  -0.24  24.3288806433
0.18  -0.22  31.7518585633
0.18  -0.2  41.4396591856
0.18  -0.18  41.1121661038
0.18  -0.16  39.7325148341
0.18  -0.14  37.3360139361
0.18  -0.12  33.9839955723
0.18  -0.1  29.7622458711
0.18  -0.08  24.7788094564
0.18  -0.06  19.1612243278
0.18  -0.04  13.05325786
0.18  -0.02  6.61122745347
0.18  6.17561557e-16  1.34428280016e-13
0.18  0.02  6.61122745347
0.18  0.04  13.05325786
0.18  0.06  19.1612243278
0.18  0.08  24.7788094564
0.18  0.1  29.7622458711
0.18  0.12  33.9839955723
0.18  0.14  37.3360139361
0.18  0.16  39.7325148341
0.18  0.18  41.1121661038
0.18  0.2  41.4396591856
0.18  0.22  31.7518585633
0.18  0.24  24.3288806433
0.18  0.26  18.6412531466
0.18  0.28  14.2832842979
0.18  0.3  10.9441253079
0.18  0.32  8.38559789597
0.18  0.34  6.42520531284
0.18  0.36  4.92311506279
0.18  0.38  3.77218481611
0.18  0.4  2.89032007284
0.18  0.42  2.21461845872
0.18  0.44  1.69688297286
0.18  0.46  1.30018415237
0.18  0.48  0.996225937267
0.18  0.5  0.763327345805
0.18  0.52  0.584875995552
0.18  0.54  0.448143161715
0.18  0.56  0.34337585218
0.18  0.58  0.263101138058
0.18  0.6  0.201593118468
0.18  0.62  0.154464498761
0.18  0.64  0.11835364996
0.18  0.66  0.0906848277189
0.18  0.68  0.0694844475113
0.18  0.7  0.0532403111678
0.18  0.72  0.0407937435608
0.18  0.74  0.0312569456716
0.18  0.76  0.0239496689304
0.18  0.78  0.0183506938875
0.18  0.8  0.0140606522424
0.18  0.82  0.0107735403737
0.18  0.84  0.0082548924604
0.18  0.86  0.00632505631101
0.18  0.88  0.00484637898427
0.18  0.9  0.00371338816672
0.18  0.92  0.00284526895678
0.18  0.94  0.0021800994329
0.18  0.96  0.0016704338358
0.18  0.98  0.00127991831825
0.2  -1  0.000936939289722
0.2  -0.98  0.00122280857249
0.2  -0.96  0.0015958993516
0.2  -0.94  0.00208282375323
0.2  -0.92  0.00271831352188
0.2  -0.9  0.00354769739483
0.2  -0.88  0.00463013434764
0.2  -0.86  0.00604283333422
0.2  -0.84  0.00788656051066
0.2  -0.82  0.0102928267666
0.2  -0.8  0.013433268242
0.2  -0.78  0.0175318889314
0.2  -0.76  0.0228810386248
0.2  -0.74  0.0298622658744
0.2  -0.72  0.0389735334037
0.2  -0.7  0.0508647372023
0.2  -0.68  0.0663840628423
0.2  -0.66  0.0866384855569
0.2  -0.64  0.113072729481
0.2  -0.62  0.147572318122
0.2  -0.6  0.192598066535
0.2  -0.58  0.251361608364
0.2  -0.56  0.328054477888
0.2  -0.54  0.428147087229
0.2  -0.52  0.558778924411
0.2  -0.5  0.72926780464
0.2  -0.48  0.951774499091
0.2  -0.46  1.24217014841
0.2  -0.44  1.62116833249
0.2  -0.42  2.11580254576
0.2  -0.4  2.76135446452
0.2  -0.38  3.60387054736
0.2  -0.36  4.70344647491
0.2  -0.34  6.13851370399
0.2  -0.32  8.0114338911
0.2  -0.3  10.4558002289
0.2  -0.28  13.6459664916
0.2  -0.26  17.809483484
0.2  -0.24  23.2433299731
0.2  -0.22  30.335095834
0.2  -0.2  39.590628379
0.2  -0.18  39.2777479849
0.2  -0.16  37.9596565289
0.2  -0.14  35.6700871085
0.2  -0.12  32.4676352552
0.2  -0.1  28.4342593343
0.2  -0.08  23.6731830363
0.2  -0.06  18.3062536362
0.2  -0.04  12.4708236319
0.2  -0.02  6.31623556717
0.2  6.17561557e-16  1.28430112176e-13
0.2  0.02  6.31623556717
0.2  0.04  12.4708236319
0.2  0.06  18.3062536362
0.2  0.08  23.6731830363
0.2  0.1  28.4342593343
0.2  0.12  32.4676352552
0.2  0.14  35.6700871085
0.2  0.16  37.9596565289
0.2  0.18  39.2777479849
0.2  0.2  39.590628379
0.2  0.22  30.335095834
0.2  0.24  23.2433299731
0.2  0.26  17.809483484
0.2  0.28  13.6459664916
0.2  0.3  10.4558002289
0.2  0.32  8.0114338911
0.2  0.34  6.13851370399
0.2  0.36  4.70344647491
0.2  0.38  3.60387054736
0.2  0.4  2.76135446452
0.2  0.42  2.11580254576
0.2  0.44  1.62116833249
0.2  0.46  1.24217014841
0.2  0.48  0.951774499091
0.2  0.5  0.72926780464
0.2  0.52  0.558778924411
0.2  0.54  0.428147087229
0.2  0.56  0.328054477888
0.2  0.58  0.251361608364
0.2  0.6  0.192598066535
0.2  0.62  0.147572318122
0.2  0.64  0.113072729481
0.2  0.66  0.0866384855569
0.2  0.68  0.0663840628423
0.2  0.7  0.0508647372023
0.2  0.72  0.0389735334037
0.2  0.74  0.0298622658744
0.2  0.76  0.0228810386248
0.2  0.78  0.0175318889314
0.2  0.8  0.013433268242
0.2  0.82  0.0102928267666
0.2  0.84  0.00788656051066
0.2  0.86  0.00604283333422
0.2  0.88  0.00463013434764
0.2  0.9  0.00354769739483
0.2  0.92  0.00271831352188
0.2  0.94  0.00208282375323
0.2  0.96  0.0015958993516
0.2  0.98  0.00122280857249
0.22  -1  0.000873439647971
0.22  -0.98  0.00113993457293
0.22  -0.96  0.00148773968938
0.22  -0.94  0.00194166352693
0.22  -0.92  0.0025340839387
0.22  -0.9  0.00330725757543
0.22  -0.88  0.00431633400267
0.22  -0.86  0.00563328945438
0.22  -0.84  0.00735206081301
0.22  -0.82  0.00959524601671
0.22  -0.8  0.0125228488261
0.22  -0.78  0.0163436917039
0.22  -0.76  0.0213303108759
0.22  -0.74  0.0278383960189
0.22  -0.72  0.0363321611866
0.22  -0.7  0.0474174566521
0.22  -0.68  0.0618849834946
0.22  -0.66  0.0807666933766
0.22  -0.64  0.105409396442
0.22  -0.62  0.137570827699
0.22  -0.6  0.179545024186
0.22  -0.58  0.234325955941
0.22  -0.56  0.305821082353
0.22  -0.54  0.399130066644
0.22  -0.52  0.52090852885
0.22  -0.5  0.679842783357
0.22  -0.48  0.887269423486
0.22  -0.46  1.15798394736
0.22  -0.44  1.51129610335
0.22  -0.42  1.97240723174
0.22  -0.4  2.57420784662
0.22  -0.38  3.35962367759
0.22  -0.36  4.38467751151
0.22  -0.34  5.72248523196
0.22  -0.32  7.46847108916
0.22  -0.3  9.74717419943
0.22  -0.28  12.7211317738
0.22  -0.26  16.602472706
0.22  -0.24  21.6680484767
0.22  -0.22  28.2791806439
0.22  -0.2  36.9074334843
0.22  -0.18  36.6157580853
0.22  -0.16  35.3869982819
0.22  -0.14  33.2526009624
0.22  -0.12  30.2671904346
0.22  -0.1  26.5071704599
0.22  -0.08  22.0687688993
0.22  -0.06  17.0655750133
0.22  -0.04  11.6256324422
0.22  -0.02  5.88816226495
0.22  6.17561557e-16  1.19725955778e-13
0.22  0.02  5.88816226495
0.22  0.04  11.6256324422
0.22  0.06  17.0655750133
0.22  0.08  22.0687688993
0.22  0.1  26.5071704599
0.22  0.12  30.2671904346
0.22  0.14  33.2526009624
0.22  0.16  35.3869982819
0.22  0.18  36.6157580853
0.22  0.2  36.9074334843
0.22  0.22  28.2791806439
0.22  0.24  21.6680484767
0.22  0.26  16.602472706
0.22  0.28  12.7211317738
0.22  0.3  9.74717419943
0.22  0.32  7.46847108916
0.22  0.34  5.72248523196
0.22  0.36  4.38467751151
0.22  0.38  3.35962367759
0.22  0.4  2.57420784662
0.22  0.42  1.97240723174
0.22  0.44  1.51129610335
0.22  0.46  1.15798394736
0.22  0.48  0.887269423486
0.22  0.5  0.679842783357
0.22  0.52  0.52090852885
0.22  0.54  0.399130066644
0.22  0.56  0.305821082353
0.22  0.58  0.234325955941
0.22  0.6  0.179545024186
0.22  0.62  0.137570827699
0.22  0.64  0.105409396442
0.22  0.66  0.0807666933766
0.22  0.68  0.0618849834946
0.22  0.7  0.0474174566521
0.22  0.72  0.0363321611866
0.22  0.74  0.0278383960189
0.22  0.76  0.0213303108759
0.22  0.78  0.0163436917039
0.22  0.8  0.0125228488261
0.22  0.82  0.00959524601671
0.22  0.84  0.00735206081301
0.22  0.86  0.00563328945438
0.22  0.88  0.00431633400267
0.22  0.9  0.00330725757543
0.22  0.92  0.0025340839387
0.22  0.94  0.00194166352693
0.22  0.96  0.00148773968938
0.22  0.98  0.00113993457293
0.24  -1  0.000791536863424
0.24  -0.98  0.00103304245286
0.24  -0.96  0.00134823374466
0.24  -0.94  0.00175959296272
0.24  -0.92  0.00229646187593
0.24  -0.9  0.00299713471202
0.24  -0.88  0.00391158963976
0.24  -0.86  0.00510505365292
0.24  -0.84  0.00666265513496
0.24  -0.82  0.00869549596643
0.24  -0.8  0.0113485762914
0.24  -0.78  0.0148111372069
0.24  -0.76  0.0193301591081
0.24  -0.74  0.0252279785086
0.24  -0.72  0.032925279925
0.24  -0.7  0.0429711028085
0.24  -0.68  0.0560820038821
0.24  -0.66  0.0731931682893
0.24  -0.64  0.0955251152487
0.24  -0.62  0.124670756254
0.24  -0.6  0.162709015578
0.24  -0.58  0.212353117488
0.24  -0.56  0.277144117349
0.24  -0.54  0.361703480926
0.24  -0.52  0.472062728106
0.24  -0.5  0.616093654106
0.24  -0.48  0.804069815367
0.24  -0.46  1.04939933024
0.24  -0.44  1.36958126429
0.24  -0.42  1.78745381805
0.24  -0.4  2.33282334898
0.24  -0.38  3.04459042388
0.24  -0.36  3.97352455049
0.24  -0.34  5.18588550682
0.24  -0.32  6.76814957303
0.24  -0.3  8.83317778279
0.24  -0.28  11.5282661679
0.24  -0.26  15.0456522111
0.24  -0.24  19.6362269191
0.24  -0.22  25.6274305832
0.24  -0.2  33.4466087097
0.24  -0.18  33.1822838293
0.24  -0.16  32.0687453233
0.24  -0.14  30.1344912927
0.24  -0.12  27.4290239021
0.24  -0.1  24.0215825018
0.24  -0.08  19.9993716278
0.24  -0.06  15.4653292301
0.24  -0.04  10.5354922461
0.24  -0.02  5.33602693827
0.24  6.17561557e-16  1.08499205099e-13
0.24  0.02  5.33602693827
0.24  0.04  10.5354922461
0.24  0.06  15.4653292301
0.24  0.08  19.9993716278
0.24  0.1  24.0215825018
0.24  0.12  27.4290239021
0.24  0.14  30.1344912927
0.24  0.16  32.0687453233
0.24  0.18  33.1822838293
0.24  0.2  33.4466087097
0.24  0.22  25.6274305832
0.24  0.24  19.6362269191
0.24  0.26  15.0456522111
0.24  0.28  11.5282661679
0.24  0.3  8.83317778278
0.24  0.32  6.76814957303
0.24  0.34  5.18588550682
0.24  0.36  3.97352455049
0.24  0.38  3.04459042388
0.24  0.4  2.33282334898
0.24  0.42  1.78745381805
0.24  0.44  1.36958126429
0.24  0.46  1.04939933024
0.24  0.48  0.804069815367
0.24  0.5  0.616093654106
0.24  0.52  0.472062728106
0.24  0.54  0.361703480926
0.24  0.56  0.277144117349
0.24  0.58  0.212353117488
0.24  0.6  0.162709015578
0.24  0.62  0.124670756254
0.24  0.64  0.0955251152487
0.24  0.66  0.0731931682893
0.24  0.68  0.0560820038821
0.24  0.7  0.0429711028085
0.24  0.72  0.032925279925
0.24  0.74  0.0252279785086
0.24  0.76  0.0193301591081
0.24  0.78  0.0148111372069
0.24  0.8  0.0113485762914
0.24  0.82  0.00869549596643
0.24  0.84  0.00666265513496
0.24  0.86  0.00510505365292
0.24  0.88  0.00391158963976
0.24  0.9  0.00299713471202
0.24  0.92  0.00229646187593
0.24  0.94  0.00175959296272
0.24  0.96  0.00134823374466
0.24  0.98  0.00103304245286
0.26  -1  0.00069295660613
0.26  -0.98  0.000904384401032
0.26  -0.96  0.00118032087088
0.26  -0.94  0.00154044823932
0.26  -0.92  0.0020104539677
0.26  -0.9  0.00262386301147
0.26  -0.88  0.0034244291158
0.26  -0.86  0.00446925571872
0.26  -0.84  0.00583286907215
0.26  -0.82  0.00761253411173
0.26  -0.8  0.00993519225024
0.26  -0.78  0.0129665159591
0.26  -0.76  0.016922725991
0.26  -0.74  0.0220860141512
0.26  -0.72  0.0288246717077
0.26  -0.7  0.037619359173
0.26  -0.68  0.0490973912535
0.26  -0.66  0.064077482469
0.26  -0.64  0.0836281450955
0.26  -0.62  0.109143904889
0.26  -0.6  0.142444770966
0.26  -0.58  0.185906054911
0.26  -0.56  0.242627798958
0.26  -0.54  0.316655898354
0.26  -0.52  0.413270690304
0.26  -0.5  0.539363594211
0.26  -0.48  0.703928668512
0.26  -0.46  0.918704146277
0.26  -0.44  1.19900970956
0.26  -0.42  1.56483922431
0.26  -0.4  2.04228687925
0.26  -0.38  2.6654084537
0.26  -0.36  3.4786504762
0.26  -0.34  4.54002054312
0.26  -0.32  5.92522493219
0.26  -0.3  7.73306864221
0.26  -0.28  10.0925030374
0.26  -0.26  13.1718237962
0.26  -0.24  17.1906752444
0.26  -0.22  22.4357173259
0.26  -0.2  29.2810727194
0.26  -0.18  29.0496676131
0.26  -0.16  28.0748123668
0.26  -0.14  26.3814558469
0.26  -0.12  24.0129350773
0.26  -0.1  21.0298661421
0.26  -0.08  17.5085928758
0.26  -0.06  13.539233043
0.26  -0.04  9.2233720097
0.26  -0.02  4.67146293271
0.26  6.17561557e-16  9.49864048128e-14
0.26  0.02  4.67146293271
0.26  0.04  9.2233720097
0.26  0.06  13.539233043
0.26  0.08  17.5085928758
0.26  0.1  21.0298661421
0.26  0.12  24.0129350773
0.26  0.14  26.3814558469
0.26  0.16  28.0748123668
0.26  0.18  29.0496676131
0.26  0.2  29.2810727194
0.26  0.22  22.4357173259
0.26  0.24  17.1906752444
0.26  0.26  13.1718237962
0.26  0.28  10.0925030374
0.26  0.3  7.73306864221
0.26  0.32  5.92522493219
0.26  0.34  4.54002054312
0.26  0.36  3.4786504762
0.26  0.38  2.6654084537
0.26  0.4  2.04228687925
0.26  0.42  1.56483922431
0.26  0.44  1.19900970956
0.26  0.46  0.918704146276
0.26  0.48  0.703928668512
0.26  0.5  0.539363594211
0.26  0.52  0.413270690304
0.26  0.54  0.316655898354
0.26  0.56  0.242627798958
0.26  0.58  0.185906054911
0.26  0.6  0.142444770966
0.26  0.62  0.109143904889
0.26  0.64  0.0836281450955
0.26  0.66  0.064077482469
0.26  0.68  0.0490973912535
0.26  0.7  0.037619359173
0.26  0.72  0.0288246717077
0.26  0.74  0.0220860141512
0.26  0.76  0.016922725991
0.26  0.78  0.0129665159591
0.26  0.8  0.00993519225024
0.26  0.82  0.00761253411173
0.26  0.84  0.00583286907215
0.26  0.86  0.00446925571872
0.26  0.88  0.0034244291158
0.26  0.9  0.00262386301147
0.26  0.92  0.0020104539677
0.26  0.94  0.00154044823932
0.26  0.96  0.00118032087088
0.26  0.98  0.000904384401032
0.28  -1  0.000579775936084
0.28  -0.98  0.000756671208629
0.28  -0.96  0.000987538947953
0.28  -0.94  0.00128884667819
0.28  -0.92  0.00168208632513
0.28  -0.9  0.00219530720997
0.28  -0.88  0.00286511677442
0.28  -0.86  0.00373929174641
0.28  -0.84  0.00488018599786
0.28  -0.82  0.00636917817301
0.28  -0.8  0.00831247633128
0.28  -0.78  0.0108486936432
0.28  -0.76  0.0141587355048
0.28  -0.74  0.0184787033064
0.28  -0.72  0.0241167352671
0.28  -0.7  0.0314749855712
0.28  -0.68  0.0410783095529
0.28  -0.66  0.0536117010095
0.28  -0.64  0.0699691520029
0.28  -0.62  0.0913174202614
0.28  -0.6  0.119179252635
0.28  -0.58  0.155542000835
0.28  -0.56  0.202999376897
0.28  -0.54  0.2649364596
0.28  -0.52  0.345771148161
0.28  -0.5  0.451269285778
0.28  -0.48  0.588955930447
0.28  -0.46  0.768652108487
0.28  -0.44  1.00317533679
0.28  -0.42  1.30925388122
0.28  -0.4  1.70871996413
0.28  -0.38  2.23006703106
0.28  -0.36  2.91048215474
0.28  -0.34  3.79849854514
0.28  -0.32  4.95745736627
0.28  -0.3  6.47002578687
0.28  -0.28  8.4440935322
0.28  -0.26  11.0204685313
0.28  -0.24  14.3829205805
0.28  -0.22  18.7712894274
0.28  -0.2  24.4985922571
0.28  -0.18  24.3049825693
0.28  -0.16  23.4893505255
0.28  -0.14  22.0725700911
0.28  -0.12  20.0909000497
0.28  -0.1  17.5950560546
0.28  -0.08  14.6489126943
0.28  -0.06  11.3278687899
0.28  -0.04  7.71691776003
0.28  -0.02  3.90847243642
0.28  6.17561557e-16  7.94722660531e-14
0.28  0.02  3.90847243642
0.28  0.04  7.71691776003
0.28  0.06  11.3278687899
0.28  0.08  14.6489126943
0.28  0.1  17.5950560546
0.28  0.12  20.0909000497
0.28  0.14  22.0725700911
0.28  0.16  23.4893505255
0.28  0.18  24.3049825693
0.28  0.2  24.4985922571
0.28  0.22  18.7712894274
0.28  0.24  14.3829205805
0.28  0.26  11.0204685313
0.28  0.28  8.4440935322
0.28  0.3  6.47002578687
0.28  0.32  4.95745736627
0.28  0.34  3.79849854514
0.28  0.36  2.91048215474
0.28  0.38  2.23006703106
0.28  0.4  1.70871996413
0.28  0.42  1.30925388122
0.28  0.44  1.00317533679
0.28  0.46  0.768652108487
0.28  0.48  0.588955930447
0.28  0.5  0.451269285778
0.28  0.52  0.345771148161
0.28  0.54  0.2649364596
0.28  0.56  0.202999376897
0.28  0.58  0.155542000835
0.28  0.6  0.119179252635
0.28  0.62  0.0913174202614
0.28  0.64  0.0699691520029
0.28  0.66  0.0536117010095
0.28  0.68  0.0410783095528
0.28  0.7  0.0314749855712
0.28  0.72  0.0241167352671
0.28  0.74  0.0184787033064
0.28  0.76  0.0141587355048
0.28  0.78  0.0108486936432
0.28  0.8  0.00831247633128
0.28  0.82  0.00636917817301
0.28  0.84  0.00488018599786
0.28  0.86  0.00373929174641
0.28  0.88  0.00286511677442
0.28  0.9  0.00219530720997
0.28  0.92  0.00168208632513
0.28  0.94  0.00128884667819
0.28  0.96  0.000987538947953
0.28  0.98  0.000756671208629
0.3  -1  0.000454379540125
0.3  -0.98  0.000593015153622
0.3  -0.96  0.000773949840101
0.3  -0.94  0.00101008945781
0.3  -0.92  0.00131827756775
0.3  -0.9  0.00172049686511
0.3  -0.88  0.00224543717899
0.3  -0.86  0.00293054188417
0.3  -0.84  0.00382467869297
0.3  -0.82  0.00499162533163
0.3  -0.8  0.00651461873051
0.3  -0.78  0.00850229221631
0.3  -0.76  0.0110964241995
0.3  -0.74  0.0144820510613
0.3  -0.72  0.0189006655813
0.3  -0.7  0.0246674423328
0.3  -0.68  0.0321937187145
0.3  -0.66  0.0420163351631
0.3  -0.64  0.0548359273494
0.3  -0.62  0.0715669016967
0.3  -0.6  0.0934026589141
0.3  -0.58  0.121900717865
0.3  -0.56  0.159093811556
0.3  -0.54  0.207634879586
0.3  -0.52  0.270986299209
0.3  -0.5  0.353666852629
0.3  -0.48  0.461574046412
0.3  -0.46  0.602404773695
0.3  -0.44  0.78620432451
0.3  -0.42  1.0260829045
0.3  -0.4  1.33915077046
0.3  -0.38  1.74773868482
0.3  -0.36  2.28099074264
0.3  -0.34  2.97694318561
0.3  -0.32  3.88523748242
0.3  -0.3  5.07066119627
0.3  -0.28  6.61776920555
0.3  -0.26  8.63691490374
0.3  -0.24  11.2721215771
0.3  -0.22  14.7113554164
0.3  -0.2  19.1999329235
0.3  -0.18  19.0481979594
0.3  -0.16  18.4089742698
0.3  -0.14  17.2986211107
0.3  -0.12  15.7455550621
0.3  -0.1  13.7895227811
0.3  -0.08  11.4805837895
0.3  -0.06  8.87782933202
0.3  -0.04  6.04787009042
0.3  -0.02  3.06313145773
0.3  6.17561557e-16  6.22836676282e-14
0.3  0.02  3.06313145773
0.3  0.04  6.04787009042
0.3  0.06  8.87782933202
0.3  0.08  11.4805837895
0.3  0.1  13.7895227811
0.3  0.12  15.7455550621
0.3  0.14  17.2986211107
0.3  0.16  18.4089742698
0.3  0.18  19.0481979594
0.3  0.2  19.1999329235
0.3  0.22  14.7113554164
0.3  0.24  11.2721215771
0.3  0.26  8.63691490374
0.3  0.28  6.61776920555
0.3  0.3  5.07066119627
0.3  0.32  3.88523748242
0.3  0.34  2.97694318561
0.3  0.36  2.28099074264
0.3  0.38  1.74773868482
0.3  0.4  1.33915077046
0.3  0.42  1.0260829045
0.3  0.44  0.78620432451
0.3  0.46  0.602404773695
0.3  0.48  0.461574046412
0.3  0.5  0.353666852629
0.3  0.52  0.270986299209
0.3  0.54  0.207634879586
0.3  0.56  0.159093811556
0.3  0.58  0.121900717865
0.3  0.6  0.0934026589141
0.3  0.62  0.0715669016967
0.3  0.64  0.0548359273494
0.3  0.66  0.0420163351631
0.3  0.68  0.0321937187145
0.3  0.7  0.0246674423328
0.3  0.72  0.0189006655813
0.3  0.74  0.0144820510613
0.3  0.76  0.0110964241995
0.3  0.78  0.00850229221631
0.3  0.8  0.00651461873051
0.3  0.82  0.00499162533163
0.3  0.84  0.00382467869297
0.3  0.86  0.00293054188417
0.3  0.88  0.00224543717899
0.3  0.9  0.00172049686511
0.3  0.92  0.00131827756775
0.3  0.94  0.00101008945781
0.3  0.96  0.000773949840101
0.3  0.98  0.000593015153622
0.32  -1  0.000340840560045
0.32  -0.98  0.000444834327312
0.32  -0.96  0.000580557603615
0.32  -0.94  0.000757691370521
0.32  -0.92  0.000988870371152
0.32  -0.9  0.00129058433155
0.32  -0.88  0.00168435415341
0.32  -0.86  0.0021982669747
0.32  -0.84  0.00286897959214
0.32  -0.82  0.00374433314735
0.32  -0.8  0.00488676557923
0.32  -0.78  0.00637776524858
0.32  -0.76  0.00832368340707
0.32  -0.74  0.0108633201068
0.32  -0.72  0.0141778246445
0.32  -0.7  0.0185036167282
0.32  -0.68  0.0241492500159
0.32  -0.66  0.0315174208859
0.32  -0.64  0.0411336922944
0.32  -0.62  0.0536839815637
0.32  -0.6  0.0700634860567
0.32  -0.58  0.0914405365518
0.32  -0.56  0.119339932902
0.32  -0.54  0.155751706214
0.32  -0.52  0.203273065424
0.32  -0.5  0.265293653157
0.32  -0.48  0.346237324942
0.32  -0.46  0.451877697626
0.32  -0.44  0.589749974663
0.32  -0.42  0.76968842331
0.32  -0.4  1.00452784134
0.32  -0.38  1.31101904805
0.32  -0.36  1.71102370051
0.32  -0.34  2.2330736598
0.32  -0.32  2.91440613513
0.32  -0.3  3.80361977008
0.32  -0.28  4.96414112671
0.32  -0.26  6.47874882757
0.32  -0.24  8.45547805739
0.32  -0.22  11.0353265857
0.32  -0.2  14.4023119718
0.32  -0.18  14.2884920799
0.32  -0.16  13.8089956653
0.32  -0.14  12.9760941827
0.32  -0.12  11.8111035636
0.32  -0.1  10.3438386908
0.32  -0.08  8.61185036497
0.32  -0.06  6.65946428987
0.32  -0.04  4.53664667237
0.32  -0.02  2.29772546813
0.32  6.17561557e-16  4.67204138422e-14
0.32  0.02  2.29772546814
0.32  0.04  4.53664667237
0.32  0.06  6.65946428987
0.32  0.08  8.61185036497
0.32  0.1  10.3438386908
0.32  0.12  11.8111035636
0.32  0.14  12.9760941827
0.32  0.16  13.8089956653
0.32  0.18  14.2884920799
0.32  0.2  14.4023119718
0.32  0.22  11.0353265857
0.32  0.24  8.45547805739
0.32  0.26  6.47874882757
0.32  0.28  4.96414112671
0.32  0.3  3.80361977008
0.32  0.32  2.91440613513
0.32  0.34  2.2330736598
0.32  0.36  1.71102370051
0.32  0.38  1.31101904805
0.32  0.4  1.00452784134
0.32  0.42  0.76968842331
0.32  0.44  0.589749974663
0.32  0.46  0.451877697626
0.32  0.48  0.346237324942
0.32  0.5  0.265293653157
0.32  0.52  0.203273065424
0.32  0.54  0.155751706214
0.32  0.56  0.119339932902
0.32  0.58  0.0914405365518
0.32  0.6  0.0700634860567
0.32  0.62  0.0536839815637
0.32  0.64  0.0411336922944
0.32  0.66  0.0315174208859
0.32  0.68  0.0241492500159
0.32  0.7  0.0185036167282
0.32  0.72  0.0141778246445
0.32  0.74  0.0108633201068
0.32  0.76  0.00832368340707
0.32  0.78  0.00637776524858
0.32  0.8  0.00488676557923
0.32  0.82  0.00374433314735
0.32  0.84  0.00286897959214
0.32  0.86  0.0021982669747
0.32  0.88  0.00168435415341
0.32  0.9  0.00129058433155
0.32  0.92  0.000988870371152
0.32  0.94  0.000757691370521
0.32  0.96  0.000580557603615
0.32  0.98  0.000444834327312
0.34  -1  0.000255672355626
0.34  -0.98  0.000333680476032
0.34  -0.96  0.000435489632083
0.34  -0.94  0.000568361751057
0.34  -0.92  0.000741774444824
0.34  -0.9  0.000968097036739
0.34  -0.88  0.00126347285092
0.34  -0.86  0.00164897069657
0.34  -0.84  0.00215208768131
0.34  -0.82  0.00280871054755
0.34  -0.8  0.00366567543155
0.34  -0.78  0.00478410862991
0.34  -0.76  0.00624378666637
0.34  -0.74  0.00814882665738
0.34  -0.72  0.0106351128634
0.34  -0.7  0.0138799891535
0.34  -0.68  0.0181149087343
0.34  -0.66  0.0236419434356
0.34  -0.64  0.0308553301377
0.34  -0.62  0.0402695912246
0.34  -0.6  0.0525562348598
0.34  -0.58  0.0685916528737
0.34  -0.56  0.0895196327609
0.34  -0.54  0.116832942696
0.34  -0.52  0.152479808933
0.34  -0.5  0.199002880485
0.34  -0.48  0.259720593294
0.34  -0.46  0.338963870355
0.34  -0.44  0.442385041359
0.34  -0.42  0.577361016715
0.34  -0.4  0.753519473893
0.34  -0.38  0.983425588318
0.34  -0.36  1.28347829256
0.34  -0.34  1.67507999286
0.34  -0.32  2.18616317764
0.34  -0.3  2.85318280897
0.34  -0.28  3.72371661212
0.34  -0.26  4.85985873874
0.34  -0.24  6.34264886958
0.34  -0.22  8.27785267955
0.34  -0.2  10.8035059789
0.34  -0.18  10.718127056
0.34  -0.16  10.3584457498
0.34  -0.14  9.73366716121
0.34  -0.12  8.85978086131
0.34  -0.1  7.75915168062
0.34  -0.08  6.45994733965
0.34  -0.06  4.99541756994
0.34  -0.04  3.40304317424
0.34  -0.02  1.7235768036
0.34  6.17561557e-16  3.50460586653e-14
0.34  0.02  1.7235768036
0.34  0.04  3.40304317424
0.34  0.06  4.99541756994
0.34  0.08  6.45994733965
0.34  0.1  7.75915168062
0.34  0.12  8.85978086131
0.34  0.14  9.73366716121
0.34  0.16  10.3584457498
0.34  0.18  10.718127056
0.34  0.2  10.8035059789
0.34  0.22  8.27785267955
0.34  0.24  6.34264886957
0.34  0.26  4.85985873874
0.34  0.28  3.72371661212
0.34  0.3  2.85318280897
0.34  0.32  2.18616317764
0.34  0.34  1.67507999286
0.34  0.36  1.28347829256
0.34  0.38  0.983425588318
0.34  0.4  0.753519473893
0.34  0.42  0.577361016715
0.34  0.44  0.442385041359
0.34  0.46  0.338963870355
0.34  0.48  0.259720593294
0.34  0.5  0.199002880485
0.34  0.52  0.152479808933
0.34  0.54  0.116832942696
0.34  0.56  0.0895196327609
0.34  0.58  0.0685916528737
0.34  0.6  0.0525562348598
0.34  0.62  0.0402695912245
0.34  0.64  0.0308553301377
0.34  0.66  0.0236419434356
0.34  0.68  0.0181149087343
0.34  0.7  0.0138799891535
0.34  0.72  0.0106351128634
0.34  0.74  0.00814882665738
0.34  0.76  0.00624378666637
0.34  0.78  0.00478410862991
0.34  0.8  0.00366567543155
0.34  0.82  0.00280871054755
0.34  0.84  0.00215208768131
0.34  0.86  0.00164897069657
0.34  0.88  0.00126347285092
0.34  0.9  0.000968097036739
0.34  0.92  0.000741774444824
0.34  0.94  0.000568361751057
0.34  0.96  0.000435489632082
0.34  0.98  0.000333680476032
0.36  -1  0.000191785723573
0.36  -0.98  0.00025030141167
0.36  -0.96  0.000326670804878
0.36  -0.94  0.000426341242137
0.36  -0.92  0.000556422098433
0.36  -0.9  0.000726191888151
0.36  -0.88  0.000947760090588
0.36  -0.86  0.00123693090486
0.36  -0.84  0.00161433054482
0.36  -0.82  0.00210687848262
0.36  -0.8  0.00274970758298
0.36  -0.78  0.00358867008908
0.36  -0.76  0.00468360820909
0.36  -0.74  0.00611262259047
0.36  -0.72  0.00797764314722
0.36  -0.7  0.0104116996007
0.36  -0.68  0.0135884103331
0.36  -0.66  0.0177343663822
0.36  -0.64  0.0231452939136
0.36  -0.62  0.0302071480199
0.36  -0.6  0.0394236424434
0.36  -0.58  0.0514521788844
0.36  -0.56  0.0671507386905
0.36  -0.54  0.0876390816572
0.36  -0.52  0.114378617175
0.36  -0.5  0.149276644843
0.36  -0.48  0.194822399902
0.36  -0.46  0.254264607458
0.36  -0.44  0.331843210218
0.36  -0.42  0.433091798613
0.36  -0.4  0.565232315293
0.36  -0.38  0.737690187796
0.36  -0.36  0.962766633199
0.36  -0.34  1.25651608946
0.36  -0.32  1.63989135958
0.36  -0.3  2.14023815037
0.36  -0.28  2.79324560955
0.36  -0.26  3.64549199068
0.36  -0.24  4.75776702508
0.36  -0.22  6.20940798192
0.36  -0.2  8.10395870219
0.36  -0.18  8.03991400536
0.36  -0.16  7.77010877207
0.36  -0.14  7.30144796046
0.36  -0.12  6.64592571623
0.36  -0.1  5.82031841392
0.36  -0.08  4.84575530955
0.36  -0.06  3.74717779267
0.36  -0.04  2.55270107683
0.36  -0.02  1.29289466436
0.36  6.17561557e-16  2.62888559189e-14
0.36  0.02  1.29289466436
0.36  0.04  2.55270107683
0.36  0.06  3.74717779267
0.36  0.08  4.84575530955
0.36  0.1  5.82031841392
0.36  0.12  6.64592571623
0.36  0.14  7.30144796046
0.36  0.16  7.77010877207
0.36  0.18  8.03991400536
0.36  0.2  8.10395870219
0.36  0.22  6.20940798192
0.36  0.24  4.75776702508
0.36  0.26  3.64549199068
0.36  0.28  2.79324560955
0.36  0.3  2.14023815037
0.36  0.32  1.63989135958
0.36  0.34  1.25651608946
0.36  0.36  0.962766633199
0.36  0.38  0.737690187796
0.36  0.4  0.565232315293
0.36  0.42  0.433091798613
0.36  0.44  0.331843210218
0.36  0.46  0.254264607458
0.36  0.48  0.194822399902
0.36  0.5  0.149276644843
0.36  0.52  0.114378617175
0.36  0.54  0.0876390816572
0.36  0.56  0.0671507386905
0.36  0.58  0.0514521788843
0.36  0.6  0.0394236424434
0.36  0.62  0.0302071480199
0.36  0.64  0.0231452939136
0.36  0.66  0.0177343663822
0.36  0.68  0.0135884103331
0.36  0.7  0.0104116996007
0.36  0.72  0.00797764314722
0.36  0.74  0.00611262259047
0.36  0.76  0.00468360820909
0.36  0.78  0.00358867008908
0.36  0.8  0.00274970758298
0.36  0.82  0.00210687848262
0.36  0.84  0.00161433054482
0.36  0.86  0.00123693090486
0.36  0.88  0.000947760090588
0.36  0.9  0.000726191888151
0.36  0.92  0.000556422098433
0.36  0.94  0.000426341242137
0.36  0.96  0.000326670804878
0.36  0.98  0.00025030141167
0.38  -1  0.00014386288919
0.38  -0.98  0.000187756854787
0.38  -0.96  0.000245043295864
0.38  -0.94  0.00031980838684
0.38  -0.92  0.000417385033664
0.38  -0.9  0.000544733263715
0.38  -0.88  0.000710936676365
0.38  -0.86  0.000927850365432
0.38  -0.84  0.00121094652907
0.38  -0.82  0.00158041808345
0.38  -0.8  0.00206261899971
0.38  -0.78  0.00269194410171
0.38  -0.76  0.00351328240831
0.38  -0.74  0.00458521901428
0.38  -0.72  0.00598421389615
0.38  -0.7  0.00781005571235
0.38  -0.68  0.0101929796108
0.38  -0.66  0.0133029567486
0.38  -0.64  0.017361818135
0.38  -0.62  0.0226590775756
0.38  -0.6  0.0295725823521
0.38  -0.58  0.0385954646234
0.38  -0.56  0.050371315963
0.38  -0.54  0.0657400939877
0.38  -0.52  0.0857980355464
0.38  -0.5  0.111975850004
0.38  -0.48  0.146140770057
0.38  -0.46  0.190729739244
0.38  -0.44  0.248923236259
0.38  -0.42  0.324872134757
0.38  -0.4  0.423993780281
0.38  -0.38  0.553358403151
0.38  -0.36  0.722193429665
0.38  -0.34  0.942541663561
0.38  -0.32  1.23012028503
0.38  -0.3  1.60544193869
0.38  -0.28  2.09527787638
0.38  -0.26  2.73456751904
0.38  -0.24  3.56891064449
0.38  -0.22  4.65781996593
0.38  -0.2  6.07896610371
0.38  -0.18  6.03092470129
0.38  -0.16  5.82853758063
0.38  -0.14  5.47698430986
0.38  -0.12  4.98526197398
0.38  -0.1  4.36595491799
0.38  -0.08  3.63491268356
0.38  -0.06  2.81084438153
0.38  -0.04  1.91483988125
0.38  -0.02  0.969830070599
0.38  6.17561557e-16  1.97198764097e-14
0.38  0.02  0.9698300706
0.38  0.04  1.91483988125
0.38  0.06  2.81084438153
0.38  0.08  3.63491268356
0.38  0.1  4.36595491799
0.38  0.12  4.98526197398
0.38  0.14  5.47698430986
0.38  0.16  5.82853758063
0.38  0.18  6.03092470129
0.38  0.2  6.07896610371
0.38  0.22  4.65781996593
0.38  0.24  3.56891064449
0.38  0.26  2.73456751904
0.38  0.28  2.09527787638
0.38  0.3  1.60544193869
0.38  0.32  1.23012028503
0.38  0.34  0.94254166356
0.38  0.36  0.722193429665
0.38  0.38  0.553358403151
0.38  0.4  0.423993780281
0.38  0.42  0.324872134757
0.38  0.44  0.248923236259
0.38  0.46  0.190729739244
0.38  0.48  0.146140770057
0.38  0.5  0.111975850004
0.38  0.52  0.0857980355464
0.38  0.54  0.0657400939877
0.38  0.56  0.050371315963
0.38  0.58  0.0385954646234
0.38  0.6  0.0295725823521
0.38  0.62  0.0226590775756
0.38  0.64  0.017361818135
0.38  0.66  0.0133029567486
0.38  0.68  0.0101929796108
0.38  0.7  0.00781005571235
0.38  0.72  0.00598421389615
0.38  0.74  0.00458521901428
0.38  0.76  0.00351328240831
0.38  0.78  0.00269194410171
0.38  0.8  0.00206261899971
0.38  0.82  0.00158041808345
0.38  0.84  0.00121094652907
0.38  0.86  0.000927850365432
0.38  0.88  0.000710936676365
0.38  0.9  0.000544733263715
0.38  0.92  0.000417385033664
0.38  0.94  0.00031980838684
0.38  0.96  0.000245043295864
0.38  0.98  0.000187756854787
0.4  -1  0.000107914867179
0.4  -0.98  0.000140840741906
0.4  -0.96  0.000183812620996
0.4  -0.94  0.000239895638012
0.4  -0.92  0.000313090128551
0.4  -0.9  0.000408616969481
0.4  -0.88  0.000533289977939
0.4  -0.86  0.000696001932889
0.4  -0.84  0.00090835888658
0.4  -0.82  0.0011855080106
0.4  -0.8  0.00154721802577
0.4  -0.78  0.00201928928179
0.4  -0.76  0.00263539406576
0.4  -0.74  0.00343947840681
0.4  -0.72  0.00448889669467
0.4  -0.7  0.00585850270074
0.4  -0.68  0.00764598880952
0.4  -0.66  0.00997885430144
0.4  -0.64  0.0130234997265
0.4  -0.62  0.0169970960595
0.4  -0.6  0.0221830752505
0.4  -0.58  0.0289513470915
0.4  -0.56  0.0377846844475
0.4  -0.54  0.049313158876
0.4  -0.52  0.06435908289
0.4  -0.5  0.0839956645417
0.4  -0.48  0.10962355809
0.4  -0.46  0.14307077102
0.4  -0.44  0.186723053665
0.4  -0.42  0.243694071972
0.4  -0.4  0.318047501626
0.4  -0.38  0.415086885259
0.4  -0.36  0.541733927897
0.4  -0.34  0.707022214041
0.4  -0.32  0.922741562611
0.4  -0.3  1.20427898086
0.4  -0.28  1.57171620148
0.4  -0.26  2.05126208899
0.4  -0.24  2.67712208716
0.4  -0.22  3.49393805307
0.4  -0.2  4.55997250826
0.4  -0.18  4.52393554563
0.4  -0.16  4.37212030427
0.4  -0.14  4.10841209756
0.4  -0.12  3.7395598462
0.4  -0.1  3.27500335726
0.4  -0.08  2.72663173707
0.4  -0.06  2.10847912064
0.4  -0.04  1.4363655048
0.4  -0.02  0.727491876771
0.4  6.17561557e-16  1.47923335581e-14
0.4  0.02  0.727491876771
0.4  0.04  1.4363655048
0.4  0.06  2.10847912064
0.4  0.08  2.72663173707
0.4  0.1  3.27500335726
0.4  0.12  3.7395598462
0.4  0.14  4.10841209756
0.4  0.16  4.37212030427
0.4  0.18  4.52393554563
0.4  0.2  4.55997250826
0.4  0.22  3.49393805307
0.4  0.24  2.67712208716
0.4  0.26  2.05126208899
0.4  0.28  1.57171620148
0.4  0.3  1.20427898086
0.4  0.32  0.92274156261
0.4  0.34  0.707022214041
0.4  0.36  0.541733927897
0.4  0.38  0.415086885259
0.4  0.4  0.318047501626
0.4  0.42  0.243694071972
0.4  0.44  0.186723053665
0.4  0.46  0.143070771019
0.4  0.48  0.10962355809
0.4  0.5  0.0839956645417
0.4  0.52  0.06435908289
0.4  0.54  0.049313158876
0.4  0.56  0.0377846844475
0.4  0.58  0.0289513470915
0.4  0.6  0.0221830752505
0.4  0.62  0.0169970960595
0.4  0.64  0.0130234997265
0.4  0.66  0.00997885430144
0.4  0.68  0.00764598880952
0.4  0.7  0.00585850270074
0.4  0.72  0.00448889669467
0.4  0.74  0.00343947840681
0.4  0.76  0.00263539406576
0.4  0.78  0.00201928928179
0.4  0.8  0.00154721802577
0.4  0.82  0.0011855080106
0.4  0.84  0.00090835888658
0.4  0.86  0.000696001932889
0.4  0.88  0.000533289977939
0.4  0.9  0.000408616969481
0.4  0.92  0.000313090128551
0.4  0.94  0.000239895638012
0.4  0.96  0.000183812620996
0.4  0.98  0.000140840741906
0.42  -1  0.0000809494277764
0.42  -0.98  0.000105647884883
0.42  -0.96  0.000137882081281
0.42  -0.94  0.000179951244261
0.42  -0.92  0.000234856117708
0.42  -0.9  0.000306513001627
0.42  -0.88  0.000400033097215
0.42  -0.86  0.000522087082823
0.42  -0.84  0.0006813809256
0.42  -0.82  0.000889276867877
0.42  -0.8  0.00116060388254
0.42  -0.78  0.00151471540622
0.42  -0.76  0.00197686979714
0.42  -0.74  0.0025800319841
0.42  -0.72  0.00336722481601
0.42  -0.7  0.00439459783114
0.42  -0.68  0.00573543233751
0.42  -0.66  0.00748536848243
0.42  -0.64  0.00976922715161
0.42  -0.62  0.012749913296
0.42  -0.6  0.0166400357503
0.42  -0.58  0.0217170723709
0.42  -0.56  0.0283431622046
0.42  -0.54  0.0369909364411
0.42  -0.52  0.0482772306389
0.42  -0.5  0.0630070828803
0.42  -0.48  0.0822311561899
0.42  -0.46  0.107320681092
0.42  -0.44  0.140065263869
0.42  -0.42  0.182800537074
0.42  -0.4  0.238574757449
0.42  -0.38  0.311366234492
0.42  -0.36  0.406367098592
0.42  -0.34  0.530353649576
0.42  -0.32  0.692169702207
0.42  -0.3  0.903357405075
0.42  -0.28  1.17898052848
0.42  -0.26  1.53869894542
0.42  -0.24  2.00817094723
0.42  -0.22  2.62088341928
0.42  -0.2  3.42054042107
0.42  -0.18  3.39350826527
0.42  -0.16  3.27962815553
0.42  -0.14  3.08181455495
0.42  -0.12  2.80512998439
0.42  -0.1  2.45665546061
0.42  -0.08  2.04530927613
0.42  -0.06  1.5816187589
0.42  -0.04  1.07745085298
0.42  -0.02  0.545708415125
0.42  6.17561557e-16  1.10960701552e-14
0.42  0.02  0.545708415125
0.42  0.04  1.07745085298
0.42  0.06  1.5816187589
0.42  0.08  2.04530927613
0.42  0.1  2.45665546061
0.42  0.12  2.80512998439
0.42  0.14  3.08181455495
0.42  0.16  3.27962815553
0.42  0.18  3.39350826527
0.42  0.2  3.42054042107
0.42  0.22  2.62088341928
0.42  0.24  2.00817094723
0.42  0.26  1.53869894542
0.42  0.28  1.17898052848
0.42  0.3  0.903357405075
0.42  0.32  0.692169702207
0.42  0.34  0.530353649576
0.42  0.36  0.406367098592
0.42  0.38  0.311366234492
0.42  0.4  0.238574757449
0.42  0.42  0.182800537074
0.42  0.44  0.140065263869
0.42  0.46  0.107320681092
0.42  0.48  0.0822311561898
0.42  0.5  0.0630070828803
0.42  0.52  0.0482772306389
0.42  0.54  0.0369909364411
0.42  0.56  0.0283431622046
0.42  0.58  0.0217170723709
0.42  0.6  0.0166400357503
0.42  0.62  0.012749913296
0.42  0.64  0.00976922715161
0.42  0.66  0.00748536848243
0.42  0.68  0.00573543233751
0.42  0.7  0.00439459783114
0.42  0.72  0.00336722481601
0.42  0.74  0.0025800319841
0.42  0.76  0.00197686979714
0.42  0.78  0.00151471540622
0.42  0.8  0.00116060388254
0.42  0.82  0.000889276867877
0.42  0.84  0.0006813809256
0.42  0.86  0.000522087082823
0.42  0.88  0.000400033097215
0.42  0.9  0.000306513001627
0.42  0.92  0.000234856117708
0.42  0.94  0.000179951244261
0.42  0.96  0.000137882081281
0.42  0.98  0.000105647884883
0.44  -1  0.0000607220305101
0.44  -0.98  0.0000792489121347
0.44  -0.96  0.000103428525393
0.44  -0.94  0.000134985573642
0.44  -0.92  0.000176170983992
0.44  -0.9  0.000229922463294
0.44  -0.88  0.000300074041304
0.44  -0.86  0.000391629547521
0.44  -0.84  0.000511119528449
0.44  -0.82  0.000667067063801
0.44  -0.8  0.000870595707736
0.44  -0.78  0.00113622291889
0.44  -0.76  0.00148289557362
0.44  -0.74  0.00193534142438
0.44  -0.72  0.00252583290122
0.44  -0.7  0.00329648906622
0.44  -0.68  0.00430227991666
0.44  -0.66  0.00561494733015
0.44  -0.64  0.00732812232841
0.44  -0.62  0.00956400366783
0.44  -0.6  0.0124820741329
0.44  -0.58  0.0162904762556
0.44  -0.56  0.0212608588772
0.44  -0.54  0.0277477535404
0.44  -0.52  0.036213862807
0.44  -0.5  0.0472630642872
0.44  -0.48  0.0616834845187
0.44  -0.46  0.080503715105
0.44  -0.44  0.105066180944
0.44  -0.42  0.137122893817
0.44  -0.4  0.178960421324
0.44  -0.38  0.233562985064
0.44  -0.36  0.304825321646
0.44  -0.34  0.397830489669
0.44  -0.32  0.51921243831
0.44  -0.3  0.67762919911
0.44  -0.28  0.884380453173
0.44  -0.26  1.15421352413
0.44  -0.24  1.50637528735
0.44  -0.22  1.96598502695
0.44  -0.2  2.56582616474
0.44  -0.18  2.54554872196
0.44  -0.16  2.46012462833
0.44  -0.14  2.31174008974
0.44  -0.12  2.10419261972
0.44  -0.1  1.84279385204
0.44  -0.08  1.53423360336
0.44  -0.06  1.18640866491
0.44  -0.04  0.808220704767
0.44  -0.02  0.409348453017
0.44  6.17561557e-16  8.32341783031e-15
0.44  0.02  0.409348453017
0.44  0.04  0.808220704767
0.44  0.06  1.18640866491
0.44  0.08  1.53423360336
0.44  0.1  1.84279385204
0.44  0.12  2.10419261972
0.44  0.14  2.31174008974
0.44  0.16  2.46012462833
0.44  0.18  2.54554872196
0.44  0.2  2.56582616474
0.44  0.22  1.96598502695
0.44  0.24  1.50637528735
0.44  0.26  1.15421352413
0.44  0.28  0.884380453173
0.44  0.3  0.67762919911
0.44  0.32  0.51921243831
0.44  0.34  0.397830489669
0.44  0.36  0.304825321646
0.44  0.38  0.233562985064
0.44  0.4  0.178960421324
0.44  0.42  0.137122893817
0.44  0.44  0.105066180944
0.44  0.46  0.080503715105
0.44  0.48  0.0616834845187
0.44  0.5  0.0472630642872
0.44  0.52  0.036213862807
0.44  0.54  0.0277477535404
0.44  0.56  0.0212608588772
0.44  0.58  0.0162904762556
0.44  0.6  0.0124820741329
0.44  0.62  0.00956400366783
0.44  0.64  0.00732812232841
0.44  0.66  0.00561494733015
0.44  0.68  0.00430227991666
0.44  0.7  0.00329648906622
0.44  0.72  0.00252583290122
0.44  0.74  0.00193534142438
0.44  0.76  0.00148289557362
0.44  0.78  0.00113622291889
0.44  0.8  0.000870595707736
0.44  0.82  0.000667067063801
0.44  0.84  0.000511119528449
0.44  0.86  0.000391629547521
0.44  0.88  0.000300074041304
0.44  0.9  0.000229922463294
0.44  0.92  0.000176170983992
0.44  0.94  0.000134985573642
0.44  0.96  0.000103428525393
0.44  0.98  0.0000792489121347
0.46  -1  0.0000455489938664
0.46  -0.98  0.0000594464345546
0.46  -0.96  0.0000775841194565
0.46  -0.94  0.00010125578829
0.46  -0.92  0.000132149913333
0.46  -0.9  0.000172470136165
0.46  -0.88  0.000225092450829
0.46  -0.86  0.000293770345096
0.46  -0.84  0.000383402532339
0.46  -0.82  0.000500382370982
0.46  -0.8  0.000653053895244
0.46  -0.78  0.000852306985267
0.46  -0.76  0.00111235412946
0.46  -0.74  0.00145174418457
0.46  -0.72  0.00189468544379
0.46  -0.7  0.00247277238585
0.46  -0.68  0.00322723927196
0.46  -0.66  0.00421190133716
0.46  -0.64  0.00549699336772
0.46  -0.62  0.00717417946574
0.46  -0.6  0.00936309134169
0.46  -0.58  0.0122198615035
0.46  -0.56  0.0159482600047
0.46  -0.54  0.0208142291224
0.46  -0.52  0.027164852707
0.46  -0.5  0.0354531132645
0.46  -0.48  0.0462702026661
0.46  -0.46  0.060387691168
0.46  -0.44  0.0788125626101
0.46  -0.42  0.102859041388
0.46  -0.4  0.134242334532
0.46  -0.38  0.175200975407
0.46  -0.36  0.228656495663
0.46  -0.34  0.298421814646
0.46  -0.32  0.389473210452
0.46  -0.3  0.508305271985
0.46  -0.28  0.663394150339
0.46  -0.26  0.865802152682
0.46  -0.24  1.12996680361
0.46  -0.22  1.47473065676
0.46  -0.2  1.92468531204
0.46  -0.18  1.9094747351
0.46  -0.16  1.84539615466
0.46  -0.14  1.7340894941
0.46  -0.12  1.57840335582
0.46  -0.1  1.38232211865
0.46  -0.08  1.15086396819
0.46  -0.06  0.889952469426
0.46  -0.04  0.606264968659
0.46  -0.02  0.307061704278
0.46  6.17561557e-16  6.24358745113e-15
0.46  0.02  0.307061704278
0.46  0.04  0.606264968659
0.46  0.06  0.889952469426
0.46  0.08  1.15086396819
0.46  0.1  1.38232211865
0.46  0.12  1.57840335582
0.46  0.14  1.7340894941
0.46  0.16  1.84539615466
0.46  0.18  1.9094747351
0.46  0.2  1.92468531204
0.46  0.22  1.47473065676
0.46  0.24  1.12996680361
0.46  0.26  0.865802152682
0.46  0.28  0.663394150339
0.46  0.3  0.508305271985
0.46  0.32  0.389473210452
0.46  0.34  0.298421814646
0.46  0.36  0.228656495663
0.46  0.38  0.175200975407
0.46  0.4  0.134242334532
0.46  0.42  0.102859041388
0.46  0.44  0.0788125626101
0.46  0.46  0.060387691168
0.46  0.48  0.0462702026661
0.46  0.5  0.0354531132645
0.46  0.52  0.027164852707
0.46  0.54  0.0208142291224
0.46  0.56  0.0159482600047
0.46  0.58  0.0122198615035
0.46  0.6  0.00936309134169
0.46  0.62  0.00717417946574
0.46  0.64  0.00549699336772
0.46  0.66  0.00421190133716
0.46  0.68  0.00322723927196
0.46  0.7  0.00247277238585
0.46  0.72  0.00189468544379
0.46  0.74  0.00145174418457
0.46  0.76  0.00111235412946
0.46  0.78  0.000852306985267
0.46  0.8  0.000653053895244
0.46  0.82  0.000500382370982
0.46  0.84  0.000383402532339
0.46  0.86  0.000293770345096
0.46  0.88  0.000225092450829
0.46  0.9  0.000172470136165
0.46  0.92  0.000132149913333
0.46  0.94  0.00010125578829
0.46  0.96  0.0000775841194565
0.46  0.98  0.0000594464345546
0.48  -1  0.0000341673495568
0.48  -0.98  0.0000445921399557
0.48  -0.96  0.0000581976352168
0.48  -0.94  0.0000759542993045
0.48  -0.92  0.0000991286941702
0.48  -0.9  0.000129373822126
0.48  -0.88  0.000168847032552
0.48  -0.86  0.000220363903093
0.48  -0.84  0.000287599071492
0.48  -0.82  0.000375348343184
0.48  -0.8  0.000489870770443
0.48  -0.78  0.000639335103225
0.48  -0.76  0.00083440245648
0.48  -0.74  0.00108898675494
0.48  -0.72  0.00142124719699
0.48  -0.7  0.00185488352892
0.48  -0.68  0.00242082651994
0.48  -0.66  0.00315944421754
0.48  -0.64  0.00412342135279
0.48  -0.62  0.00538151728024
0.48  -0.6  0.00702347050173
0.48  -0.58  0.00916639960811
0.48  -0.56  0.0119631572105
0.48  -0.54  0.0156132327372
0.48  -0.52  0.0203769817797
0.48  -0.5  0.0265941969506
0.48  -0.48  0.0347083448911
0.48  -0.46  0.0452981982241
0.48  -0.44  0.0591191187245
0.48  -0.42  0.0771569363856
0.48  -0.4  0.100698267512
0.48  -0.38  0.131422287548
0.48  -0.36  0.171520504683
0.48  -0.34  0.223853077552
0.48  -0.32  0.292152826988
0.48  -0.3  0.381291493736
0.48  -0.28  0.497627233986
0.48  -0.26  0.649458139175
0.48  -0.24  0.847614129077
0.48  -0.22  1.10622943724
0.48  -0.2  1.44375078923
0.48  -0.18  1.43234098509
0.48  -0.16  1.38427416579
0.48  -0.14  1.30078047567
0.48  -0.12  1.18399671699
0.48  -0.1  1.0369116641
0.48  -0.08  0.863289573611
0.48  -0.06  0.667573848086
0.48  -0.04  0.454773318791
0.48  -0.02  0.230334057792
0.48  6.17561557e-16  4.68345877314e-15
0.48  0.02  0.230334057792
0.48  0.04  0.454773318791
0.48  0.06  0.667573848086
0.48  0.08  0.863289573611
0.48  0.1  1.0369116641
0.48  0.12  1.18399671699
0.48  0.14  1.30078047567
0.48  0.16  1.38427416579
0.48  0.18  1.43234098509
0.48  0.2  1.44375078923
0.48  0.22  1.10622943724
0.48  0.24  0.847614129077
0.48  0.26  0.649458139175
0.48  0.28  0.497627233986
0.48  0.3  0.381291493736
0.48  0.32  0.292152826988
0.48  0.34  0.223853077552
0.48  0.36  0.171520504683
0.48  0.38  0.131422287548
0.48  0.4  0.100698267512
0.48  0.42  0.0771569363856
0.48  0.44  0.0591191187245
0.48  0.46  0.0452981982241
0.48  0.48  0.0347083448911
0.48  0.5  0.0265941969506
0.48  0.52  0.0203769817797
0.48  0.54  0.0156132327372
0.48  0.56  0.0119631572105
0.48  0.58  0.00916639960811
0.48  0.6  0.00702347050173
0.48  0.62  0.00538151728024
0.48  0.64  0.00412342135278
0.48  0.66  0.00315944421753
0.48  0.68  0.00242082651994
0.48  0.7  0.00185488352892
0.48  0.72  0.00142124719699
0.48  0.74  0.00108898675494
0.48  0.76  0.00083440245648
0.48  0.78  0.000639335103225
0.48  0.8  0.000489870770443
0.48  0.82  0.000375348343184
0.48  0.84  0.000287599071492
0.48  0.86  0.000220363903093
0.48  0.88  0.000168847032552
0.48  0.9  0.000129373822126
0.48  0.92  0.0000991286941702
0.48  0.94  0.0000759542993045
0.48  0.96  0.0000581976352168
0.48  0.98  0.0000445921399557
0.5  -1  0.0000256297159749
0.5  -0.98  0.0000334495913965
0.5  -0.96  0.0000436553868054
0.5  -0.94  0.0000569750695766
0.5  -0.92  0.0000743587170062
0.5  -0.9  0.0000970462842063
0.5  -0.88  0.000126656048644
0.5  -0.86  0.000165300039969
0.5  -0.84  0.000215734688602
0.5  -0.82  0.000281557438672
0.5  -0.8  0.000367463349476
0.5  -0.78  0.000479579988526
0.5  -0.76  0.000625904503736
0.5  -0.74  0.000816874050564
0.5  -0.72  0.00106611026203
0.5  -0.7  0.00139139086378
0.5  -0.68  0.00181591773829
0.5  -0.66  0.00236997188791
0.5  -0.64  0.00309307334305
0.5  -0.62  0.00403680007948
0.5  -0.6  0.00526846701463
0.5  -0.58  0.00687592750142
0.5  -0.56  0.00897383980455
0.5  -0.54  0.0117118455395
0.5  -0.52  0.0152852434331
0.5  -0.5  0.0199489197513
0.5  -0.48  0.0260355290374
0.5  -0.46  0.0339792219682
0.5  -0.44  0.0443466128116
0.5  -0.42  0.0578771953549
0.5  -0.4  0.0755360901265
0.5  -0.38  0.0985828853078
0.5  -0.36  0.128661481675
0.5  -0.34  0.167917350107
0.5  -0.32  0.219150565499
0.5  -0.3  0.286015532807
0.5  -0.28  0.373281651456
0.5  -0.26  0.487173510985
0.5  -0.24  0.635814883693
0.5  -0.22  0.829808183758
0.5  -0.2  1.08299072496
0.5  -0.18  1.07443196804
0.5  -0.16  1.03837593963
0.5  -0.14  0.975745399323
0.5  -0.12  0.888143211726
0.5  -0.1  0.777811325333
0.5  -0.08  0.647573395734
0.5  -0.06  0.500762521549
0.5  -0.04  0.341135942494
0.5  -0.02  0.17277888268
0.5  6.17561557e-16  3.51317031297e-15
0.5  0.02  0.17277888268
0.5  0.04  0.341135942494
0.5  0.06  0.500762521549
0.5  0.08  0.647573395734
0.5  0.1  0.777811325333
0.5  0.12  0.888143211726
0.5  0.14  0.975745399323
0.5  0.16  1.03837593963
0.5  0.18  1.07443196804
0.5  0.2  1.08299072496
0.5  0.22  0.829808183758
0.5  0.24  0.635814883693
0.5  0.26  0.487173510985
0.5  0.28  0.373281651456
0.5  0.3  0.286015532807
0.5  0.32  0.219150565499
0.5  0.34  0.167917350107
0.5  0.36  0.128661481675
0.5  0.38  0.0985828853078
0.5  0.4  0.0755360901265
0.5  0.42  0.0578771953548
0.5  0.44  0.0443466128116
0.5  0.46  0.0339792219682
0.5  0.48  0.0260355290374
0.5  0.5  0.0199489197513
0.5  0.52  0.0152852434331
0.5  0.54  0.0117118455395
0.5  0.56  0.00897383980455
0.5  0.58  0.00687592750142
0.5  0.6  0.00526846701463
0.5  0.62  0.00403680007948
0.5  0.64  0.00309307334305
0.5  0.66  0.00236997188791
0.5  0.68  0.00181591773829
0.5  0.7  0.00139139086378
0.5  0.72  0.00106611026203
0.5  0.74  0.000816874050564
0.5  0.76  0.000625904503736
0.5  0.78  0.000479579988526
0.5  0.8  0.000367463349476
0.5  0.82  0.000281557438672
0.5  0.84  0.000215734688602
0.5  0.86  0.000165300039969
0.5  0.88  0.000126656048644
0.5  0.9  0.0000970462842063
0.5  0.92  0.0000743587170062
0.5  0.94  0.0000569750695766
0.5  0.96  0.0000436553868054
0.5  0.98  0.0000334495913965
0.52  -1  0.0000192254403539
0.52  -0.98  0.0000250913090447
0.52  -0.96  0.0000327469112796
0.52  -0.94  0.0000427383121559
0.52  -0.92  0.0000557781865391
0.52  -0.9  0.0000727966533222
0.52  -0.88  0.0000950076197118
0.52  -0.86  0.0001239953678
0.52  -0.84  0.000161827559542
0.52  -0.82  0.00021120272065
0.52  -0.8  0.000275642723255
0.52  -0.78  0.000359743996904
0.52  -0.76  0.000469505386465
0.52  -0.74  0.000612756042678
0.52  -0.72  0.000799713866256
0.52  -0.7  0.00104371433872
0.52  -0.68  0.00136216172662
0.52  -0.66  0.00177777050732
0.52  -0.64  0.00232018556605
0.52  -0.62  0.00302809673055
0.52  -0.6  0.00395199847104
0.52  -0.58  0.00515779161133
0.52  -0.56  0.006731483957
0.52  -0.54  0.00878532513097
0.52  -0.52  0.011465813207
0.52  -0.5  0.0149641442449
0.52  -0.48  0.0195298500803
0.52  -0.46  0.025488597137
0.52  -0.44  0.0332654158298
0.52  -0.42  0.0434150174833
0.52  -0.4  0.0566613612384
0.52  -0.38  0.0739492932053
0.52  -0.36  0.0965119412249
0.52  -0.34  0.125958672426
0.52  -0.32  0.16438988749
0.52  -0.3  0.214546839756
0.52  -0.28  0.2800071656
