-0.48  -0.52  0.00663698911334
-0.48  -0.5  0.0080826254534
-0.48  -0.48  0.00984314319404
-0.48  -0.46  0.0119871282539
-0.48  -0.44  0.0145981055994
-0.48  -0.42  0.0177777931942
-0.48  -0.4  0.021650064709
-0.48  -0.38  0.0263657753684
-0.48  -0.36  0.0321086389403
-0.48  -0.34  0.0391023848225
-0.48  -0.32  0.0476194740504
-0.48  -0.3  0.0579917137823
-0.48  -0.28  0.0706231837809
-0.48  -0.26  0.086005978476
-0.48  -0.24  0.104739377887
-0.48  -0.22  0.127553194261
-0.48  -0.2  0.0121362388998
-0.48  -0.18  0.0184997277821
-0.48  -0.16  0.0486419237354
-0.48  -0.14  0.0774858325782
-0.48  -0.12  0.104261590124
-0.48  -0.1  0.128254532595
-0.48  -0.08  0.148824271506
-0.48  -0.06  0.165421786077
-0.48  -0.04  0.177604076986
-0.48  -0.02  0.18504599033
-0.48  6.17561557e-16  0.187548896217
-0.48  0.02  0.18504599033
-0.48  0.04  0.177604076986
-0.48  0.06  0.165421786077
-0.48  0.08  0.148824271506
-0.48  0.1  0.128254532595
-0.48  0.12  0.104261590124
-0.48  0.14  0.0774858325782
-0.48  0.16  0.0486419237354
-0.48  0.18  0.0184997277821
-0.48  0.2  0.155336203961
-0.48  0.22  0.127553194261
-0.48  0.24  0.104739377887
-0.48  0.26  0.086005978476
-0.48  0.28  0.0706231837809
-0.48  0.3  0.0579917137823
-0.48  0.32  0.0476194740504
-0.48  0.34  0.0391023848225
-0.48  0.36  0.0321086389403
-0.48  0.38  0.0263657753684
-0.48  0.4  0.021650064709
-0.48  0.42  0.0177777931942
-0.48  0.44  0.0145981055994
-0.48  0.46  0.0119871282539
-0.48  0.48  0.00984314319404
-0.48  0.5  0.00808262545339
-0.48  0.52  0.00663698911333
-0.48  0.54  0.00544991534552
-0.48  0.56  0.0044751583536
-0.48  0.58  0.00367474373823
-0.48  0.6  0.00301748909752
-0.48  0.62  0.00247778922892
-0.48  0.64  0.00203461860658
-0.48  0.66  0.00167071227283
-0.48  0.68  0.00137189323323
-0.48  0.7  0.00112652015192
-0.48  0.72  0.00092503383057
-0.48  0.74  0.000759584803027
-0.48  0.76  0.000623727537223
-0.48  0.78  0.000512169331377
-0.48  0.8  0.00042056412191
-0.48  0.82  0.000345343170319
-0.48  0.84  0.000283576032935
-0.48  0.86  0.000232856397249
-0.48  0.88  0.000191208337244
-0.48  0.9  0.000157009335641
-0.48  0.92  0.000128927074173
-0.48  0.94  0.000105867529385
-0.48  0.96  0.0000869323518748
-0.48  0.98  0.0000713838685606
-0.46  -1  0.0000728275245144
-0.46  -0.98  0.0000886904578712
-0.46  -0.96  0.000108008577387
-0.46  -0.94  0.000131534474724
-0.46  -0.92  0.000160184667362
-0.46  -0.9  0.00019507530411
-0.46  -0.88  0.000237565647827
-0.46  -0.86  0.000289311029322
-0.46  -0.84  0.000352327335425
-0.46  -0.82  0.000429069543524
-0.46  -0.8  0.000522527362113
-0.46  -0.78  0.000636341703292
-0.46  -0.76  0.000774946524736
-0.46  -0.74  0.00094374156698
-0.46  -0.72  0.0011493027155
-0.46  -0.7  0.00139963818282
-0.46  -0.68  0.00170450049093
-0.46  -0.66  0.00207576640824
-0.46  -0.64  0.00252789964245
-0.46  -0.62  0.00307851431496
-0.46  -0.6  0.00374906116853
-0.46  -0.58  0.00456566324122
-0.46  -0.56  0.00556013356281
-0.46  -0.54  0.00677121452087
-0.46  -0.52  0.00824608717932
-0.46  -0.5  0.0100422093495
-0.46  -0.48  0.0122295540207
-0.46  -0.46  0.0148933353549
-0.46  -0.44  0.0181373284436
-0.46  -0.42  0.0220879121589
-0.46  -0.4  0.0268989925973
-0.46  -0.38  0.0327579989247
-0.46  -0.36  0.0398931852064
-0.46  -0.34  0.0485825226861
-0.46  -0.32  0.0591645289374
-0.46  -0.3  0.0720514557672
-0.46  -0.28  0.0877453496448
-0.46  -0.26  0.106857610333
-0.46  -0.24  0.130132809685
-0.46  -0.22  0.158477698534
-0.46  -0.2  0.0150785969794
-0.46  -0.18  0.0229848754428
-0.46  -0.16  0.0604348653949
-0.46  -0.14  0.0962718063403
-0.46  -0.12  0.129539185153
-0.46  -0.1  0.159349072127
-0.46  -0.08  0.184905820438
-0.46  -0.06  0.205527302525
-0.46  -0.04  0.220663116545
-0.46  -0.02  0.229909276992
-0.46  6.17561557e-16  0.233018997347
-0.46  0.02  0.229909276992
-0.46  0.04  0.220663116545
-0.46  0.06  0.205527302525
-0.46  0.08  0.184905820438
-0.46  0.1  0.159349072127
-0.46  0.12  0.129539185153
-0.46  0.14  0.0962718063403
-0.46  0.16  0.0604348653949
-0.46  0.18  0.0229848754428
-0.46  0.2  0.192996531725
-0.46  0.22  0.158477698534
-0.46  0.24  0.130132809685
-0.46  0.26  0.106857610333
-0.46  0.28  0.0877453496448
-0.46  0.3  0.0720514557672
-0.46  0.32  0.0591645289373
-0.46  0.34  0.0485825226861
-0.46  0.36  0.0398931852064
-0.46  0.38  0.0327579989247
-0.46  0.4  0.0268989925973
-0.46  0.42  0.0220879121589
-0.46  0.44  0.0181373284436
-0.46  0.46  0.0148933353549
-0.46  0.48  0.0122295540207
-0.46  0.5  0.0100422093495
-0.46  0.52  0.00824608717932
-0.46  0.54  0.00677121452087
-0.46  0.56  0.00556013356281
-0.46  0.58  0.00456566324122
-0.46  0.6  0.00374906116853
-0.46  0.62  0.00307851431496
-0.46  0.64  0.00252789964245
-0.46  0.66  0.00207576640824
-0.46  0.68  0.00170450049093
-0.46  0.7  0.00139963818282
-0.46  0.72  0.0011493027155
-0.46  0.74  0.00094374156698
-0.46  0.76  0.000774946524736
-0.46  0.78  0.000636341703292
-0.46  0.8  0.000522527362113
-0.46  0.82  0.000429069543524
-0.46  0.84  0.000352327335425
-0.46  0.86  0.000289311029322
-0.46  0.88  0.000237565647827
-0.46  0.9  0.00019507530411
-0.46  0.92  0.000160184667362
-0.46  0.94  0.000131534474724
-0.46  0.96  0.000108008577387
-0.46  0.98  0.0000886904578712
-0.44  -1  0.0000904841195224
-0.44  -0.98  0.000110192925601
-0.44  -0.96  0.000134194606927
-0.44  -0.94  0.000163424216484
-0.44  -0.92  0.000199020475896
-0.44  -0.9  0.000242370137536
-0.44  -0.88  0.00029516200936
-0.44  -0.86  0.000359452747171
-0.44  -0.84  0.000437746977426
-0.44  -0.82  0.000533094872008
-0.44  -0.8  0.000649210976241
-0.44  -0.78  0.00079061891945
-0.44  -0.76  0.000962827645663
-0.44  -0.74  0.00117254603001
-0.44  -0.72  0.00142794424182
-0.44  -0.7  0.00173897203655
-0.44  -0.68  0.00211774637646
-0.44  -0.66  0.00257902348097
-0.44  -0.64  0.00314077369666
-0.44  -0.62  0.00382488158267
-0.44  -0.6  0.00465799848522
-0.44  -0.58  0.00567258081573
-0.44  -0.56  0.0069081544816
-0.44  -0.54  0.00841285472908
-0.44  -0.52  0.0102453013871
-0.44  -0.5  0.0124768825675
-0.44  -0.48  0.0151945357898
-0.44  -0.46  0.0185041348766
-0.44  -0.44  0.0225346145658
-0.44  -0.42  0.0274429935264
-0.44  -0.4  0.0334204914617
-0.44  -0.38  0.0406999786108
-0.44  -0.36  0.0495650478636
-0.44  -0.34  0.0603610629187
-0.44  -0.32  0.0735086128981
-0.44  -0.3  0.0895198975782
-0.44  -0.28  0.109018681573
-0.44  -0.26  0.132764594838
-0.44  -0.24  0.161682726192
-0.44  -0.22  0.19689966275
-0.44  -0.2  0.018734312067
-0.44  -0.18  0.02855742016
-0.44  -0.16  0.0750869347843
-0.44  -0.14  0.119612326378
-0.44  -0.12  0.160945180966
-0.44  -0.1  0.197982295626
-0.44  -0.08  0.229735123753
-0.44  -0.06  0.255356160062
-0.44  -0.04  0.274161561097
-0.44  -0.02  0.285649397495
-0.44  6.17561557e-16  0.289513050836
-0.44  0.02  0.285649397495
-0.44  0.04  0.274161561097
-0.44  0.06  0.255356160062
-0.44  0.08  0.229735123753
-0.44  0.1  0.197982295626
-0.44  0.12  0.160945180966
-0.44  0.14  0.119612326378
-0.44  0.16  0.0750869347843
-0.44  0.18  0.02855742016
-0.44  0.2  0.239787379297
-0.44  0.22  0.19689966275
-0.44  0.24  0.161682726192
-0.44  0.26  0.132764594838
-0.44  0.28  0.109018681573
-0.44  0.3  0.0895198975782
-0.44  0.32  0.0735086128981
-0.44  0.34  0.0603610629187
-0.44  0.36  0.0495650478636
-0.44  0.38  0.0406999786108
-0.44  0.4  0.0334204914617
-0.44  0.42  0.0274429935264
-0.44  0.44  0.0225346145658
-0.44  0.46  0.0185041348765
-0.44  0.48  0.0151945357898
-0.44  0.5  0.0124768825675
-0.44  0.52  0.0102453013871
-0.44  0.54  0.00841285472908
-0.44  0.56  0.0069081544816
-0.44  0.58  0.00567258081572
-0.44  0.6  0.00465799848522
-0.44  0.62  0.00382488158267
-0.44  0.64  0.00314077369666
-0.44  0.66  0.00257902348097
-0.44  0.68  0.00211774637646
-0.44  0.7  0.00173897203655
-0.44  0.72  0.00142794424182
-0.44  0.74  0.00117254603001
-0.44  0.76  0.000962827645663
-0.44  0.78  0.00079061891945
-0.44  0.8  0.000649210976241
-0.44  0.82  0.000533094872008
-0.44  0.84  0.000437746977426
-0.44  0.86  0.000359452747171
-0.44  0.88  0.00029516200936
-0.44  0.9  0.000242370137536
-0.44  0.92  0.000199020475896
-0.44  0.94  0.000163424216484
-0.44  0.96  0.000134194606927
-0.44  0.98  0.000110192925601
-0.42  -1  0.000112421449724
-0.42  -0.98  0.00013690853722
-0.42  -0.96  0.00016672928173
-0.42  -0.94  0.000203045434206
-0.42  -0.92  0.000247271792478
-0.42  -0.9  0.000301131318684
-0.42  -0.88  0.000366722262105
-0.42  -0.86  0.000446599902365
-0.42  -0.84  0.000543876097535
-0.42  -0.82  0.000662340515309
-0.42  -0.8  0.000806608270171
-0.42  -0.78  0.000982299718152
-0.42  -0.76  0.0011962594136
-0.42  -0.74  0.00145682275805
-0.42  -0.72  0.00177414072921
-0.42  -0.7  0.00216057534086
-0.42  -0.68  0.00263118123984
-0.42  -0.66  0.00320429220215
-0.42  -0.64  0.00390223537675
-0.42  -0.62  0.00475220110244
-0.42  -0.6  0.00578730218392
-0.42  -0.58  0.00704786389422
-0.42  -0.56  0.00858299495912
-0.42  -0.54  0.0104525007256
-0.42  -0.52  0.0127292130473
-0.42  -0.5  0.0155018276542
-0.42  -0.48  0.0188783595442
-0.42  -0.46  0.0229903510107
-0.42  -0.44  0.0279979962433
-0.42  -0.42  0.0340963821419
-0.42  -0.4  0.0415230884762
-0.42  -0.38  0.0505674434733
-0.42  -0.36  0.0615817954122
-0.42  -0.34  0.0749952393419
-0.42  -0.32  0.0913303336856
-0.42  -0.3  0.111223457973
-0.42  -0.28  0.135449604795
-0.42  -0.26  0.164952571817
-0.42  -0.24  0.200881730074
-0.42  -0.22  0.244636800949
-0.42  -0.2  0.0232763332757
-0.42  -0.18  0.0354809948057
-0.42  -0.16  0.093291310214
-0.42  -0.14  0.148611615025
-0.42  -0.12  0.199965371446
-0.42  -0.1  0.245981911649
-0.42  -0.08  0.285433021852
-0.42  -0.06  0.317265724214
-0.42  -0.04  0.34063038155
-0.42  -0.02  0.354903374745
-0.42  6.17561557e-16  0.359703747584
-0.42  0.02  0.354903374745
-0.42  0.04  0.34063038155
-0.42  0.06  0.317265724214
-0.42  0.08  0.285433021852
-0.42  0.1  0.245981911649
-0.42  0.12  0.199965371446
-0.42  0.14  0.148611615025
-0.42  0.16  0.093291310214
-0.42  0.18  0.0354809948057
-0.42  0.2  0.297922386254
-0.42  0.22  0.244636800949
-0.42  0.24  0.200881730074
-0.42  0.26  0.164952571817
-0.42  0.28  0.135449604794
-0.42  0.3  0.111223457973
-0.42  0.32  0.0913303336856
-0.42  0.34  0.0749952393419
-0.42  0.36  0.0615817954122
-0.42  0.38  0.0505674434733
-0.42  0.4  0.0415230884762
-0.42  0.42  0.0340963821419
-0.42  0.44  0.0279979962433
-0.42  0.46  0.0229903510107
-0.42  0.48  0.0188783595442
-0.42  0.5  0.0155018276542
-0.42  0.52  0.0127292130473
-0.42  0.54  0.0104525007256
-0.42  0.56  0.00858299495912
-0.42  0.58  0.00704786389422
-0.42  0.6  0.00578730218392
-0.42  0.62  0.00475220110244
-0.42  0.64  0.00390223537675
-0.42  0.66  0.00320429220215
-0.42  0.68  0.00263118123984
-0.42  0.7  0.00216057534086
-0.42  0.72  0.00177414072921
-0.42  0.74  0.00145682275805
-0.42  0.76  0.0011962594136
-0.42  0.78  0.000982299718151
-0.42  0.8  0.000806608270171
-0.42  0.82  0.000662340515309
-0.42  0.84  0.000543876097535
-0.42  0.86  0.000446599902365
-0.42  0.88  0.000366722262105
-0.42  0.9  0.000301131318684
-0.42  0.92  0.000247271792478
-0.42  0.94  0.000203045434206
-0.42  0.96  0.00016672928173
-0.42  0.98  0.00013690853722
-0.4  -1  0.000139677353604
-0.4  -0.98  0.000170101188088
-0.4  -0.96  0.00020715179263
-0.4  -0.94  0.000252272577706
-0.4  -0.92  0.000307221350366
-0.4  -0.9  0.000374138794548
-0.4  -0.88  0.000455631867444
-0.4  -0.86  0.000554875360844
-0.4  -0.84  0.000675735584078
-0.4  -0.82  0.000822920986967
-0.4  -0.8  0.00100216559072
-0.4  -0.78  0.00122045237287
-0.4  -0.76  0.00148628530877
-0.4  -0.74  0.00181002066789
-0.4  -0.72  0.00220427047139
-0.4  -0.7  0.00268439382888
-0.4  -0.68  0.00326909529574
-0.4  -0.66  0.00398115356161
-0.4  -0.64  0.00484830885835
-0.4  -0.62  0.00590434365873
-0.4  -0.6  0.00719039876768
-0.4  -0.58  0.00875657607799
-0.4  -0.56  0.0106638904304
-0.4  -0.54  0.0129866466184
-0.4  -0.52  0.0158153341402
-0.4  -0.5  0.0192601524717
-0.4  -0.48  0.0234553041967
-0.4  -0.46  0.0285642232465
-0.4  -0.44  0.0347859419272
-0.4  -0.42  0.042362844784
-0.4  -0.4  0.0515901113717
-0.4  -0.38  0.0628272158046
-0.4  -0.36  0.0765119310815
-0.4  -0.34  0.0931773837635
-0.4  -0.32  0.113472823418
-0.4  -0.3  0.138188915963
-0.4  -0.28  0.168288546277
-0.4  -0.26  0.204944330091
-0.4  -0.24  0.249584296529
-0.4  -0.22  0.303947520999
-0.4  -0.2  0.0289195401903
-0.4  -0.18  0.044083148455
-0.4  -0.16  0.115909226904
-0.4  -0.14  0.184641606673
-0.4  -0.12  0.248445772267
-0.4  -0.1  0.305618745692
-0.4  -0.08  0.354634540129
-0.4  -0.06  0.394184889595
-0.4  -0.04  0.423214167482
-0.4  -0.02  0.440947561975
-0.4  6.17561557e-16  0.446911756318
-0.4  0.02  0.440947561975
-0.4  0.04  0.423214167482
-0.4  0.06  0.394184889595
-0.4  0.08  0.354634540129
-0.4  0.1  0.305618745692
-0.4  0.12  0.248445772267
-0.4  0.14  0.184641606673
-0.4  0.16  0.115909226904
-0.4  0.18  0.044083148455
-0.4  0.2  0.370151875763
-0.4  0.22  0.303947520999
-0.4  0.24  0.249584296529
-0.4  0.26  0.204944330091
-0.4  0.28  0.168288546277
-0.4  0.3  0.138188915963
-0.4  0.32  0.113472823418
-0.4  0.34  0.0931773837635
-0.4  0.36  0.0765119310815
-0.4  0.38  0.0628272158046
-0.4  0.4  0.0515901113717
-0.4  0.42  0.042362844784
-0.4  0.44  0.0347859419272
-0.4  0.46  0.0285642232465
-0.4  0.48  0.0234553041967
-0.4  0.5  0.0192601524717
-0.4  0.52  0.0158153341402
-0.4  0.54  0.0129866466184
-0.4  0.56  0.0106638904304
-0.4  0.58  0.00875657607799
-0.4  0.6  0.00719039876768
-0.4  0.62  0.00590434365873
-0.4  0.64  0.00484830885835
-0.4  0.66  0.00398115356161
-0.4  0.68  0.00326909529574
-0.4  0.7  0.00268439382888
-0.4  0.72  0.00220427047139
-0.4  0.74  0.00181002066789
-0.4  0.76  0.00148628530877
-0.4  0.78  0.00122045237287
-0.4  0.8  0.00100216559072
-0.4  0.82  0.000822920986967
-0.4  0.84  0.000675735584078
-0.4  0.86  0.000554875360844
-0.4  0.88  0.000455631867444
-0.4  0.9  0.000374138794548
-0.4  0.92  0.000307221350366
-0.4  0.94  0.000252272577706
-0.4  0.96  0.00020715179263
-0.4  0.98  0.000170101188088
-0.38  -1  0.000173541287341
-0.38  -0.98  0.000211341197391
-0.38  -0.96  0.000257374498016
-0.38  -0.94  0.000313434545875
-0.38  -0.92  0.000381705317758
-0.38  -0.9  0.000464846493542
-0.38  -0.88  0.000566097071498
-0.38  -0.86  0.000689401552578
-0.38  -0.84  0.000839563609541
-0.38  -0.82  0.00102243322753
-0.38  -0.8  0.00124513460669
-0.38  -0.78  0.00151634370542
-0.38  -0.76  0.00184662623672
-0.38  -0.74  0.00224884928526
-0.38  -0.72  0.00273868258083
-0.38  -0.7  0.00333520895674
-0.38  -0.68  0.00406166777523
-0.38  -0.66  0.00494636028215
-0.38  -0.64  0.00602375216163
-0.38  -0.62  0.00733581624366
-0.38  -0.6  0.00893366767368
-0.38  -0.58  0.0108795552469
-0.38  -0.56  0.0132492864849
-0.38  -0.54  0.0161351809313
-0.38  -0.52  0.0196496667183
-0.38  -0.5  0.0239296605217
-0.38  -0.48  0.0291419015341
-0.38  -0.46  0.0354894472595
-0.38  -0.44  0.0432195841892
-0.38  -0.42  0.0526334615423
-0.38  -0.4  0.06409782338
-0.38  -0.38  0.0780592961525
-0.38  -0.36  0.0950617882871
-0.38  -0.34  0.115767679671
-0.38  -0.32  0.140983626523
-0.38  -0.3  0.171691986952
-0.38  -0.28  0.209089091482
-0.38  -0.26  0.25463184947
-0.38  -0.24  0.310094507106
-0.38  -0.22  0.377637768165
-0.38  -0.2  0.035930908658
-0.38  -0.18  0.0547708424846
-0.38  -0.16  0.14401072137
-0.38  -0.14  0.22940685295
-0.38  -0.12  0.308679954489
-0.38  -0.1  0.379714171227
-0.38  -0.08  0.440613550024
-0.38  -0.06  0.489752643686
-0.38  -0.04  0.525819895285
-0.38  -0.02  0.547852644545
-0.38  6.17561557e-16  0.555262821911
-0.38  0.02  0.547852644545
-0.38  0.04  0.525819895285
-0.38  0.06  0.489752643686
-0.38  0.08  0.440613550024
-0.38  0.1  0.379714171227
-0.38  0.12  0.308679954489
-0.38  0.14  0.22940685295
-0.38  0.16  0.14401072137
-0.38  0.18  0.0547708424846
-0.38  0.2  0.459892970292
-0.38  0.22  0.377637768165
-0.38  0.24  0.310094507106
-0.38  0.26  0.25463184947
-0.38  0.28  0.209089091482
-0.38  0.3  0.171691986952
-0.38  0.32  0.140983626523
-0.38  0.34  0.115767679671
-0.38  0.36  0.0950617882871
-0.38  0.38  0.0780592961525
-0.38  0.4  0.06409782338
-0.38  0.42  0.0526334615422
-0.38  0.44  0.0432195841892
-0.38  0.46  0.0354894472595
-0.38  0.48  0.0291419015341
-0.38  0.5  0.0239296605217
-0.38  0.52  0.0196496667183
-0.38  0.54  0.0161351809313
-0.38  0.56  0.0132492864849
-0.38  0.58  0.0108795552469
-0.38  0.6  0.00893366767368
-0.38  0.62  0.00733581624365
-0.38  0.64  0.00602375216163
-0.38  0.66  0.00494636028215
-0.38  0.68  0.00406166777523
-0.38  0.7  0.00333520895674
-0.38  0.72  0.00273868258083
-0.38  0.74  0.00224884928526
-0.38  0.76  0.00184662623672
-0.38  0.78  0.00151634370542
-0.38  0.8  0.00124513460669
-0.38  0.82  0.00102243322753
-0.38  0.84  0.000839563609541
-0.38  0.86  0.000689401552578
-0.38  0.88  0.000566097071498
-0.38  0.9  0.000464846493542
-0.38  0.92  0.000381705317758
-0.38  0.94  0.000313434545875
-0.38  0.96  0.000257374498016
-0.38  0.98  0.000211341197391
-0.36  -1  0.000215615328004
-0.36  -0.98  0.000262579598747
-0.36  -0.96  0.000319773396058
-0.36  -0.94  0.000389424865125
-0.36  -0.92  0.000474247474765
-0.36  -0.9  0.000577545728234
-0.36  -0.88  0.000703343899442
-0.36  -0.86  0.000856542809856
-0.36  -0.84  0.00104311075378
-0.36  -0.82  0.00127031601006
-0.36  -0.8  0.00154700999827
-0.36  -0.78  0.00188397211072
-0.36  -0.76  0.00229432965394
-0.36  -0.74  0.00279406925983
-0.36  -0.72  0.00340265968987
-0.36  -0.7  0.00414381029544
-0.36  -0.68  0.00504639468229
-0.36  -0.66  0.00614557556302
-0.36  -0.64  0.00748417461943
-0.36  -0.62  0.00911434074151
-0.36  -0.6  0.0110995816341
-0.36  -0.58  0.0135172379382
-0.36  -0.56  0.0164614962527
-0.36  -0.54  0.0200470584389
-0.36  -0.52  0.0244136101532
-0.36  -0.5  0.0297312626952
-0.36  -0.48  0.0362071801713
-0.36  -0.46  0.0440936501553
-0.36  -0.44  0.05369791226
-0.36  -0.42  0.0653941275201
-0.36  -0.4  0.0796379548875
-0.36  -0.38  0.0969843027068
-0.36  -0.36  0.118108946731
-0.36  -0.34  0.143834856863
-0.36  -0.32  0.175164258267
-0.36  -0.3  0.213317675865
-0.36  -0.28  0.259781483314
-0.36  -0.26  0.316365808878
-0.36  -0.24  0.385275054058
-0.36  -0.22  0.469193772253
-0.36  -0.2  0.0446421412129
-0.36  -0.18  0.0680497036081
-0.36  -0.16  0.178925254042
-0.36  -0.14  0.285025163769
-0.36  -0.12  0.383517551673
-0.36  -0.1  0.471773586742
-0.36  -0.08  0.547437653407
-0.36  -0.06  0.608490224584
-0.36  -0.04  0.653301764264
-0.36  -0.02  0.680676220978
-0.36  6.17561557e-16  0.689882951249
-0.36  0.02  0.680676220978
-0.36  0.04  0.653301764264
-0.36  0.06  0.608490224584
-0.36  0.08  0.547437653407
-0.36  0.1  0.471773586742
-0.36  0.12  0.383517551673
-0.36  0.14  0.285025163769
-0.36  0.16  0.178925254042
-0.36  0.18  0.0680497036082
-0.36  0.2  0.571391253086
-0.36  0.22  0.469193772253
-0.36  0.24  0.385275054058
-0.36  0.26  0.316365808878
-0.36  0.28  0.259781483314
-0.36  0.3  0.213317675865
-0.36  0.32  0.175164258267
-0.36  0.34  0.143834856863
-0.36  0.36  0.11810894673
-0.36  0.38  0.0969843027068
-0.36  0.4  0.0796379548874
-0.36  0.42  0.0653941275201
-0.36  0.44  0.05369791226
-0.36  0.46  0.0440936501553
-0.36  0.48  0.0362071801713
-0.36  0.5  0.0297312626951
-0.36  0.52  0.0244136101532
-0.36  0.54  0.0200470584389
-0.36  0.56  0.0164614962527
-0.36  0.58  0.0135172379382
-0.36  0.6  0.0110995816341
-0.36  0.62  0.00911434074151
-0.36  0.64  0.00748417461943
-0.36  0.66  0.00614557556302
-0.36  0.68  0.00504639468229
-0.36  0.7  0.00414381029544
-0.36  0.72  0.00340265968987
-0.36  0.74  0.00279406925983
-0.36  0.76  0.00229432965394
-0.36  0.78  0.00188397211072
-0.36  0.8  0.00154700999827
-0.36  0.82  0.00127031601006
-0.36  0.84  0.00104311075378
-0.36  0.86  0.000856542809856
-0.36  0.88  0.000703343899442
-0.36  0.9  0.000577545728234
-0.36  0.92  0.000474247474765
-0.36  0.94  0.000389424865125
-0.36  0.96  0.000319773396058
-0.36  0.98  0.000262579598747
-0.34  -1  0.000267889966603
-0.34  -0.98  0.000326240442134
-0.34  -0.96  0.000397300531385
-0.34  -0.94  0.000483838579931
-0.34  -0.92  0.000589225920776
-0.34  -0.9  0.000717568214101
-0.34  -0.88  0.000873865394805
-0.34  -0.86  0.00106420645903
-0.34  -0.84  0.0012960066781
-0.34  -0.82  0.00157829648133
-0.34  -0.8  0.00192207326171
-0.34  -0.78  0.00234072981033
-0.34  -0.76  0.00285057607017
-0.34  -0.74  0.00347147453584
-0.34  -0.72  0.00422761405286
-0.34  -0.7  0.00514845216216
-0.34  -0.68  0.00626986270142
-0.34  -0.66  0.0076355333713
-0.34  -0.64  0.0092986677126
-0.34  -0.62  0.0113240577999
-0.34  -0.6  0.0137906083988
-0.34  -0.58  0.0167944109231
-0.34  -0.56  0.0204524869461
-0.34  -0.54  0.0249073471047
-0.34  -0.52  0.0303325430022
-0.34  -0.5  0.0369394283988
-0.34  -0.48  0.0449853930919
-0.34  -0.46  0.054783890259
-0.34  -0.44  0.066716647908
-0.34  -0.42  0.0812485401645
-0.34  -0.4  0.098945697751
-0.34  -0.38  0.120497563201
-0.34  -0.36  0.14674375003
-0.34  -0.34  0.178706752243
-0.34  -0.32  0.217631778463
-0.34  -0.3  0.265035262531
-0.34  -0.28  0.322763940456
-0.34  -0.26  0.393066795202
-0.34  -0.24  0.478682672147
-0.34  -0.22  0.582946978506
-0.34  -0.2  0.0554653596724
-0.34  -0.18  0.0845479446926
-0.34  -0.16  0.222304605028
-0.34  -0.14  0.354127799308
-0.34  -0.12  0.476499073886
-0.34  -0.1  0.58615225349
-0.34  -0.08  0.680160617736
-0.34  -0.06  0.756015017352
-0.34  -0.04  0.811690845131
-0.34  -0.02  0.845702074123
-0.34  6.17561557e-16  0.857140920737
-0.34  0.02  0.845702074123
-0.34  0.04  0.811690845131
-0.34  0.06  0.756015017352
-0.34  0.08  0.680160617736
-0.34  0.1  0.58615225349
-0.34  0.12  0.476499073886
-0.34  0.14  0.354127799308
-0.34  0.16  0.222304605028
-0.34  0.18  0.0845479446926
-0.34  0.2  0.709921623494
-0.34  0.22  0.582946978506
-0.34  0.24  0.478682672147
-0.34  0.26  0.393066795202
-0.34  0.28  0.322763940456
-0.34  0.3  0.265035262531
-0.34  0.32  0.217631778463
-0.34  0.34  0.178706752243
-0.34  0.36  0.14674375003
-0.34  0.38  0.120497563201
-0.34  0.4  0.098945697751
-0.34  0.42  0.0812485401645
-0.34  0.44  0.066716647908
-0.34  0.46  0.054783890259
-0.34  0.48  0.0449853930919
-0.34  0.5  0.0369394283988
-0.34  0.52  0.0303325430022
-0.34  0.54  0.0249073471047
-0.34  0.56  0.0204524869461
-0.34  0.58  0.0167944109231
-0.34  0.6  0.0137906083988
-0.34  0.62  0.0113240577999
-0.34  0.64  0.0092986677126
-0.34  0.66  0.0076355333713
-0.34  0.68  0.00626986270142
-0.34  0.7  0.00514845216216
-0.34  0.72  0.00422761405286
-0.34  0.74  0.00347147453584
-0.34  0.76  0.00285057607017
-0.34  0.78  0.00234072981033
-0.34  0.8  0.00192207326171
-0.34  0.82  0.00157829648133
-0.34  0.84  0.0012960066781
-0.34  0.86  0.00106420645903
-0.34  0.88  0.000873865394805
-0.34  0.9  0.000717568214101
-0.34  0.92  0.000589225920776
-0.34  0.94  0.000483838579931
-0.34  0.96  0.000397300531384
-0.34  0.98  0.000326240442134
-0.32  -1  0.000332838276717
-0.32  -0.98  0.00040533547386
-0.32  -0.96  0.000493623654076
-0.32  -0.94  0.000601142331666
-0.32  -0.92  0.000732080199028
-0.32  -0.9  0.000891538308945
-0.32  -0.88  0.00108572880044
-0.32  -0.86  0.00132221691012
-0.32  -0.84  0.00161021569723
-0.32  -0.82  0.00196094496429
-0.32  -0.8  0.00238806835607
-0.32  -0.78  0.00290822566522
-0.32  -0.76  0.00354168108227
-0.32  -0.74  0.00431311264408
-0.32  -0.72  0.00525257363619
-0.32  -0.7  0.00639666340305
-0.32  -0.68  0.00778995317838
-0.32  -0.66  0.00948672248291
-0.32  -0.64  0.0115530737357
-0.32  -0.62  0.0140695074599
-0.32  -0.6  0.0171340584067
-0.32  -0.58  0.0208661147747
-0.32  -0.56  0.0254110693135
-0.32  -0.54  0.0309459835061
-0.32  -0.52  0.0376864854974
-0.32  -0.5  0.0458951704951
-0.32  -0.48  0.0558918309036
-0.32  -0.46  0.0680659147369
-0.32  -0.44  0.0828916976609
-0.32  -0.42  0.100946759735
-0.32  -0.4  0.122934486669
-0.32  -0.38  0.149711472187
-0.32  -0.36  0.182320889051
-0.32  -0.34  0.222033128783
-0.32  -0.32  0.27039529334
-0.32  -0.3  0.329291466825
-0.32  -0.28  0.401016115273
-0.32  -0.26  0.488363474036
-0.32  -0.24  0.59473640507
-0.32  -0.22  0.724278964994
-0.32  -0.2  0.0689126023082
-0.32  -0.18  0.105046085034
-0.32  -0.16  0.276201018582
-0.32  -0.14  0.439983952941
-0.32  -0.12  0.592023406553
-0.32  -0.1  0.728261339607
-0.32  -0.08  0.845061465978
-0.32  -0.06  0.939306308252
-0.32  -0.04  1.00848040539
-0.32  -0.02  1.05073745216
-0.32  6.17561557e-16  1.06494957829
-0.32  0.02  1.05073745216
-0.32  0.04  1.00848040539
-0.32  0.06  0.939306308252
-0.32  0.08  0.845061465978
-0.32  0.1  0.728261339607
-0.32  0.12  0.592023406553
-0.32  0.14  0.439983952941
-0.32  0.16  0.276201018582
-0.32  0.18  0.105046085034
-0.32  0.2  0.882037848465
-0.32  0.22  0.724278964993
-0.32  0.24  0.59473640507
-0.32  0.26  0.488363474036
-0.32  0.28  0.401016115273
-0.32  0.3  0.329291466824
-0.32  0.32  0.27039529334
-0.32  0.34  0.222033128783
-0.32  0.36  0.182320889051
-0.32  0.38  0.149711472187
-0.32  0.4  0.122934486669
-0.32  0.42  0.100946759735
-0.32  0.44  0.0828916976609
-0.32  0.46  0.0680659147369
-0.32  0.48  0.0558918309036
-0.32  0.5  0.0458951704951
-0.32  0.52  0.0376864854974
-0.32  0.54  0.030945983506
-0.32  0.56  0.0254110693135
-0.32  0.58  0.0208661147747
-0.32  0.6  0.0171340584067
-0.32  0.62  0.0140695074599
-0.32  0.64  0.0115530737357
-0.32  0.66  0.00948672248291
-0.32  0.68  0.00778995317838
-0.32  0.7  0.00639666340305
-0.32  0.72  0.00525257363619
-0.32  0.74  0.00431311264408
-0.32  0.76  0.00354168108227
-0.32  0.78  0.00290822566522
-0.32  0.8  0.00238806835607
-0.32  0.82  0.00196094496429
-0.32  0.84  0.00161021569723
-0.32  0.86  0.00132221691012
-0.32  0.88  0.00108572880044
-0.32  0.9  0.000891538308945
-0.32  0.92  0.000732080199028
-0.32  0.94  0.000601142331666
-0.32  0.96  0.000493623654076
-0.32  0.98  0.00040533547386
-0.3  -1  0.000413532913729
-0.3  -0.98  0.000503606619997
-0.3  -0.96  0.000613299738146
-0.3  -0.94  0.000746885672019
-0.3  -0.92  0.000909568637277
-0.3  -0.9  0.00110768640625
-0.3  -0.88  0.00134895721368
-0.3  -0.86  0.00164278044225
-0.3  -0.84  0.00200060280198
-0.3  -0.82  0.00243636426899
-0.3  -0.8  0.00296704115647
-0.3  -0.78  0.00361330747467
-0.3  -0.76  0.00440034034515
-0.3  -0.74  0.00535880084628
-0.3  -0.72  0.00652602850181
-0.3  -0.7  0.00794749594697
-0.3  -0.68  0.00967858044285
-0.3  -0.66  0.0117867212533
-0.3  -0.64  0.0143540469311
-0.3  -0.62  0.0174805748666
-0.3  -0.6  0.0212881077465
-0.3  -0.58  0.0259249787197
-0.3  -0.56  0.0315718301327
-0.3  -0.54  0.0384486509595
-0.3  -0.52  0.0468233470912
-0.3  -0.5  0.0570221783628
-0.3  -0.48  0.0694424689227
-0.3  -0.46  0.084568086112
-0.3  -0.44  0.102988290877
-0.3  -0.42  0.125420694088
-0.3  -0.4  0.152739213084
-0.3  -0.38  0.186008117585
-0.3  -0.36  0.226523491308
-0.3  -0.34  0.275863724555
-0.3  -0.32  0.335951004843
-0.3  -0.3  0.409126201124
-0.3  -0.28  0.498240058917
-0.3  -0.26  0.606764259114
-0.3  -0.24  0.738926667074
-0.3  -0.22  0.899876041002
-0.3  -0.2  0.0856200479892
-0.3  -0.18  0.130513876133
-0.3  -0.16  0.343164293229
-0.3  -0.14  0.5466554143
-0.3  -0.12  0.735555918394
-0.3  -0.1  0.904823918373
-0.3  -0.08  1.04994153242
-0.3  -0.06  1.1670354695
-0.3  -0.04  1.25298041017
-0.3  -0.02  1.3054824236
-0.3  6.17561557e-16  1.32314019418
-0.3  0.02  1.3054824236
-0.3  0.04  1.25298041017
-0.3  0.06  1.1670354695
-0.3  0.08  1.04994153242
-0.3  0.1  0.904823918373
-0.3  0.12  0.735555918394
-0.3  0.14  0.5466554143
-0.3  0.16  0.343164293229
-0.3  0.18  0.130513876133
-0.3  0.2  1.0958826163
-0.3  0.22  0.899876041002
-0.3  0.24  0.738926667074
-0.3  0.26  0.606764259114
-0.3  0.28  0.498240058916
-0.3  0.3  0.409126201124
-0.3  0.32  0.335951004843
-0.3  0.34  0.275863724555
-0.3  0.36  0.226523491308
-0.3  0.38  0.186008117584
-0.3  0.4  0.152739213084
-0.3  0.42  0.125420694088
-0.3  0.44  0.102988290877
-0.3  0.46  0.084568086112
-0.3  0.48  0.0694424689226
-0.3  0.5  0.0570221783627
-0.3  0.52  0.0468233470912
-0.3  0.54  0.0384486509595
-0.3  0.56  0.0315718301327
-0.3  0.58  0.0259249787197
-0.3  0.6  0.0212881077465
-0.3  0.62  0.0174805748666
-0.3  0.64  0.0143540469311
-0.3  0.66  0.0117867212533
-0.3  0.68  0.00967858044285
-0.3  0.7  0.00794749594697
-0.3  0.72  0.00652602850181
-0.3  0.74  0.00535880084628
-0.3  0.76  0.00440034034515
-0.3  0.78  0.00361330747467
-0.3  0.8  0.00296704115647
-0.3  0.82  0.00243636426899
-0.3  0.84  0.00200060280198
-0.3  0.86  0.00164278044225
-0.3  0.88  0.00134895721368
-0.3  0.9  0.00110768640625
-0.3  0.92  0.000909568637277
-0.3  0.94  0.000746885672019
-0.3  0.96  0.000613299738146
-0.3  0.98  0.000503606619997
-0.28  -1  0.000513791479826
-0.28  -0.98  0.000625703014072
-0.28  -0.96  0.000761990568531
-0.28  -0.94  0.000927963608089
-0.28  -0.92  0.00113008807917
-0.28  -0.9  0.00137623830886
-0.28  -0.88  0.00167600377147
-0.28  -0.86  0.00204106267344
-0.28  -0.84  0.00248563691075
-0.28  -0.82  0.00302704612282
-0.28  -0.8  0.0036863824278
-0.28  -0.78  0.00448933212531
-0.28  -0.76  0.0054671763785
-0.28  -0.74  0.00665800985966
-0.28  -0.72  0.00810822483535
-0.28  -0.7  0.00987431850752
-0.28  -0.68  0.0120250940209
-0.28  -0.66  0.0146443408831
-0.28  -0.64  0.0178340992201
-0.28  -0.62  0.0217186350366
-0.28  -0.6  0.0264492813477
-0.28  -0.58  0.0322103337815
-0.28  -0.56  0.0392262303341
-0.28  -0.54  0.0477702949825
-0.28  -0.52  0.0581753857884
-0.28  -0.5  0.0708468623203
-0.28  -0.48  0.0862783775753
-0.28  -0.46  0.105071109619
-0.28  -0.44  0.127957182168
-0.28  -0.42  0.155828186528
-0.28  -0.4  0.189769916039
-0.28  -0.38  0.231104666208
-0.28  -0.36  0.28144274845
-0.28  -0.34  0.342745224295
-0.28  -0.32  0.417400304056
-0.28  -0.3  0.508316386271
-0.28  -0.28  0.619035362556
-0.28  -0.26  0.753870601941
-0.28  -0.24  0.918074990296
-0.28  -0.22  1.11804557126
-0.28  -0.2  0.106378113322
-0.28  -0.18  0.162156179907
-0.28  -0.16  0.426362410797
-0.28  -0.14  0.679188729466
-0.28  -0.12  0.913887023885
-0.28  -0.1  1.12419303172
-0.28  -0.08  1.30449353792
-0.28  -0.06  1.44997619531
-0.28  -0.04  1.55675796958
-0.28  -0.02  1.62198878019
-0.28  6.17561557e-16  1.64392757097
-0.28  0.02  1.62198878019
-0.28  0.04  1.55675796958
-0.28  0.06  1.44997619531
-0.28  0.08  1.30449353792
-0.28  0.1  1.12419303172
-0.28  0.12  0.913887023885
-0.28  0.14  0.679188729466
-0.28  0.16  0.426362410797
-0.28  0.18  0.162156179907
-0.28  0.2  1.36157276109
-0.28  0.22  1.11804557126
-0.28  0.24  0.918074990295
-0.28  0.26  0.753870601941
-0.28  0.28  0.619035362556
-0.28  0.3  0.508316386271
-0.28  0.32  0.417400304055
-0.28  0.34  0.342745224295
-0.28  0.36  0.28144274845
-0.28  0.38  0.231104666208
-0.28  0.4  0.189769916039
-0.28  0.42  0.155828186528
-0.28  0.44  0.127957182168
-0.28  0.46  0.105071109619
-0.28  0.48  0.0862783775753
-0.28  0.5  0.0708468623203
-0.28  0.52  0.0581753857884
-0.28  0.54  0.0477702949825
-0.28  0.56  0.0392262303341
-0.28  0.58  0.0322103337815
-0.28  0.6  0.0264492813477
-0.28  0.62  0.0217186350366
-0.28  0.64  0.0178340992201
-0.28  0.66  0.0146443408831
-0.28  0.68  0.0120250940209
-0.28  0.7  0.00987431850752
-0.28  0.72  0.00810822483535
-0.28  0.74  0.00665800985966
-0.28  0.76  0.0054671763785
-0.28  0.78  0.00448933212531
-0.28  0.8  0.0036863824278
-0.28  0.82  0.00302704612282
-0.28  0.84  0.00248563691075
-0.28  0.86  0.00204106267344
-0.28  0.88  0.00167600377147
-0.28  0.9  0.00137623830886
-0.28  0.92  0.00113008807917
-0.28  0.94  0.000927963608088
-0.28  0.96  0.000761990568531
-0.28  0.98  0.000625703014072
-0.26  -1  0.000638357131869
-0.26  -0.98  0.000777400944057
-0.26  -0.96  0.000946730595851
-0.26  -0.94  0.00115294279995
-0.26  -0.92  0.00140407113256
-0.26  -0.9  0.00170989900399
-0.26  -0.88  0.00208234079888
-0.26  -0.86  0.00253590603454
-0.26  -0.84  0.00308826462002
-0.26  -0.82  0.0037609352371
-0.26  -0.8  0.00458012366102
-0.26  -0.78  0.00557774368017
-0.26  -0.76  0.00679266038741
-0.26  -0.74  0.00827220427908
-0.26  -0.72  0.0100740151475
-0.26  -0.7  0.0122682876013
-0.26  -0.68  0.0149405056936
-0.26  -0.66  0.0181947731936
-0.26  -0.64  0.022157869242
-0.26  -0.62  0.0269841873883
-0.26  -0.6  0.0328617504261
-0.26  -0.58  0.0400195353498
-0.26  -0.56  0.0487363937966
-0.26  -0.54  0.0593519154967
-0.26  -0.52  0.0722796579457
-0.26  -0.5  0.0880232576999
-0.26  -0.48  0.107196050954
-0.26  -0.46  0.130544967778
-0.26  -0.44  0.158979630878
-0.26  -0.42  0.193607792504
-0.26  -0.4  0.235778490057
-0.26  -0.38  0.287134601633
-0.26  -0.36  0.349676848956
-0.26  -0.34  0.425841741123
-0.26  -0.32  0.518596495661
-0.26  -0.3  0.631554634834
-0.26  -0.28  0.76911676056
-0.26  -0.26  0.936641992232
-0.26  -0.24  1.14065674628
-0.26  -0.22  1.38910899109
-0.26  -0.2  0.132168846663
-0.26  -0.18  0.201469969793
-0.26  -0.16  0.529731411244
-0.26  -0.14  0.843853949246
-0.26  -0.12  1.13545343262
-0.26  -0.1  1.39674686634
-0.26  -0.08  1.62076014512
-0.26  -0.06  1.80151419721
-0.26  -0.04  1.93418457
-0.26  -0.02  2.01523019805
-0.26  6.17561557e-16  2.04248791662
-0.26  0.02  2.01523019805
-0.26  0.04  1.93418457
-0.26  0.06  1.80151419721
-0.26  0.08  1.62076014512
-0.26  0.1  1.39674686634
-0.26  0.12  1.13545343262
-0.26  0.14  0.843853949246
-0.26  0.16  0.529731411244
-0.26  0.18  0.201469969793
-0.26  0.2  1.69167788242
-0.26  0.22  1.38910899109
-0.26  0.24  1.14065674628
-0.26  0.26  0.936641992232
-0.26  0.28  0.76911676056
-0.26  0.3  0.631554634834
-0.26  0.32  0.518596495661
-0.26  0.34  0.425841741123
-0.26  0.36  0.349676848956
-0.26  0.38  0.287134601633
-0.26  0.4  0.235778490057
-0.26  0.42  0.193607792504
-0.26  0.44  0.158979630878
-0.26  0.46  0.130544967778
-0.26  0.48  0.107196050954
-0.26  0.5  0.0880232576999
-0.26  0.52  0.0722796579457
-0.26  0.54  0.0593519154967
-0.26  0.56  0.0487363937966
-0.26  0.58  0.0400195353498
-0.26  0.6  0.0328617504261
-0.26  0.62  0.0269841873882
-0.26  0.64  0.022157869242
-0.26  0.66  0.0181947731936
-0.26  0.68  0.0149405056936
-0.26  0.7  0.0122682876013
-0.26  0.72  0.0100740151475
-0.26  0.74  0.00827220427908
-0.26  0.76  0.00679266038741
-0.26  0.78  0.00557774368017
-0.26  0.8  0.00458012366102
-0.26  0.82  0.0037609352371
-0.26  0.84  0.00308826462002
-0.26  0.86  0.00253590603453
-0.26  0.88  0.00208234079888
-0.26  0.9  0.00170989900399
-0.26  0.92  0.00140407113256
-0.26  0.94  0.00115294279995
-0.26  0.96  0.000946730595851
-0.26  0.98  0.000777400944057
-0.24  -1  0.000793122976555
-0.24  -0.98  0.000965877124176
-0.24  -0.96  0.00117625973094
-0.24  -0.94  0.00143246684284
-0.24  -0.92  0.00174447972828
-0.24  -0.9  0.00212445372653
-0.24  -0.88  0.00258719179305
-0.24  -0.86  0.00315072119032
-0.24  -0.84  0.0038369957905
-0.24  -0.82  0.00467275135024
-0.24  -0.8  0.00569054707728
-0.24  -0.78  0.00693003406592
-0.24  -0.76  0.00843950001689
-0.24  -0.74  0.0102777504205
-0.24  -0.72  0.0125163994899
-0.24  -0.7  0.0152426600939
-0.24  -0.68  0.01856274138
-0.24  -0.66  0.0226059864497
-0.24  -0.64  0.0275299112831
-0.24  -0.62  0.0335263412169
-0.24  -0.6  0.0408288840394
-0.24  -0.58  0.0497220308389
-0.24  -0.56  0.0605522391539
-0.24  -0.54  0.073741430201
-0.24  -0.52  0.0898034260015
-0.24  -0.5  0.109363966764
-0.24  -0.48  0.133185088352
-0.24  -0.46  0.162194809535
-0.24  -0.44  0.19752328557
-0.24  -0.42  0.240546836573
-0.24  -0.4  0.292941565945
-0.24  -0.38  0.356748657687
-0.24  -0.36  0.434453896465
-0.24  -0.34  0.529084508341
-0.24  -0.32  0.644327094875
-0.24  -0.3  0.784671255055
-0.24  -0.28  0.955584490249
-0.24  -0.26  1.16372520609
-0.24  -0.24  1.41720210941
-0.24  -0.22  1.72589010566
-0.24  -0.2  0.164212388082
-0.24  -0.18  0.250315151428
-0.24  -0.16  0.658161603725
-0.24  -0.14  1.04844126053
-0.24  -0.12  1.41073728366
-0.24  -0.1  1.7353797378
-0.24  -0.08  2.01370368781
-0.24  -0.06  2.23828047196
-0.24  -0.04  2.40311597816
-0.24  -0.02  2.50381063096
-0.24  6.17561557e-16  2.53767681934
-0.24  0.02  2.50381063096
-0.24  0.04  2.40311597816
-0.24  0.06  2.23828047196
-0.24  0.08  2.01370368781
-0.24  0.1  1.7353797378
-0.24  0.12  1.41073728366
-0.24  0.14  1.04844126053
-0.24  0.16  0.658161603725
-0.24  0.18  0.250315151428
-0.24  0.2  2.1018150037
-0.24  0.22  1.72589010566
-0.24  0.24  1.41720210941
-0.24  0.26  1.16372520609
-0.24  0.28  0.955584490249
-0.24  0.3  0.784671255055
-0.24  0.32  0.644327094875
-0.24  0.34  0.529084508341
-0.24  0.36  0.434453896465
-0.24  0.38  0.356748657687
-0.24  0.4  0.292941565945
-0.24  0.42  0.240546836573
-0.24  0.44  0.19752328557
-0.24  0.46  0.162194809535
-0.24  0.48  0.133185088352
-0.24  0.5  0.109363966764
-0.24  0.52  0.0898034260015
-0.24  0.54  0.0737414302009
-0.24  0.56  0.0605522391539
-0.24  0.58  0.0497220308389
-0.24  0.6  0.0408288840394
-0.24  0.62  0.0335263412169
-0.24  0.64  0.0275299112831
-0.24  0.66  0.0226059864497
-0.24  0.68  0.01856274138
-0.24  0.7  0.0152426600939
-0.24  0.72  0.0125163994899
-0.24  0.74  0.0102777504205
-0.24  0.76  0.00843950001689
-0.24  0.78  0.00693003406592
-0.24  0.8  0.00569054707728
-0.24  0.82  0.00467275135024
-0.24  0.84  0.0038369957905
-0.24  0.86  0.00315072119032
-0.24  0.88  0.00258719179305
-0.24  0.9  0.00212445372653
-0.24  0.92  0.00174447972828
-0.24  0.94  0.00143246684284
-0.24  0.96  0.00117625973094
-0.24  0.98  0.000965877124176
-0.22  -1  0.000985410868832
-0.22  -0.98  0.00120004821983
-0.22  -0.96  0.00146143682342
-0.22  -0.94  0.00177975980762
-0.22  -0.92  0.0021674183393
-0.22  -0.9  0.00263951474656
-0.22  -0.88  0.00321444087233
-0.22  -0.86  0.00391459458039
-0.22  -0.84  0.00476725232705
-0.22  -0.82  0.00580563179228
-0.22  -0.8  0.00707018596776
-0.22  -0.78  0.00861017911698
-0.22  -0.76  0.0104856060031
-0.22  -0.74  0.0127695291536
-0.22  -0.72  0.0155509252166
-0.22  -0.7  0.0189381512962
-0.22  -0.68  0.0230631663082
-0.22  -0.66  0.0280866718109
-0.22  -0.64  0.0342043725857
-0.22  -0.62  0.0416546008676
-0.22  -0.6  0.0507276012472
-0.22  -0.58  0.061776837965
-0.22  -0.56  0.0752327651047
-0.22  -0.54  0.0916195961423
-0.22  -0.52  0.111575726156
-0.22  -0.5  0.135878602301
-0.22  -0.48  0.165475011451
-0.22  -0.46  0.201517964942
-0.22  -0.44  0.245411617367
-0.22  -0.42  0.298865969376
-0.22  -0.4  0.363963485547
-0.22  -0.38  0.44324022266
-0.22  -0.36  0.539784628913
-0.22  -0.34  0.657357863107
-0.22  -0.32  0.800540321162
-0.22  -0.3  0.97491007832
-0.22  -0.28  1.18726019875
-0.22  -0.26  1.44586337846
-0.22  -0.24  1.76079423144
-0.22  -0.22  2.14432177456
-0.22  -0.2  0.204024693265
-0.22  -0.18  0.311002553376
-0.22  -0.16  0.81772892342
-0.22  -0.14  1.30262953413
-0.22  -0.12  1.7527620476
-0.22  -0.1  2.15611211089
-0.22  -0.08  2.50191402749
-0.22  -0.06  2.78093810136
-0.22  -0.04  2.98573698398
-0.22  -0.02  3.11084444931
-0.22  6.17561557e-16  3.15292129125
-0.22  0.02  3.11084444931
-0.22  0.04  2.98573698398
-0.22  0.06  2.78093810136
-0.22  0.08  2.50191402749
-0.22  0.1  2.15611211089
-0.22  0.12  1.7527620476
-0.22  0.14  1.30262953413
-0.22  0.16  0.81772892342
-0.22  0.18  0.311002553376
-0.22  0.2  2.61138740163
-0.22  0.22  2.14432177456
-0.22  0.24  1.76079423144
-0.22  0.26  1.44586337846
-0.22  0.28  1.18726019875
-0.22  0.3  0.97491007832
-0.22  0.32  0.800540321162
-0.22  0.34  0.657357863107
-0.22  0.36  0.539784628913
-0.22  0.38  0.44324022266
-0.22  0.4  0.363963485547
-0.22  0.42  0.298865969375
-0.22  0.44  0.245411617367
-0.22  0.46  0.201517964942
-0.22  0.48  0.165475011451
-0.22  0.5  0.135878602301
-0.22  0.52  0.111575726156
-0.22  0.54  0.0916195961423
-0.22  0.56  0.0752327651047
-0.22  0.58  0.061776837965
-0.22  0.6  0.0507276012472
-0.22  0.62  0.0416546008676
-0.22  0.64  0.0342043725857
-0.22  0.66  0.0280866718109
-0.22  0.68  0.0230631663082
-0.22  0.7  0.0189381512962
-0.22  0.72  0.0155509252166
-0.22  0.74  0.0127695291536
-0.22  0.76  0.0104856060031
-0.22  0.78  0.00861017911698
-0.22  0.8  0.00707018596776
-0.22  0.82  0.00580563179228
-0.22  0.84  0.00476725232705
-0.22  0.86  0.00391459458039
-0.22  0.88  0.00321444087233
-0.22  0.9  0.00263951474656
-0.22  0.92  0.0021674183393
-0.22  0.94  0.00177975980762
-0.22  0.96  0.00146143682342
-0.22  0.98  0.00120004821983
-0.2  -1  0.00122431780331
-0.2  -0.98  0.00149099268827
-0.2  -0.96  0.00181575338564
-0.2  -0.94  0.00221125186154
-0.2  -0.92  0.00269289587111
-0.2  -0.9  0.00327944921101
-0.2  -0.88  0.0039937627158
-0.2  -0.86  0.00486366447652
-0.2  -0.84  0.00592304396216
-0.2  -0.82  0.00721317227927
-0.2  -0.8  0.00878431000392
-0.2  -0.78  0.0106976652238
-0.2  -0.76  0.0130277780712
-0.2  -0.74  0.0158654246438
-0.2  -0.72  0.0193211534425
-0.2  -0.7  0.0235295920991
-0.2  -0.68  0.0286546921746
-0.2  -0.66  0.0348961163525
-0.2  -0.64  0.042497016861
-0.2  -0.62  0.0517535081508
-0.2  -0.6  0.0630262028668
-0.2  -0.58  0.0767542605274
-0.2  -0.56  0.093472496218
-0.2  -0.54  0.113832215817
-0.2  -0.52  0.138626589447
-0.2  -0.5  0.168821551648
-0.2  -0.48  0.205593432071
-0.2  -0.46  0.250374782711
-0.2  -0.44  0.304910186995
-0.2  -0.42  0.371324224934
-0.2  -0.4  0.452204242113
-0.2  -0.38  0.550701147015
-0.2  -0.36  0.670652163514
-0.2  -0.34  0.816730320726
-0.2  -0.32  0.994626503997
-0.2  -0.3  1.21127115934
-0.2  -0.28  1.47510428844
-0.2  -0.26  1.79640425268
-0.2  -0.24  2.18768819556
-0.2  -0.22  2.66419968325
-0.2  -0.2  0.25348925223
-0.2  -0.18  0.386403250682
-0.2  -0.16  1.01598237942
-0.2  -0.14  1.61844422483
-0.2  -0.12  2.17770865709
-0.2  -0.1  2.67884851567
-0.2  -0.08  3.10848802576
-0.2  -0.06  3.45515980703
-0.2  -0.04  3.70961094616
-0.2  -0.02  3.86504996352
-0.2  6.17561557e-16  3.91732808254
-0.2  0.02  3.86504996352
-0.2  0.04  3.70961094616
-0.2  0.06  3.45515980703
-0.2  0.08  3.10848802576
-0.2  0.1  2.67884851567
-0.2  0.12  2.17770865709
-0.2  0.14  1.61844422483
-0.2  0.16  1.01598237942
-0.2  0.18  0.386403250682
-0.2  0.2  3.24450256058
-0.2  0.22  2.66419968325
-0.2  0.24  2.18768819556
-0.2  0.26  1.79640425268
-0.2  0.28  1.47510428844
-0.2  0.3  1.21127115934
-0.2  0.32  0.994626503997
-0.2  0.34  0.816730320726
-0.2  0.36  0.670652163514
-0.2  0.38  0.550701147015
-0.2  0.4  0.452204242113
-0.2  0.42  0.371324224934
-0.2  0.44  0.304910186995
-0.2  0.46  0.250374782711
-0.2  0.48  0.205593432071
-0.2  0.5  0.168821551648
-0.2  0.52  0.138626589447
-0.2  0.54  0.113832215817
-0.2  0.56  0.093472496218
-0.2  0.58  0.0767542605274
-0.2  0.6  0.0630262028668
-0.2  0.62  0.0517535081508
-0.2  0.64  0.042497016861
-0.2  0.66  0.0348961163525
-0.2  0.68  0.0286546921746
-0.2  0.7  0.0235295920991
-0.2  0.72  0.0193211534425
-0.2  0.74  0.0158654246438
-0.2  0.76  0.0130277780712
-0.2  0.78  0.0106976652238
-0.2  0.8  0.00878431000392
-0.2  0.82  0.00721317227927
-0.2  0.84  0.00592304396216
-0.2  0.86  0.00486366447652
-0.2  0.88  0.0039937627158
-0.2  0.9  0.00327944921101
-0.2  0.92  0.00269289587111
-0.2  0.94  0.00221125186154
-0.2  0.96  0.00181575338564
-0.2  0.98  0.00149099268827
-0.18  -1  0.0015211462862
-0.18  -0.98  0.00185247489204
-0.18  -0.96  0.00225597186593
-0.18  -0.94  0.00274735656701
-0.18  -0.92  0.00334577226794
-0.18  -0.9  0.00407453193494
-0.18  -0.88  0.00496202644989
-0.18  -0.86  0.00604283065701
-0.18  -0.84  0.00735905032311
-0.18  -0.82  0.0089619624861
-0.18  -0.8  0.0109140130962
-0.18  -0.78  0.0132912497736
-0.18  -0.76  0.0161862844572
-0.18  -0.74  0.0197119013631
-0.18  -0.72  0.0240054508108
-0.18  -0.7  0.0292342000914
-0.18  -0.68  0.0356018498348
-0.18  -0.66  0.0433564697408
-0.18  -0.64  0.0528001628317
-0.18  -0.62  0.0643008347248
-0.18  -0.6  0.0783065264304
-0.18  -0.58  0.0953628690488
-0.18  -0.56  0.116134340364
-0.18  -0.54  0.141430151446
-0.18  -0.52  0.172235771738
-0.18  -0.5  0.209751320796
-0.18  -0.48  0.255438322318
-0.18  -0.46  0.311076641905
-0.18  -0.44  0.378833826738
-0.18  -0.42  0.461349548464
-0.18  -0.4  0.561838439035
-0.18  -0.38  0.684215325728
-0.18  -0.36  0.833247744256
-0.18  -0.34  1.01474167152
-0.18  -0.32  1.23576771376
-0.18  -0.3  1.50493656192
-0.18  -0.28  1.8327344453
-0.18  -0.26  2.23193165213
-0.18  -0.24  2.71808003203
-0.18  -0.22  3.31011886204
-0.18  -0.2  0.314946195814
-0.18  -0.18  0.480084393252
-0.18  -0.16  1.26230119265
-0.18  -0.14  2.01082628658
-0.18  -0.12  2.70568101452
-0.18  -0.1  3.32831921572
-0.18  -0.08  3.86212223925
-0.18  -0.06  4.29284250746
-0.18  -0.04  4.60898379386
-0.18  -0.02  4.80210806547
-0.18  6.17561557e-16  4.86706069981
-0.18  0.02  4.80210806547
-0.18  0.04  4.60898379386
-0.18  0.06  4.29284250746
-0.18  0.08  3.86212223925
-0.18  0.1  3.32831921572
-0.18  0.12  2.70568101452
-0.18  0.14  2.01082628658
-0.18  0.16  1.26230119265
-0.18  0.18  0.480084393252
-0.18  0.2  4.03111267945
-0.18  0.22  3.31011886204
-0.18  0.24  2.71808003203
-0.18  0.26  2.23193165213
-0.18  0.28  1.8327344453
-0.18  0.3  1.50493656192
-0.18  0.32  1.23576771376
-0.18  0.34  1.01474167152
-0.18  0.36  0.833247744255
-0.18  0.38  0.684215325728
-0.18  0.4  0.561838439035
-0.18  0.42  0.461349548464
-0.18  0.44  0.378833826738
-0.18  0.46  0.311076641905
-0.18  0.48  0.255438322318
-0.18  0.5  0.209751320796
-0.18  0.52  0.172235771738
-0.18  0.54  0.141430151446
-0.18  0.56  0.116134340364
-0.18  0.58  0.0953628690487
-0.18  0.6  0.0783065264304
-0.18  0.62  0.0643008347248
-0.18  0.64  0.0528001628317
-0.18  0.66  0.0433564697408
-0.18  0.68  0.0356018498348
-0.18  0.7  0.0292342000914
-0.18  0.72  0.0240054508108
-0.18  0.74  0.0197119013631
-0.18  0.76  0.0161862844572
-0.18  0.78  0.0132912497736
-0.18  0.8  0.0109140130962
-0.18  0.82  0.0089619624861
-0.18  0.84  0.0073590503231
-0.18  0.86  0.00604283065701
-0.18  0.88  0.00496202644989
-0.18  0.9  0.00407453193494
-0.18  0.92  0.00334577226794
-0.18  0.94  0.00274735656701
-0.18  0.96  0.00225597186593
-0.18  0.98  0.00185247489204
-0.16  -1  0.00188993904831
-0.16  -0.98  0.00230159628054
-0.16  -0.96  0.00280291866731
-0.16  -0.94  0.00341343663179
-0.16  -0.92  0.00415693461787
-0.16  -0.9  0.00506237768011
-0.16  -0.88  0.00616503989885
-0.16  -0.86  0.00750787858119
-0.16  -0.84  0.00914320778369
-0.16  -0.82  0.0111347363535
-0.16  -0.8  0.0135600498857
-0.16  -0.78  0.0165136332882
-0.16  -0.76  0.0201105517071
-0.16  -0.74  0.024490933213
-0.16  -0.72  0.0298254278837
-0.16  -0.7  0.0363218559582
-0.16  -0.68  0.0442333040584
-0.16  -0.66  0.0538679848897
-0.16  -0.64  0.0656012445339
-0.16  -0.62  0.079890185111
-0.16  -0.6  0.0972914724777
-0.16  -0.58  0.118483022711
-0.16  -0.56  0.144290412234
-0.16  -0.54  0.17571904047
-0.16  -0.52  0.213993297999
-0.16  -0.5  0.260604266141
-0.16  -0.48  0.317367806215
-0.16  -0.46  0.386495301529
-0.16  -0.44  0.470679808029
-0.16  -0.42  0.573200969869
-0.16  -0.4  0.698052787169
-0.16  -0.38  0.85009921352
-0.16  -0.36  1.03526364497
-0.16  -0.34  1.26075968258
-0.16  -0.32  1.53537215852
-0.16  -0.3  1.86979937393
-0.16  -0.28  2.2770698813
-0.16  -0.26  2.77305004837
-0.16  -0.24  3.3770621771
-0.16  -0.22  4.11263725828
-0.16  -0.2  0.391303005494
-0.16  -0.18  0.596477965021
-0.16  -0.16  1.56833851968
-0.16  -0.14  2.49833901766
-0.16  -0.12  3.36165709242
-0.16  -0.1  4.13525017817
-0.16  -0.08  4.79847053207
-0.16  -0.06  5.33361633703
-0.16  -0.04  5.72640417564
-0.16  -0.02  5.96635026458
-0.16  6.17561557e-16  6.04705027421
-0.16  0.02  5.96635026458
-0.16  0.04  5.72640417564
-0.16  0.06  5.33361633703
-0.16  0.08  4.79847053207
-0.16  0.1  4.13525017817
-0.16  0.12  3.36165709242
-0.16  0.14  2.49833901766
-0.16  0.16  1.56833851968
-0.16  0.18  0.596477965021
-0.16  0.2  5.00843168743
-0.16  0.22  4.11263725828
-0.16  0.24  3.3770621771
-0.16  0.26  2.77305004837
-0.16  0.28  2.2770698813
-0.16  0.3  1.86979937393
-0.16  0.32  1.53537215852
-0.16  0.34  1.26075968258
-0.16  0.36  1.03526364497
-0.16  0.38  0.850099213519
-0.16  0.4  0.698052787169
-0.16  0.42  0.573200969869
-0.16  0.44  0.470679808029
-0.16  0.46  0.386495301529
-0.16  0.48  0.317367806215
-0.16  0.5  0.260604266141
