-0.44  0.12  0.213211918999
-0.44  0.14  0.233584389608
-0.44  0.16  0.247722328789
-0.44  0.18  0.255248385015
-0.44  0.2  0.255961682559
-0.44  0.22  0.210181074253
-0.44  0.24  0.172588660663
-0.44  0.26  0.14171992362
-0.44  0.28  0.116372284678
-0.44  0.3  0.0955582552919
-0.44  0.32  0.0784669664231
-0.44  0.34  0.0644325788581
-0.44  0.36  0.0529083435687
-0.44  0.38  0.0434453015663
-0.44  0.4  0.0356747934423
-0.44  0.42  0.0292940972042
-0.44  0.44  0.0240546348894
-0.44  0.46  0.0197522885115
-0.44  0.48  0.0162194480705
-0.44  0.5  0.0133184818335
-0.44  0.52  0.0109363745042
-0.44  0.54  0.00898032439361
-0.44  0.56  0.00737412806993
-0.44  0.58  0.00605521163917
-0.44  0.6  0.00497219300336
-0.44  0.62  0.00408288012638
-0.44  0.64  0.00335262732464
-0.44  0.66  0.00275298554696
-0.44  0.68  0.00226059406188
-0.44  0.7  0.00185627037463
-0.44  0.72  0.00152426291913
-0.44  0.74  0.00125163741144
-0.44  0.76  0.00102777295836
-0.44  0.78  0.000843948290685
-0.44  0.8  0.000693002001613
-0.44  0.82  0.00056905355404
-0.44  0.84  0.000467274187681
-0.44  0.86  0.000383698801146
-0.44  0.88  0.000315071480262
-0.44  0.9  0.000258718654784
-0.44  0.92  0.000212444941946
-0.44  0.94  0.000174447619157
-0.44  0.96  0.000143246393869
-0.44  0.98  0.000117625734622
-0.42  -1  0.000120004578688
-0.42  -0.98  0.000146143386054
-0.42  -0.96  0.000177975619937
-0.42  -0.94  0.000216741394513
-0.42  -0.92  0.000263950939527
-0.42  -0.9  0.000321443435545
-0.42  -0.88  0.000391458664403
-0.42  -0.86  0.000476724266203
-0.42  -0.84  0.000580562002207
-0.42  -0.82  0.000707017163383
-0.42  -0.8  0.00086101616609
-0.42  -0.78  0.00104855847448
-0.42  -0.76  0.00127695032649
-0.42  -0.74  0.0015550893689
-0.42  -0.72  0.00189381129014
-0.42  -0.7  0.00230631195505
-0.42  -0.68  0.00280866148686
-0.42  -0.66  0.00342043032405
-0.42  -0.64  0.0041654516418
-0.42  -0.62  0.00507274984032
-0.42  -0.6  0.00617767127201
-0.42  -0.58  0.00752326125796
-0.42  -0.56  0.00916194103949
-0.42  -0.54  0.011157549995
-0.42  -0.52  0.0135878326824
-0.42  -0.5  0.0165474675971
-0.42  -0.48  0.0201517556389
-0.42  -0.46  0.0245411119825
-0.42  -0.44  0.0298865363462
-0.42  -0.42  0.0363962747656
-0.42  -0.4  0.0443239324045
-0.42  -0.38  0.0539783534566
-0.42  -0.36  0.0657356530395
-0.42  -0.34  0.0800538698165
-0.42  -0.32  0.097490810181
-0.42  -0.3  0.118725779173
-0.42  -0.28  0.144586044715
-0.42  -0.26  0.176079066165
-0.42  -0.24  0.214431742721
-0.42  -0.22  0.261138210736
-0.42  -0.2  0.318018051997
-0.42  -0.18  0.317131819757
-0.42  -0.16  0.307781116494
-0.42  -0.14  0.290215519047
-0.42  -0.12  0.264903865551
-0.42  -0.1  0.232521741814
-0.42  -0.08  0.193933449466
-0.42  -0.06  0.150168937133
-0.42  -0.04  0.10239631039
-0.42  -0.02  0.0518906541991
-0.42  6.17561557e-16  9.38776446735e-16
-0.42  0.02  0.0518906541991
-0.42  0.04  0.10239631039
-0.42  0.06  0.150168937133
-0.42  0.08  0.193933449466
-0.42  0.1  0.232521741814
-0.42  0.12  0.264903865551
-0.42  0.14  0.290215519047
-0.42  0.16  0.307781116494
-0.42  0.18  0.317131819757
-0.42  0.2  0.318018051997
-0.42  0.22  0.261138210736
-0.42  0.24  0.214431742721
-0.42  0.26  0.176079066165
-0.42  0.28  0.144586044715
-0.42  0.3  0.118725779173
-0.42  0.32  0.097490810181
-0.42  0.34  0.0800538698165
-0.42  0.36  0.0657356530395
-0.42  0.38  0.0539783534566
-0.42  0.4  0.0443239324045
-0.42  0.42  0.0363962747656
-0.42  0.44  0.0298865363462
-0.42  0.46  0.0245411119825
-0.42  0.48  0.0201517556389
-0.42  0.5  0.0165474675971
-0.42  0.52  0.0135878326824
-0.42  0.54  0.011157549995
-0.42  0.56  0.00916194103949
-0.42  0.58  0.00752326125796
-0.42  0.6  0.00617767127201
-0.42  0.62  0.00507274984032
-0.42  0.64  0.0041654516418
-0.42  0.66  0.00342043032405
-0.42  0.68  0.00280866148686
-0.42  0.7  0.00230631195505
-0.42  0.72  0.00189381129014
-0.42  0.74  0.0015550893689
-0.42  0.76  0.00127695032649
-0.42  0.78  0.00104855847448
-0.42  0.8  0.00086101616609
-0.42  0.82  0.000707017163383
-0.42  0.84  0.000580562002207
-0.42  0.86  0.000476724266203
-0.42  0.88  0.000391458664403
-0.42  0.9  0.000321443435545
-0.42  0.92  0.000263950939527
-0.42  0.94  0.000216741394513
-0.42  0.96  0.000177975619937
-0.42  0.98  0.000146143386054
-0.4  -1  0.000149098966546
-0.4  -0.98  0.000181574970442
-0.4  -0.96  0.00022112473785
-0.4  -0.94  0.00026928904116
-0.4  -0.92  0.000327944256233
-0.4  -0.9  0.000399375461894
-0.4  -0.88  0.000486365461604
-0.4  -0.86  0.000592303195392
-0.4  -0.84  0.000721315765545
-0.4  -0.82  0.000878429219481
-0.4  -0.8  0.00106976435356
-0.4  -0.78  0.0013027751659
-0.4  -0.76  0.00158653924786
-0.4  -0.74  0.00193211142712
-0.4  -0.72  0.00235295443958
-0.4  -0.7  0.00286546340807
-0.4  -0.68  0.00348960456049
-0.4  -0.66  0.00424969307035
-0.4  -0.64  0.00517534032269
-0.4  -0.62  0.0063026075089
-0.4  -0.6  0.00767541049176
-0.4  -0.58  0.0093472306714
-0.4  -0.56  0.0113831985036
-0.4  -0.54  0.0138626308399
-0.4  -0.52  0.0168821209383
-0.4  -0.5  0.0205593015256
-0.4  -0.48  0.0250374275107
-0.4  -0.46  0.0304909568827
-0.4  -0.44  0.037132347212
-0.4  -0.42  0.0452203325325
-0.4  -0.4  0.0550700030536
-0.4  -0.38  0.0670650803849
-0.4  -0.36  0.0816728664906
-0.4  -0.34  0.0994624487514
-0.4  -0.32  0.121126870364
-0.4  -0.3  0.147510129785
-0.4  -0.28  0.179640061069
-0.4  -0.26  0.218768376029
-0.4  -0.24  0.266419428192
-0.4  -0.22  0.324449598276
-0.4  -0.2  0.395119614721
-0.4  -0.18  0.394018520807
-0.4  -0.16  0.382400795816
-0.4  -0.14  0.360576524986
-0.4  -0.12  0.329128213436
-0.4  -0.1  0.288895238691
-0.4  -0.08  0.240951447106
-0.4  -0.06  0.186576492153
-0.4  -0.04  0.127221679574
-0.4  -0.02  0.0644712310072
-0.4  6.17561557e-16  1.16637714624e-15
-0.4  0.02  0.0644712310072
-0.4  0.04  0.127221679574
-0.4  0.06  0.186576492153
-0.4  0.08  0.240951447106
-0.4  0.1  0.288895238691
-0.4  0.12  0.329128213436
-0.4  0.14  0.360576524986
-0.4  0.16  0.382400795816
-0.4  0.18  0.394018520807
-0.4  0.2  0.395119614721
-0.4  0.22  0.324449598276
-0.4  0.24  0.266419428192
-0.4  0.26  0.218768376029
-0.4  0.28  0.179640061069
-0.4  0.3  0.147510129785
-0.4  0.32  0.121126870363
-0.4  0.34  0.0994624487514
-0.4  0.36  0.0816728664906
-0.4  0.38  0.0670650803849
-0.4  0.4  0.0550700030536
-0.4  0.42  0.0452203325325
-0.4  0.44  0.0371323472119
-0.4  0.46  0.0304909568827
-0.4  0.48  0.0250374275107
-0.4  0.5  0.0205593015256
-0.4  0.52  0.0168821209383
-0.4  0.54  0.0138626308399
-0.4  0.56  0.0113831985036
-0.4  0.58  0.0093472306714
-0.4  0.6  0.00767541049175
-0.4  0.62  0.0063026075089
-0.4  0.64  0.00517534032269
-0.4  0.66  0.00424969307035
-0.4  0.68  0.00348960456049
-0.4  0.7  0.00286546340807
-0.4  0.72  0.00235295443958
-0.4  0.74  0.00193211142712
-0.4  0.76  0.00158653924786
-0.4  0.78  0.0013027751659
-0.4  0.8  0.00106976435356
-0.4  0.82  0.000878429219481
-0.4  0.84  0.000721315765545
-0.4  0.86  0.000592303195392
-0.4  0.88  0.000486365461604
-0.4  0.9  0.000399375461894
-0.4  0.92  0.000327944256233
-0.4  0.94  0.00026928904116
-0.4  0.96  0.00022112473785
-0.4  0.98  0.000181574970442
-0.38  -1  0.000185247113637
-0.38  -0.98  0.000225596729222
-0.38  -0.96  0.000274735099708
-0.38  -0.94  0.00033457654848
-0.38  -0.92  0.000407452367433
-0.38  -0.9  0.000496201639
-0.38  -0.88  0.000604281840592
-0.38  -0.86  0.000735903540354
-0.38  -0.84  0.000896194431682
-0.38  -0.82  0.00109139909694
-0.38  -0.8  0.00132912228273
-0.38  -0.78  0.00161862516415
-0.38  -0.76  0.00197118613996
-0.38  -0.74  0.00240054021427
-0.38  -0.72  0.00292341408226
-0.38  -0.7  0.00356017776564
-0.38  -0.68  0.00433563818409
-0.38  -0.66  0.00528000557859
-0.38  -0.64  0.00643007043628
-0.38  -0.62  0.00783063676735
-0.38  -0.6  0.00953626757123
-0.38  -0.58  0.0116134104916
-0.38  -0.56  0.0141429864713
-0.38  -0.54  0.0172235422551
-0.38  -0.52  0.0209750895551
-0.38  -0.5  0.0255437804448
-0.38  -0.48  0.0311076011236
-0.38  -0.46  0.0378833058699
-0.38  -0.44  0.0461348613134
-0.38  -0.42  0.0561837299976
-0.38  -0.4  0.0684213938566
-0.38  -0.38  0.0833246054948
-0.38  -0.36  0.101473961425
-0.38  -0.34  0.123576520839
-0.38  -0.32  0.150493351084
-0.38  -0.3  0.183273072966
-0.38  -0.28  0.223192712716
-0.38  -0.26  0.271807452145
-0.38  -0.24  0.331011215118
-0.38  -0.22  0.403110450686
-0.38  -0.2  0.490913987293
-0.38  -0.18  0.489545939787
-0.38  -0.16  0.475111567292
-0.38  -0.14  0.447996133349
-0.38  -0.12  0.408923367935
-0.38  -0.1  0.358936150604
-0.38  -0.08  0.299368675297
-0.38  -0.06  0.23181083977
-0.38  -0.04  0.158065810107
-0.38  -0.02  0.0801018929465
-0.38  6.17561557e-16  1.44915826554e-15
-0.38  0.02  0.0801018929465
-0.38  0.04  0.158065810107
-0.38  0.06  0.23181083977
-0.38  0.08  0.299368675297
-0.38  0.1  0.358936150604
-0.38  0.12  0.408923367935
-0.38  0.14  0.447996133349
-0.38  0.16  0.475111567292
-0.38  0.18  0.489545939787
-0.38  0.2  0.490913987293
-0.38  0.22  0.403110450686
-0.38  0.24  0.331011215118
-0.38  0.26  0.271807452145
-0.38  0.28  0.223192712716
-0.38  0.3  0.183273072966
-0.38  0.32  0.150493351084
-0.38  0.34  0.123576520839
-0.38  0.36  0.101473961425
-0.38  0.38  0.0833246054948
-0.38  0.4  0.0684213938566
-0.38  0.42  0.0561837299976
-0.38  0.44  0.0461348613134
-0.38  0.46  0.0378833058699
-0.38  0.48  0.0311076011236
-0.38  0.5  0.0255437804448
-0.38  0.52  0.0209750895551
-0.38  0.54  0.0172235422551
-0.38  0.56  0.0141429864713
-0.38  0.58  0.0116134104916
-0.38  0.6  0.00953626757123
-0.38  0.62  0.00783063676735
-0.38  0.64  0.00643007043628
-0.38  0.66  0.00528000557859
-0.38  0.68  0.00433563818409
-0.38  0.7  0.00356017776564
-0.38  0.72  0.00292341408226
-0.38  0.74  0.00240054021427
-0.38  0.76  0.00197118613996
-0.38  0.78  0.00161862516415
-0.38  0.8  0.00132912228273
-0.38  0.82  0.00109139909694
-0.38  0.84  0.000896194431682
-0.38  0.86  0.000735903540354
-0.38  0.88  0.000604281840592
-0.38  0.9  0.000496201639
-0.38  0.92  0.000407452367433
-0.38  0.94  0.00033457654848
-0.38  0.96  0.000274735099708
-0.38  0.98  0.000225596729222
-0.36  -1  0.000230159161434
-0.36  -0.98  0.000280291298474
-0.36  -0.96  0.000341342971146
-0.36  -0.94  0.000415692619019
-0.36  -0.92  0.000506236741676
-0.36  -0.9  0.000616502739999
-0.36  -0.88  0.000750786335989
-0.36  -0.86  0.000914318924696
-0.36  -0.84  0.00111347137792
-0.36  -0.82  0.00135600223944
-0.36  -0.8  0.00165135998089
-0.36  -0.78  0.00201105109355
-0.36  -0.76  0.00244908835606
-0.36  -0.74  0.00298253674163
-0.36  -0.72  0.00363217823202
-0.36  -0.7  0.00442332143809
-0.36  -0.68  0.0053867875679
-0.36  -0.66  0.00656011115355
-0.36  -0.64  0.00798900231435
-0.36  -0.62  0.00972912752312
-0.36  -0.6  0.0118482782501
-0.36  -0.58  0.0144290119703
-0.36  -0.56  0.0175718684221
-0.36  -0.54  0.0213992864154
-0.36  -0.52  0.0260603737798
-0.36  -0.5  0.0317367162791
-0.36  -0.48  0.0386494517957
-0.36  -0.46  0.0470678853784
-0.36  -0.44  0.0573199807774
-0.36  -0.42  0.0698051371953
-0.36  -0.4  0.0850097490048
-0.36  -0.38  0.10352615461
-0.36  -0.36  0.126075712654
-0.36  -0.34  0.153536904574
-0.36  -0.32  0.186979558314
-0.36  -0.3  0.227706526482
-0.36  -0.28  0.277304442635
-0.36  -0.26  0.337705533052
-0.36  -0.24  0.411262892042
-0.36  -0.22  0.500842153345
-0.36  -0.2  0.609933128959
-0.36  -0.18  0.608233406569
-0.36  -0.16  0.590299507336
-0.36  -0.14  0.556610099626
-0.36  -0.12  0.508064377396
-0.36  -0.1  0.44595806007
-0.36  -0.08  0.37194880888
-0.36  -0.06  0.288011982725
-0.36  -0.04  0.196387914452
-0.36  -0.02  0.0995221148002
-0.36  6.17561557e-16  1.8004979653e-15
-0.36  0.02  0.0995221148002
-0.36  0.04  0.196387914452
-0.36  0.06  0.288011982725
-0.36  0.08  0.37194880888
-0.36  0.1  0.44595806007
-0.36  0.12  0.508064377396
-0.36  0.14  0.556610099626
-0.36  0.16  0.590299507336
-0.36  0.18  0.608233406569
-0.36  0.2  0.609933128959
-0.36  0.22  0.500842153345
-0.36  0.24  0.411262892042
-0.36  0.26  0.337705533052
-0.36  0.28  0.277304442635
-0.36  0.3  0.227706526482
-0.36  0.32  0.186979558314
-0.36  0.34  0.153536904574
-0.36  0.36  0.126075712654
-0.36  0.38  0.10352615461
-0.36  0.4  0.0850097490048
-0.36  0.42  0.0698051371953
-0.36  0.44  0.0573199807774
-0.36  0.46  0.0470678853783
-0.36  0.48  0.0386494517957
-0.36  0.5  0.0317367162791
-0.36  0.52  0.0260603737798
-0.36  0.54  0.0213992864154
-0.36  0.56  0.0175718684221
-0.36  0.58  0.0144290119703
-0.36  0.6  0.0118482782501
-0.36  0.62  0.00972912752312
-0.36  0.64  0.00798900231435
-0.36  0.66  0.00656011115354
-0.36  0.68  0.0053867875679
-0.36  0.7  0.00442332143808
-0.36  0.72  0.00363217823202
-0.36  0.74  0.00298253674163
-0.36  0.76  0.00244908835606
-0.36  0.78  0.00201105109355
-0.36  0.8  0.00165135998089
-0.36  0.82  0.00135600223944
-0.36  0.84  0.00111347137792
-0.36  0.86  0.000914318924696
-0.36  0.88  0.000750786335989
-0.36  0.9  0.000616502739999
-0.36  0.92  0.000506236741676
-0.36  0.94  0.000415692619019
-0.36  0.96  0.000341342971146
-0.36  0.98  0.000280291298474
-0.34  -1  0.000285959864916
-0.34  -0.98  0.000348246236863
-0.34  -0.96  0.000424099520137
-0.34  -0.94  0.000516474792665
-0.34  -0.92  0.000628970792923
-0.34  -0.9  0.000765970118906
-0.34  -0.88  0.000932809964562
-0.34  -0.86  0.00113599004518
-0.34  -0.84  0.0013834258121
-0.34  -0.82  0.00168475682133
-0.34  -0.8  0.00205172226959
-0.34  -0.78  0.00249861832772
-0.34  -0.76  0.00304285508822
-0.34  -0.74  0.00370563482432
-0.34  -0.72  0.0045127779842
-0.34  -0.7  0.00549572909911
-0.34  -0.68  0.0066927817935
-0.34  -0.66  0.00815057062087
-0.34  -0.64  0.00992588784386
-0.34  -0.62  0.0120878959366
-0.34  -0.6  0.0147208220033
-0.34  -0.58  0.0179272390819
-0.34  -0.56  0.0218320621652
-0.34  -0.54  0.0265874146158
-0.34  -0.52  0.032378554559
-0.34  -0.5  0.0394310921344
-0.34  -0.48  0.0480197787729
-0.34  -0.46  0.0584792109115
-0.34  -0.44  0.0712168651382
-0.34  -0.42  0.0867289725879
-0.34  -0.4  0.105619851022
-0.34  -0.38  0.128625447726
-0.34  -0.36  0.156642010404
-0.34  -0.34  0.190761003031
-0.34  -0.32  0.232311626896
-0.34  -0.3  0.282912603382
-0.34  -0.28  0.344535235802
-0.34  -0.26  0.419580207069
-0.34  -0.24  0.510971105042
-0.34  -0.22  0.622268319119
-0.34  -0.2  0.757807745209
-0.34  -0.18  0.755695935355
-0.34  -0.16  0.733414070187
-0.34  -0.14  0.691556868337
-0.34  -0.12  0.631241527924
-0.34  -0.1  0.554077907747
-0.34  -0.08  0.462125559029
-0.34  -0.06  0.357838754544
-0.34  -0.04  0.244000982356
-0.34  -0.02  0.123650652562
-0.34  6.17561557e-16  2.23701786074e-15
-0.34  0.02  0.123650652562
-0.34  0.04  0.244000982356
-0.34  0.06  0.357838754544
-0.34  0.08  0.462125559029
-0.34  0.1  0.554077907747
-0.34  0.12  0.631241527924
-0.34  0.14  0.691556868337
-0.34  0.16  0.733414070187
-0.34  0.18  0.755695935355
-0.34  0.2  0.757807745209
-0.34  0.22  0.622268319119
-0.34  0.24  0.510971105042
-0.34  0.26  0.419580207069
-0.34  0.28  0.344535235802
-0.34  0.3  0.282912603382
-0.34  0.32  0.232311626896
-0.34  0.34  0.190761003031
-0.34  0.36  0.156642010404
-0.34  0.38  0.128625447726
-0.34  0.4  0.105619851022
-0.34  0.42  0.0867289725879
-0.34  0.44  0.0712168651381
-0.34  0.46  0.0584792109115
-0.34  0.48  0.0480197787729
-0.34  0.5  0.0394310921344
-0.34  0.52  0.032378554559
-0.34  0.54  0.0265874146158
-0.34  0.56  0.0218320621652
-0.34  0.58  0.0179272390819
-0.34  0.6  0.0147208220033
-0.34  0.62  0.0120878959366
-0.34  0.64  0.00992588784386
-0.34  0.66  0.00815057062087
-0.34  0.68  0.0066927817935
-0.34  0.7  0.00549572909911
-0.34  0.72  0.0045127779842
-0.34  0.74  0.00370563482432
-0.34  0.76  0.00304285508822
-0.34  0.78  0.00249861832772
-0.34  0.8  0.00205172226959
-0.34  0.82  0.00168475682133
-0.34  0.84  0.0013834258121
-0.34  0.86  0.00113599004518
-0.34  0.88  0.000932809964562
-0.34  0.9  0.000765970118906
-0.34  0.92  0.000628970792923
-0.34  0.94  0.000516474792665
-0.34  0.96  0.000424099520137
-0.34  0.98  0.000348246236863
-0.32  -1  0.000355289113123
-0.32  -0.98  0.00043267644108
-0.32  -0.96  0.000526919896363
-0.32  -0.94  0.000641690997757
-0.32  -0.92  0.000781460976223
-0.32  -0.9  0.000951674964264
-0.32  -0.88  0.00115896412638
-0.32  -0.86  0.00141140399471
-0.32  -0.84  0.00171882907413
-0.32  -0.82  0.00209321597299
-0.32  -0.8  0.00254914998561
-0.32  -0.78  0.00310439330341
-0.32  -0.76  0.00378057699101
-0.32  -0.74  0.00460404368521
-0.32  -0.72  0.00560687384643
-0.32  -0.7  0.00682813554328
-0.32  -0.68  0.00831540645901
-0.32  -0.66  0.0101266274139
-0.32  -0.64  0.0123323596129
-0.32  -0.62  0.0150185335557
-0.32  -0.6  0.0182897967011
-0.32  -0.58  0.0222735903027
-0.32  -0.56  0.0271251142415
-0.32  -0.54  0.0330333732738
-0.32  -0.52  0.0402285402424
-0.32  -0.5  0.0489909231074
-0.32  -0.48  0.0596618851306
-0.32  -0.46  0.0726571436414
-0.32  -0.44  0.0884829654741
-0.32  -0.42  0.107755890016
-0.32  -0.4  0.131226748232
-0.32  -0.38  0.159809913398
-0.32  -0.36  0.194618923081
-0.32  -0.34  0.237009860126
-0.32  -0.32  0.288634182676
-0.32  -0.3  0.35150306137
-0.32  -0.28  0.428065730146
-0.32  -0.26  0.52130490304
-0.32  -0.24  0.634852974194
-0.32  -0.22  0.773133527984
-0.32  -0.2  0.941533672189
-0.32  -0.18  0.938909866746
-0.32  -0.16  0.911225897471
-0.32  -0.14  0.859220668949
-0.32  -0.12  0.784282237258
-0.32  -0.1  0.688410761777
-0.32  -0.08  0.574165119525
-0.32  -0.06  0.444594606941
-0.32  -0.04  0.303157552014
-0.32  -0.02  0.153629009088
-0.32  6.17561557e-16  2.77936937764e-15
-0.32  0.02  0.153629009088
-0.32  0.04  0.303157552014
-0.32  0.06  0.444594606941
-0.32  0.08  0.574165119525
-0.32  0.1  0.688410761777
-0.32  0.12  0.784282237258
-0.32  0.14  0.859220668949
-0.32  0.16  0.911225897471
-0.32  0.18  0.938909866746
-0.32  0.2  0.941533672189
-0.32  0.22  0.773133527984
-0.32  0.24  0.634852974194
-0.32  0.26  0.52130490304
-0.32  0.28  0.428065730146
-0.32  0.3  0.35150306137
-0.32  0.32  0.288634182676
-0.32  0.34  0.237009860126
-0.32  0.36  0.194618923081
-0.32  0.38  0.159809913398
-0.32  0.4  0.131226748232
-0.32  0.42  0.107755890016
-0.32  0.44  0.0884829654741
-0.32  0.46  0.0726571436414
-0.32  0.48  0.0596618851306
-0.32  0.5  0.0489909231074
-0.32  0.52  0.0402285402424
-0.32  0.54  0.0330333732738
-0.32  0.56  0.0271251142415
-0.32  0.58  0.0222735903027
-0.32  0.6  0.0182897967011
-0.32  0.62  0.0150185335557
-0.32  0.64  0.0123323596129
-0.32  0.66  0.0101266274139
-0.32  0.68  0.008315406459
-0.32  0.7  0.00682813554328
-0.32  0.72  0.00560687384643
-0.32  0.74  0.00460404368521
-0.32  0.76  0.00378057699101
-0.32  0.78  0.00310439330341
-0.32  0.8  0.00254914998561
-0.32  0.82  0.00209321597299
-0.32  0.84  0.00171882907413
-0.32  0.86  0.00141140399471
-0.32  0.88  0.00115896412638
-0.32  0.9  0.000951674964264
-0.32  0.92  0.000781460976223
-0.32  0.94  0.000641690997757
-0.32  0.96  0.000526919896363
-0.32  0.98  0.00043267644108
-0.3  -1  0.000441426820302
-0.3  -0.98  0.000537576240168
-0.3  -0.96  0.000654668453982
-0.3  -0.94  0.000797265118163
-0.3  -0.92  0.000970921486706
-0.3  -0.9  0.00118240283172
-0.3  -0.88  0.00143994800362
-0.3  -0.86  0.00175359039873
-0.3  -0.84  0.00213554883843
-0.3  -0.82  0.00260070358768
-0.3  -0.8  0.00316717605763
-0.3  -0.78  0.00385703477611
-0.3  -0.76  0.00469715512918
-0.3  -0.74  0.00572026636738
-0.3  -0.72  0.00696622666568
-0.3  -0.7  0.0084835759108
-0.3  -0.68  0.0103314267089
-0.3  -0.66  0.0125817672836
-0.3  -0.64  0.0153222659791
-0.3  -0.62  0.0186596866277
-0.3  -0.6  0.0227240478346
-0.3  -0.58  0.0276736882186
-0.3  -0.56  0.0337014349376
-0.3  -0.54  0.0410421158135
-0.3  -0.52  0.0499817077097
-0.3  -0.5  0.0608684775642
-0.3  -0.48  0.0741265501071
-0.3  -0.46  0.0902724308322
-0.3  -0.44  0.109935127921
-0.3  -0.42  0.133880657024
-0.3  -0.4  0.163041883556
-0.3  -0.38  0.19855486509
-0.3  -0.36  0.241803109673
-0.3  -0.34  0.294471474275
-0.3  -0.32  0.358611803128
-0.3  -0.3  0.436722863087
-0.3  -0.28  0.531847690118
-0.3  -0.26  0.647692139323
-0.3  -0.24  0.788769256941
-0.3  -0.22  0.96057509876
-0.3  -0.2  1.16980284442
-0.3  -0.18  1.16654291313
-0.3  -0.16  1.13214713212
-0.3  -0.14  1.06753354894
-0.3  -0.12  0.9744267455
-0.3  -0.1  0.855311807788
-0.3  -0.08  0.713367997156
-0.3  -0.06  0.552383893612
-0.3  -0.04  0.376656275955
-0.3  -0.02  0.190875437729
-0.3  6.17561557e-16  3.45321075569e-15
-0.3  0.02  0.190875437729
-0.3  0.04  0.376656275955
-0.3  0.06  0.552383893612
-0.3  0.08  0.713367997156
-0.3  0.1  0.855311807788
-0.3  0.12  0.9744267455
-0.3  0.14  1.06753354894
-0.3  0.16  1.13214713212
-0.3  0.18  1.16654291313
-0.3  0.2  1.16980284442
-0.3  0.22  0.96057509876
-0.3  0.24  0.788769256941
-0.3  0.26  0.647692139323
-0.3  0.28  0.531847690118
-0.3  0.3  0.436722863087
-0.3  0.32  0.358611803128
-0.3  0.34  0.294471474275
-0.3  0.36  0.241803109673
-0.3  0.38  0.19855486509
-0.3  0.4  0.163041883556
-0.3  0.42  0.133880657024
-0.3  0.44  0.109935127921
-0.3  0.46  0.0902724308322
-0.3  0.48  0.074126550107
-0.3  0.5  0.0608684775642
-0.3  0.52  0.0499817077097
-0.3  0.54  0.0410421158135
-0.3  0.56  0.0337014349376
-0.3  0.58  0.0276736882185
-0.3  0.6  0.0227240478346
-0.3  0.62  0.0186596866277
-0.3  0.64  0.0153222659791
-0.3  0.66  0.0125817672836
-0.3  0.68  0.0103314267089
-0.3  0.7  0.0084835759108
-0.3  0.72  0.00696622666568
-0.3  0.74  0.00572026636737
-0.3  0.76  0.00469715512918
-0.3  0.78  0.00385703477611
-0.3  0.8  0.00316717605763
-0.3  0.82  0.00260070358768
-0.3  0.84  0.00213554883843
-0.3  0.86  0.00175359039873
-0.3  0.88  0.00143994800362
-0.3  0.9  0.00118240283172
-0.3  0.92  0.000970921486706
-0.3  0.94  0.000797265118163
-0.3  0.96  0.000654668453982
-0.3  0.98  0.000537576240168
-0.28  -1  0.000548448096169
-0.28  -0.98  0.000667908364209
-0.28  -0.96  0.000813388880546
-0.28  -0.94  0.000990557247743
-0.28  -0.92  0.00120631555769
-0.28  -0.9  0.00146906928201
-0.28  -0.88  0.00178905473081
-0.28  -0.86  0.00217873783697
-0.28  -0.84  0.00265329980156
-0.28  -0.82  0.00323122852025
-0.28  -0.8  0.00393503883124
-0.28  -0.78  0.00479214964412
-0.28  -0.76  0.00583595212055
-0.28  -0.74  0.00710711052087
-0.28  -0.72  0.00865514639472
-0.28  -0.7  0.0105403678322
-0.28  -0.68  0.0128362189351
-0.28  -0.66  0.0156321410384
-0.28  -0.64  0.0190370571491
-0.28  -0.62  0.0231836153477
-0.28  -0.6  0.0282333564681
-0.28  -0.58  0.0343830073738
-0.28  -0.56  0.041872145007
-0.28  -0.54  0.0509925297816
-0.28  -0.52  0.0620994719304
-0.28  -0.5  0.0756256736143
-0.28  -0.48  0.0920980860518
-0.28  -0.46  0.112158438385
-0.28  -0.44  0.136588238044
-0.28  -0.42  0.166339216563
-0.28  -0.4  0.202570406961
-0.28  -0.38  0.246693297134
-0.28  -0.36  0.300426818328
-0.28  -0.34  0.365864310945
-0.28  -0.32  0.445555076501
-0.28  -0.3  0.542603692838
-0.28  -0.28  0.660790961676
-0.28  -0.26  0.804721200384
-0.28  -0.24  0.9800016161
-0.28  -0.22  1.19346075026
-0.28  -0.2  1.45341450362
-0.28  -0.18  1.44936422162
-0.28  -0.16  1.40662939051
-0.28  -0.14  1.32635063296
-0.28  -0.12  1.21067064538
-0.28  -0.1  1.06267700791
-0.28  -0.08  0.88631977468
-0.28  -0.06  0.686306044111
-0.28  -0.04  0.467974323164
-0.28  -0.02  0.237152038828
-0.28  6.17561557e-16  4.29042092035e-15
-0.28  0.02  0.237152038828
-0.28  0.04  0.467974323164
-0.28  0.06  0.686306044111
-0.28  0.08  0.88631977468
-0.28  0.1  1.06267700791
-0.28  0.12  1.21067064538
-0.28  0.14  1.32635063296
-0.28  0.16  1.40662939051
-0.28  0.18  1.44936422162
-0.28  0.2  1.45341450362
-0.28  0.22  1.19346075026
-0.28  0.24  0.9800016161
-0.28  0.26  0.804721200384
-0.28  0.28  0.660790961676
-0.28  0.3  0.542603692838
-0.28  0.32  0.445555076501
-0.28  0.34  0.365864310945
-0.28  0.36  0.300426818328
-0.28  0.38  0.246693297134
-0.28  0.4  0.202570406961
-0.28  0.42  0.166339216562
-0.28  0.44  0.136588238044
-0.28  0.46  0.112158438385
-0.28  0.48  0.0920980860518
-0.28  0.5  0.0756256736143
-0.28  0.52  0.0620994719304
-0.28  0.54  0.0509925297816
-0.28  0.56  0.041872145007
-0.28  0.58  0.0343830073738
-0.28  0.6  0.0282333564681
-0.28  0.62  0.0231836153477
-0.28  0.64  0.0190370571491
-0.28  0.66  0.0156321410384
-0.28  0.68  0.0128362189351
-0.28  0.7  0.0105403678322
-0.28  0.72  0.00865514639472
-0.28  0.74  0.00710711052087
-0.28  0.76  0.00583595212054
-0.28  0.78  0.00479214964412
-0.28  0.8  0.00393503883124
-0.28  0.82  0.00323122852025
-0.28  0.84  0.00265329980156
-0.28  0.86  0.00217873783697
-0.28  0.88  0.00178905473081
-0.28  0.9  0.00146906928201
-0.28  0.92  0.00120631555769
-0.28  0.94  0.000990557247743
-0.28  0.96  0.000813388880545
-0.28  0.98  0.000667908364209
-0.26  -1  0.000681416036265
-0.26  -0.98  0.000829838727322
-0.26  -0.96  0.00101059011927
-0.26  -0.94  0.00123071189082
-0.26  -0.92  0.00149877950448
-0.26  -0.9  0.00182523628788
-0.26  -0.88  0.00222280028292
-0.26  -0.86  0.00270695971287
-0.26  -0.84  0.00329657636963
-0.26  -0.82  0.00401462042792
-0.26  -0.8  0.00488906531295
-0.26  -0.78  0.00595397748391
-0.26  -0.76  0.00725084358865
-0.26  -0.74  0.0088301866927
-0.26  -0.72  0.0107535345474
-0.26  -0.7  0.0130958165762
-0.26  -0.68  0.0159482829615
-0.26  -0.66  0.0194220595516
-0.26  -0.64  0.0236524770808
-0.26  -0.62  0.0288043433588
-0.26  -0.6  0.035078363822
-0.26  -0.58  0.0427189605783
-0.26  -0.56  0.0520237945576
-0.26  -0.54  0.06335536173
-0.26  -0.52  0.0771551151559
-0.26  -0.5  0.093960663031
-0.26  -0.48  0.114426712725
-0.26  -0.46  0.139350576749
-0.26  -0.44  0.169703234305
-0.26  -0.42  0.20666715851
-0.26  -0.4  0.251682382964
-0.26  -0.38  0.306502602307
-0.26  -0.36  0.37326349232
-0.26  -0.34  0.454565911189
-0.26  -0.32  0.553577223238
-0.26  -0.3  0.67415469252
-0.26  -0.28  0.820995753382
-0.26  -0.26  0.999821012224
-0.26  -0.24  1.21759710981
-0.26  -0.22  1.48280812635
-0.26  -0.2  1.80578610268
-0.26  -0.18  1.80075385419
-0.26  -0.16  1.74765822048
-0.26  -0.14  1.64791636131
-0.26  -0.12  1.50419045697
-0.26  -0.1  1.32031665279
-0.26  -0.08  1.10120266976
-0.26  -0.06  0.852696813991
-0.26  -0.04  0.581431881324
-0.26  -0.02  0.294648123348
-0.26  6.17561557e-16  5.33060765071e-15
-0.26  0.02  0.294648123348
-0.26  0.04  0.581431881324
-0.26  0.06  0.852696813991
-0.26  0.08  1.10120266976
-0.26  0.1  1.32031665279
-0.26  0.12  1.50419045697
-0.26  0.14  1.64791636131
-0.26  0.16  1.74765822048
-0.26  0.18  1.80075385419
-0.26  0.2  1.80578610268
-0.26  0.22  1.48280812635
-0.26  0.24  1.21759710981
-0.26  0.26  0.999821012223
-0.26  0.28  0.820995753382
-0.26  0.3  0.67415469252
-0.26  0.32  0.553577223238
-0.26  0.34  0.454565911189
-0.26  0.36  0.37326349232
-0.26  0.38  0.306502602307
-0.26  0.4  0.251682382964
-0.26  0.42  0.20666715851
-0.26  0.44  0.169703234305
-0.26  0.46  0.139350576749
-0.26  0.48  0.114426712725
-0.26  0.5  0.093960663031
-0.26  0.52  0.0771551151559
-0.26  0.54  0.06335536173
-0.26  0.56  0.0520237945576
-0.26  0.58  0.0427189605783
-0.26  0.6  0.035078363822
-0.26  0.62  0.0288043433588
-0.26  0.64  0.0236524770808
-0.26  0.66  0.0194220595516
-0.26  0.68  0.0159482829615
-0.26  0.7  0.0130958165762
-0.26  0.72  0.0107535345474
-0.26  0.74  0.0088301866927
-0.26  0.76  0.00725084358865
-0.26  0.78  0.00595397748391
-0.26  0.8  0.00488906531295
-0.26  0.82  0.00401462042792
-0.26  0.84  0.00329657636963
-0.26  0.86  0.00270695971287
-0.26  0.88  0.00222280028292
-0.26  0.9  0.00182523628788
-0.26  0.92  0.00149877950448
-0.26  0.94  0.00123071189082
-0.26  0.96  0.00101059011927
-0.26  0.98  0.000829838727322
-0.24  -1  0.000846621253173
-0.24  -0.98  0.0010310281324
-0.24  -0.96  0.00125560161148
-0.24  -0.94  0.00152909058174
-0.24  -0.92  0.00186214957497
-0.24  -0.9  0.00226775384074
-0.24  -0.88  0.00276170483365
-0.24  -0.86  0.00336324580349
-0.24  -0.84  0.0040958114701
-0.24  -0.82  0.00498794098878
-0.24  -0.8  0.00607438977336
-0.24  -0.78  0.00739748349102
-0.24  -0.76  0.00900876697771
-0.24  -0.74  0.0109710123121
-0.24  -0.72  0.0133606642785
-0.24  -0.7  0.0162708184883
-0.24  -0.68  0.0198148481812
-0.24  -0.66  0.0241308209987
-0.24  -0.64  0.0293868777973
-0.24  -0.62  0.035787783048
-0.24  -0.6  0.0435829020125
-0.24  -0.58  0.0530759154676
-0.24  -0.56  0.0646366504442
-0.24  -0.54  0.0787154878788
-0.24  -0.52  0.0958609084694
-0.24  -0.5  0.116740860283
-0.24  -0.48  0.142168780551
-0.24  -0.46  0.173135285404
-0.24  -0.44  0.210846762107
-0.24  -0.42  0.25677236727
-0.24  -0.4  0.31270126197
-0.24  -0.38  0.380812313558
-0.24  -0.36  0.463758979557
-0.24  -0.34  0.564772680563
-0.24  -0.32  0.687788689322
-0.24  -0.3  0.837599440339
-0.24  -0.28  1.02004123265
-0.24  -0.26  1.24222159924
-0.24  -0.24  1.51279620101
-0.24  -0.22  1.84230603234
-0.24  -0.2  2.2435880752
-0.24  -0.18  2.23733578834
-0.24  -0.16  2.1713674378
-0.24  -0.14  2.04744376517
-0.24  -0.12  1.86887238033
-0.24  -0.1  1.64041947897
-0.24  -0.08  1.36818262948
-0.24  -0.06  1.05942802461
-0.24  -0.04  0.722396541619
-0.24  -0.02  0.366083787522
-0.24  6.17561557e-16  6.6229813935e-15
-0.24  0.02  0.366083787522
-0.24  0.04  0.722396541619
-0.24  0.06  1.05942802461
-0.24  0.08  1.36818262948
-0.24  0.1  1.64041947897
-0.24  0.12  1.86887238033
-0.24  0.14  2.04744376517
-0.24  0.16  2.1713674378
-0.24  0.18  2.23733578834
-0.24  0.2  2.2435880752
-0.24  0.22  1.84230603234
-0.24  0.24  1.51279620101
-0.24  0.26  1.24222159924
-0.24  0.28  1.02004123265
-0.24  0.3  0.837599440339
-0.24  0.32  0.687788689322
-0.24  0.34  0.564772680563
-0.24  0.36  0.463758979557
-0.24  0.38  0.380812313558
-0.24  0.4  0.31270126197
-0.24  0.42  0.25677236727
-0.24  0.44  0.210846762107
-0.24  0.46  0.173135285404
-0.24  0.48  0.142168780551
-0.24  0.5  0.116740860283
-0.24  0.52  0.0958609084694
-0.24  0.54  0.0787154878788
-0.24  0.56  0.0646366504442
-0.24  0.58  0.0530759154676
-0.24  0.6  0.0435829020125
-0.24  0.62  0.035787783048
-0.24  0.64  0.0293868777973
-0.24  0.66  0.0241308209987
-0.24  0.68  0.0198148481812
-0.24  0.7  0.0162708184883
-0.24  0.72  0.0133606642785
-0.24  0.74  0.0109710123121
-0.24  0.76  0.00900876697771
-0.24  0.78  0.00739748349102
-0.24  0.8  0.00607438977336
-0.24  0.82  0.00498794098878
-0.24  0.84  0.00409581147009
-0.24  0.86  0.00336324580349
-0.24  0.88  0.00276170483365
-0.24  0.9  0.00226775384074
-0.24  0.92  0.00186214957497
-0.24  0.94  0.00152909058174
-0.24  0.96  0.00125560161148
-0.24  0.98  0.0010310281324
-0.22  -1  0.00105187948064
-0.22  -0.98  0.00128099469788
-0.22  -0.96  0.00156001466538
-0.22  -0.94  0.00189980939049
-0.22  -0.92  0.00231361653213
-0.22  -0.9  0.00281755711101
-0.22  -0.88  0.00343126354932
-0.22  -0.86  0.00417864450694
-0.22  -0.84  0.00508881631049
-0.22  -0.82  0.00619723726172
-0.22  -0.8  0.00754708901536
-0.22  -0.78  0.00919095884186
-0.22  -0.76  0.0111928883124
-0.22  -0.74  0.0136308682184
-0.22  -0.72  0.016599876922
-0.22  -0.7  0.0202155805053
-0.22  -0.68  0.0246188388676
-0.22  -0.66  0.0299811933191
-0.22  -0.64  0.0365115494551
-0.22  -0.62  0.0444643156602
-0.22  -0.6  0.0541493143029
-0.22  -0.58  0.0659438517368
-0.22  -0.56  0.0803074173305
-0.22  -0.54  0.097799584168
-0.22  -0.52  0.119101808791
-0.22  -0.5  0.145043979257
-0.22  -0.48  0.176636745757
-0.22  -0.46  0.21511089334
-0.22  -0.44  0.261965290605
-0.22  -0.42  0.319025282337
-0.22  -0.4  0.388513800951
-0.22  -0.38  0.473137967072
-0.22  -0.36  0.57619455303
-0.22  -0.34  0.701698417897
-0.22  -0.32  0.85453891761
-0.22  -0.3  1.04067038358
-0.22  -0.28  1.26734409041
-0.22  -0.26  1.5433907497
-0.22  -0.24  1.87956453522
-0.22  -0.22  2.28896204201
-0.22  -0.2  2.78753250106
-0.22  -0.18  2.77976438488
-0.22  -0.16  2.69780240477
-0.22  -0.14  2.54383418355
-0.22  -0.12  2.32196924118
-0.22  -0.1  2.03812930882
-0.22  -0.08  1.69989027363
-0.22  -0.06  1.31627997304
-0.22  -0.04  0.89753723541
-0.22  -0.02  0.454838598541
-0.22  6.17561557e-16  8.22868337212e-15
-0.22  0.02  0.454838598541
-0.22  0.04  0.89753723541
-0.22  0.06  1.31627997304
-0.22  0.08  1.69989027363
-0.22  0.1  2.03812930882
-0.22  0.12  2.32196924118
-0.22  0.14  2.54383418355
-0.22  0.16  2.69780240477
-0.22  0.18  2.77976438488
-0.22  0.2  2.78753250106
-0.22  0.22  2.28896204201
-0.22  0.24  1.87956453522
-0.22  0.26  1.5433907497
-0.22  0.28  1.26734409041
-0.22  0.3  1.04067038358
-0.22  0.32  0.85453891761
-0.22  0.34  0.701698417897
-0.22  0.36  0.57619455303
-0.22  0.38  0.473137967072
-0.22  0.4  0.388513800951
-0.22  0.42  0.319025282337
-0.22  0.44  0.261965290605
-0.22  0.46  0.21511089334
-0.22  0.48  0.176636745757
-0.22  0.5  0.145043979257
-0.22  0.52  0.119101808791
-0.22  0.54  0.097799584168
-0.22  0.56  0.0803074173305
-0.22  0.58  0.0659438517367
-0.22  0.6  0.0541493143029
-0.22  0.62  0.0444643156602
-0.22  0.64  0.0365115494551
-0.22  0.66  0.0299811933191
-0.22  0.68  0.0246188388675
-0.22  0.7  0.0202155805052
-0.22  0.72  0.016599876922
-0.22  0.74  0.0136308682184
-0.22  0.76  0.0111928883124
-0.22  0.78  0.00919095884186
-0.22  0.8  0.00754708901536
-0.22  0.82  0.00619723726172
-0.22  0.84  0.00508881631049
-0.22  0.86  0.00417864450694
-0.22  0.88  0.00343126354932
-0.22  0.9  0.00281755711101
-0.22  0.92  0.00231361653213
-0.22  0.94  0.00189980939049
-0.22  0.96  0.00156001466538
-0.22  0.98  0.00128099469788
-0.2  -1  0.00130690133001
-0.2  -0.98  0.00159156415275
-0.2  -0.96  0.0019382308321
-0.2  -0.94  0.00236040674326
-0.2  -0.92  0.0028745389359
-0.2  -0.9  0.00350065687518
-0.2  -0.88  0.00426315274589
-0.2  -0.86  0.00519173171858
-0.2  -0.84  0.00632256919806
-0.2  -0.82  0.00769972013792
-0.2  -0.8  0.00937683532518
-0.2  -0.78  0.0114192514975
-0.2  -0.76  0.0139065367197
-0.2  -0.74  0.016935590181
-0.2  -0.72  0.0206244171758
-0.2  -0.7  0.0251167263318
-0.2  -0.68  0.0305875281832
-0.2  -0.66  0.0372499531983
-0.2  -0.64  0.0453635548767
-0.2  -0.62  0.0552444213847
-0.2  -0.6  0.0672774896594
-0.2  -0.58  0.081931541709
-0.2  -0.56  0.0997774673342
-0.2  -0.54  0.121510504745
-0.2  -0.52  0.147977325522
-0.2  -0.5  0.180209019084
-0.2  -0.48  0.219461261682
-0.2  -0.46  0.267263234792
-0.2  -0.44  0.325477198681
-0.2  -0.42  0.396371041994
-0.2  -0.4  0.482706633731
-0.2  -0.38  0.58784741962
-0.2  -0.36  0.7158894546
-0.2  -0.34  0.871820976162
-0.2  -0.32  1.06171673516
-0.2  -0.3  1.29297465483
-0.2  -0.28  1.57460403766
-0.2  -0.26  1.91757654811
-0.2  -0.24  2.33525364467
-0.2  -0.22  2.84390711304
-0.2  -0.2  3.46335297925
-0.2  -0.18  3.45370153006
-0.2  -0.16  3.35186836116
-0.2  -0.14  3.16057147135
-0.2  -0.12  2.884916709
-0.2  -0.1  2.53226149332
-0.2  -0.08  2.11201843973
-0.2  -0.06  1.6354041305
-0.2  -0.04  1.11513973633
-0.2  -0.02  0.565111479324
-0.2  6.17561557e-16  1.02236781316e-14
-0.2  0.02  0.565111479324
-0.2  0.04  1.11513973633
-0.2  0.06  1.6354041305
-0.2  0.08  2.11201843973
-0.2  0.1  2.53226149332
-0.2  0.12  2.884916709
-0.2  0.14  3.16057147135
-0.2  0.16  3.35186836116
-0.2  0.18  3.45370153006
-0.2  0.2  3.46335297925
-0.2  0.22  2.84390711304
-0.2  0.24  2.33525364467
-0.2  0.26  1.91757654811
-0.2  0.28  1.57460403766
-0.2  0.3  1.29297465483
-0.2  0.32  1.06171673516
-0.2  0.34  0.871820976162
-0.2  0.36  0.7158894546
-0.2  0.38  0.58784741962
-0.2  0.4  0.482706633731
-0.2  0.42  0.396371041994
-0.2  0.44  0.325477198681
-0.2  0.46  0.267263234791
-0.2  0.48  0.219461261682
-0.2  0.5  0.180209019084
-0.2  0.52  0.147977325522
-0.2  0.54  0.121510504745
-0.2  0.56  0.0997774673342
-0.2  0.58  0.081931541709
-0.2  0.6  0.0672774896594
-0.2  0.62  0.0552444213847
-0.2  0.64  0.0453635548767
-0.2  0.66  0.0372499531983
-0.2  0.68  0.0305875281832
-0.2  0.7  0.0251167263318
-0.2  0.72  0.0206244171758
-0.2  0.74  0.016935590181
-0.2  0.76  0.0139065367197
-0.2  0.78  0.0114192514975
-0.2  0.8  0.00937683532518
-0.2  0.82  0.00769972013791
-0.2  0.84  0.00632256919806
-0.2  0.86  0.00519173171858
-0.2  0.88  0.00426315274588
-0.2  0.9  0.00350065687518
-0.2  0.92  0.0028745389359
-0.2  0.94  0.00236040674326
-0.2  0.96  0.0019382308321
-0.2  0.98  0.00159156415275
-0.18  -1  0.00162375169192
-0.18  -0.98  0.0019774293028
-0.18  -0.96  0.00240814323215
-0.18  -0.94  0.00293267315212
-0.18  -0.92  0.00357145360057
-0.18  -0.9  0.00434937006596
-0.18  -0.88  0.00529672847145
-0.18  -0.86  0.00645043582746
-0.18  -0.84  0.00785543804791
-0.18  -0.82  0.00956647094479
-0.18  -0.8  0.0116501926155
-0.18  -0.78  0.0141877802966
-0.18  -0.76  0.0172780928512
-0.18  -0.74  0.0210415220939
-0.18  -0.72  0.0256246829926
-0.18  -0.7  0.0312061254666
-0.18  -0.68  0.0380032903009
-0.18  -0.66  0.0462809801634
-0.18  -0.64  0.0563616757372
-0.18  -0.62  0.0686380988623
-0.18  -0.6  0.0835885121195
-0.18  -0.58  0.101795350894
-0.18  -0.56  0.123967913781
-0.18  -0.54  0.150969995313
-0.18  -0.52  0.183853537497
-0.18  -0.5  0.223899611178
-0.18  -0.48  0.272668323755
-0.18  -0.46  0.33205959755
-0.18  -0.44  0.404387186625
-0.18  -0.42  0.492468815577
-0.18  -0.4  0.599735951922
-0.18  -0.38  0.730367488563
-0.18  -0.36  0.889452544306
-0.18  -0.34  1.0831887248
-0.18  -0.32  1.31912356769
-0.18  -0.3  1.60644857816
-0.18  -0.28  1.95635730987
-0.18  -0.26  2.38248144131
-0.18  -0.24  2.90142183616
-0.18  -0.22  3.53339527661
-0.18  -0.2  4.30302206497
-0.18  -0.18  4.29103068001
-0.18  -0.16  4.16450867219
-0.18  -0.14  3.92683300277
-0.18  -0.12  3.5843474023
-0.18  -0.1  3.14619305203
-0.18  -0.08  2.62406459931
-0.18  -0.06  2.03189801931
-0.18  -0.04  1.38549865397
-0.18  -0.02  0.702119356377
-0.18  6.17561557e-16  1.27023473636e-14
-0.18  0.02  0.702119356377
-0.18  0.04  1.38549865397
-0.18  0.06  2.03189801931
-0.18  0.08  2.62406459931
-0.18  0.1  3.14619305203
-0.18  0.12  3.5843474023
-0.18  0.14  3.92683300277
-0.18  0.16  4.16450867219
-0.18  0.18  4.29103068001
-0.18  0.2  4.30302206497
-0.18  0.22  3.53339527661
-0.18  0.24  2.90142183616
-0.18  0.26  2.38248144131
-0.18  0.28  1.95635730987
-0.18  0.3  1.60644857816
-0.18  0.32  1.31912356769
-0.18  0.34  1.0831887248
-0.18  0.36  0.889452544306
-0.18  0.38  0.730367488563
-0.18  0.4  0.599735951922
-0.18  0.42  0.492468815577
-0.18  0.44  0.404387186625
-0.18  0.46  0.33205959755
-0.18  0.48  0.272668323755
-0.18  0.5  0.223899611178
-0.18  0.52  0.183853537497
-0.18  0.54  0.150969995313
-0.18  0.56  0.123967913781
-0.18  0.58  0.101795350894
-0.18  0.6  0.0835885121195
-0.18  0.62  0.0686380988623
-0.18  0.64  0.0563616757372
-0.18  0.66  0.0462809801634
-0.18  0.68  0.0380032903009
-0.18  0.7  0.0312061254666
-0.18  0.72  0.0256246829926
-0.18  0.74  0.0210415220939
-0.18  0.76  0.0172780928512
-0.18  0.78  0.0141877802966
-0.18  0.8  0.0116501926155
-0.18  0.82  0.00956647094479
-0.18  0.84  0.00785543804791
-0.18  0.86  0.00645043582745
-0.18  0.88  0.00529672847145
-0.18  0.9  0.00434937006596
-0.18  0.92  0.00357145360057
-0.18  0.94  0.00293267315212
-0.18  0.96  0.00240814323215
-0.18  0.98  0.0019774293028
-0.16  -1  0.00201742051712
-0.16  -0.98  0.00245684513616
-0.16  -0.96  0.00299198306544
-0.16  -0.94  0.00364368210763
-0.16  -0.92  0.00443733103133
-0.16  -0.9  0.00540384866188
-0.16  -0.88  0.00658088841114
-0.16  -0.86  0.00801430517204
-0.16  -0.84  0.00975994172488
-0.16  -0.82  0.0118858042498
-0.16  -0.8  0.0144747116988
-0.16  -0.78  0.0176275222408
-0.16  -0.76  0.0214670624753
-0.16  -0.74  0.0261429124878
-0.16  -0.72  0.0318372331627
-0.16  -0.7  0.0387718627728
-0.16  -0.68  0.0472169593126
-0.16  -0.66  0.0575015252632
-0.16  -0.64  0.0700262248084
-0.16  -0.62  0.0852789928349
-0.16  -0.6  0.103854043808
-0.16  -0.58  0.126475021065
-0.16  -0.56  0.15402318838
-0.16  -0.54  0.187571762068
-0.16  -0.52  0.228427721146
-0.16  -0.5  0.278182724375
-0.16  -0.48  0.338775117803
-0.16  -0.46  0.412565448484
-0.16  -0.44  0.502428426229
-0.16  -0.42  0.611864916003
-0.16  -0.4  0.745138323971
-0.16  -0.38  0.907440690467
-0.16  -0.36  1.10509496053
-0.16  -0.34  1.34580131199
-0.16  -0.32  1.63893713757
-0.16  -0.3  1.99592236757
-0.16  -0.28  2.43066436537
-0.16  -0.26  2.96009972786
-0.16  -0.24  3.60485409821
-0.16  -0.22  4.39004569578
-0.16  -0.2  5.346263867
-0.16  -0.18  5.33136524293
-0.16  -0.16  5.17416873578
-0.16  -0.14  4.87887003075
-0.16  -0.12  4.45335085769
-0.16  -0.1  3.90896862221
-0.16  -0.08  3.26025326855
-0.16  -0.06  2.52451946516
-0.16  -0.04  1.72140446403
-0.16  -0.02  0.872343968644
-0.16  6.17561557e-16  1.57819550332e-14
-0.16  0.02  0.872343968644
-0.16  0.04  1.72140446403
-0.16  0.06  2.52451946516
-0.16  0.08  3.26025326855
-0.16  0.1  3.90896862221
-0.16  0.12  4.45335085769
-0.16  0.14  4.87887003075
-0.16  0.16  5.17416873578
-0.16  0.18  5.33136524293
-0.16  0.2  5.346263867
-0.16  0.22  4.39004569578
-0.16  0.24  3.60485409821
-0.16  0.26  2.96009972786
-0.16  0.28  2.43066436537
-0.16  0.3  1.99592236757
-0.16  0.32  1.63893713757
-0.16  0.34  1.34580131199
-0.16  0.36  1.10509496053
-0.16  0.38  0.907440690467
-0.16  0.4  0.745138323971
-0.16  0.42  0.611864916003
-0.16  0.44  0.502428426229
-0.16  0.46  0.412565448484
-0.16  0.48  0.338775117803
-0.16  0.5  0.278182724375
-0.16  0.52  0.228427721146
-0.16  0.54  0.187571762068
-0.16  0.56  0.15402318838
-0.16  0.58  0.126475021065
-0.16  0.6  0.103854043808
-0.16  0.62  0.0852789928349
-0.16  0.64  0.0700262248084
-0.16  0.66  0.0575015252632
-0.16  0.68  0.0472169593126
-0.16  0.7  0.0387718627727
-0.16  0.72  0.0318372331627
-0.16  0.74  0.0261429124878
-0.16  0.76  0.0214670624753
-0.16  0.78  0.0176275222408
-0.16  0.8  0.0144747116988
-0.16  0.82  0.0118858042498
-0.16  0.84  0.00975994172488
-0.16  0.86  0.00801430517204
-0.16  0.88  0.00658088841114
-0.16  0.9  0.00540384866188
-0.16  0.92  0.00443733103133
-0.16  0.94  0.00364368210763
-0.16  0.96  0.00299198306544
-0.16  0.98  0.00245684513616
-0.14  -1  0.0025065319797
-0.14  -0.98  0.00305249245297
-0.14  -0.96  0.00371737135248
-0.14  -0.94  0.00452707090522
-0.14  -0.92  0.00551313523392
-0.14  -0.9  0.00671397924703
-0.14  -0.88  0.00817638519952
-0.14  -0.86  0.00995732522712
-0.14  -0.84  0.0121261808561
-0.14  -0.82  0.0147674459558
-0.14  -0.8  0.0179840184345
-0.14  -0.78  0.0219012089173
-0.14  -0.76  0.0266716225735
-0.14  -0.74  0.03248110428
-0.14  -0.72  0.0395559787315
-0.14  -0.7  0.0481718675546
-0.14  -0.68  0.0586644269239
-0.14  -0.66  0.0714424239918
-0.14  -0.64  0.0870036615622
-0.14  -0.62  0.105954371398
-0.14  -0.6  0.129032831686
-0.14  -0.58  0.157138128736
-0.14  -0.56  0.191365183418
-0.14  -0.54  0.233047406885
-0.14  -0.52  0.283808647351
-0.14  -0.5  0.345626451664
-0.14  -0.48  0.420909106205
-0.14  -0.46  0.512589458455
-0.14  -0.44  0.624239174316
-0.14  -0.42  0.760207882395
-0.14  -0.4  0.925792626023
-0.14  -0.38  1.12744422446
-0.14  -0.36  1.37301858272
-0.14  -0.34  1.67208274041
-0.14  -0.32  2.03628758267
-0.14  -0.3  2.47982173318
-0.14  -0.28  3.01996431186
-0.14  -0.26  3.67775809159
-0.14  -0.24  4.4788292786
-0.14  -0.22  5.45438585335
-0.14  -0.2  6.6424333652
-0.14  -0.18  6.62392265939
-0.14  -0.16  6.42861480517
-0.14  -0.14  6.06172270635
-0.14  -0.12  5.53303897076
-0.14  -0.1  4.85667453864
-0.14  -0.08  4.05068205177
-0.14  -0.06  3.13657401574
-0.14  -0.04  2.13874861611
-0.14  -0.02  1.08383851366
-0.14  6.17561557e-16  1.96081950477e-14
-0.14  0.02  1.08383851366
-0.14  0.04  2.13874861611
-0.14  0.06  3.13657401574
-0.14  0.08  4.05068205177
-0.14  0.1  4.85667453864
-0.14  0.12  5.53303897076
-0.14  0.14  6.06172270635
-0.14  0.16  6.42861480517
-0.14  0.18  6.62392265939
-0.14  0.2  6.6424333652
-0.14  0.22  5.45438585335
-0.14  0.24  4.4788292786
-0.14  0.26  3.67775809159
-0.14  0.28  3.01996431186
-0.14  0.3  2.47982173318
-0.14  0.32  2.03628758267
-0.14  0.34  1.67208274041
-0.14  0.36  1.37301858272
-0.14  0.38  1.12744422446
-0.14  0.4  0.925792626023
-0.14  0.42  0.760207882395
-0.14  0.44  0.624239174315
-0.14  0.46  0.512589458455
-0.14  0.48  0.420909106205
-0.14  0.5  0.345626451664
-0.14  0.52  0.283808647351
-0.14  0.54  0.233047406885
-0.14  0.56  0.191365183418
-0.14  0.58  0.157138128736
-0.14  0.6  0.129032831686
-0.14  0.62  0.105954371398
-0.14  0.64  0.0870036615622
-0.14  0.66  0.0714424239918
-0.14  0.68  0.0586644269239
-0.14  0.7  0.0481718675546
-0.14  0.72  0.0395559787314
-0.14  0.74  0.03248110428
-0.14  0.76  0.0266716225735
-0.14  0.78  0.0219012089173
-0.14  0.8  0.0179840184345
-0.14  0.82  0.0147674459558
-0.14  0.84  0.0121261808561
-0.14  0.86  0.00995732522712
-0.14  0.88  0.00817638519951
-0.14  0.9  0.00671397924703
-0.14  0.92  0.00551313523392
-0.14  0.94  0.00452707090522
-0.14  0.96  0.00371737135248
-0.14  0.98  0.00305249245296
-0.12  -1  0.00311422557268
-0.12  -0.98  0.00379255087684
-0.12  -0.96  0.00461862566399
-0.12  -0.94  0.00562463200014
-0.12  -0.92  0.00684976169073
-0.12  -0.9  0.00834174310757
-0.12  -0.88  0.0101587005818
-0.12  -0.86  0.0123714188005
-0.12  -0.84  0.0150661004236
-0.12  -0.82  0.0183477243503
-0.12  -0.8  0.0223441354676
-0.12  -0.78  0.0272110252074
-0.12  -0.76  0.0331379969439
-0.12  -0.74  0.040355952526
-0.12  -0.72  0.0491460877083
-0.12  -0.7  0.0598508469221
-0.12  -0.68  0.0728872641613
-0.12  -0.66  0.0887632097143
-0.12  -0.64  0.108097175679
-0.12  -0.62  0.13164237106
-0.12  -0.6  0.160316065148
-0.12  -0.58  0.195235322316
-0.12  -0.56  0.237760520412
-0.12  -0.54  0.289548348095
-0.12  -0.52  0.352616345807
-0.12  -0.5  0.429421504726
-0.12  -0.48  0.522955985774
-0.12  -0.46  0.636863687651
-0.12  -0.44  0.775582205161
-0.12  -0.42  0.944515708191
-0.12  -0.4  1.15024547634
-0.12  -0.38  1.40078629119
-0.12  -0.36  1.70589867463
-0.12  -0.34  2.07746913744
-0.12  -0.32  2.52997325175
-0.12  -0.3  3.08103958765
-0.12  -0.28  3.7521364837
-0.12  -0.26  4.56940840641
-0.12  -0.24  5.56469448148
-0.12  -0.22  6.77676887642
-0.12  -0.2  8.25285135729
-0.12  -0.18  8.22985284226
-0.12  -0.16  7.98719377424
-0.12  -0.14  7.53135089419
-0.12  -0.12  6.87449096877
-0.12  -0.1  6.03414605077
-0.12  -0.08  5.0327455363
-0.12  -0.06  3.89701750847
-0.12  -0.04  2.65727534608
-0.12  -0.02  1.34660863825
-0.12  6.17561557e-16  2.43620839257e-14
-0.12  0.02  1.34660863825
-0.12  0.04  2.65727534608
-0.12  0.06  3.89701750847
-0.12  0.08  5.0327455363
-0.12  0.1  6.03414605077
-0.12  0.12  6.87449096877
-0.12  0.14  7.53135089419
-0.12  0.16  7.98719377424
-0.12  0.18  8.22985284226
-0.12  0.2  8.25285135729
-0.12  0.22  6.77676887642
-0.12  0.24  5.56469448148
-0.12  0.26  4.56940840641
-0.12  0.28  3.7521364837
-0.12  0.3  3.08103958765
-0.12  0.32  2.52997325175
-0.12  0.34  2.07746913743
-0.12  0.36  1.70589867463
-0.12  0.38  1.40078629119
-0.12  0.4  1.15024547634
-0.12  0.42  0.944515708191
-0.12  0.44  0.775582205161
-0.12  0.46  0.636863687651
-0.12  0.48  0.522955985774
-0.12  0.5  0.429421504726
-0.12  0.52  0.352616345807
-0.12  0.54  0.289548348095
-0.12  0.56  0.237760520412
-0.12  0.58  0.195235322316
-0.12  0.6  0.160316065148
-0.12  0.62  0.13164237106
-0.12  0.64  0.108097175679
-0.12  0.66  0.0887632097143
-0.12  0.68  0.0728872641613
-0.12  0.7  0.0598508469221
-0.12  0.72  0.0491460877083
-0.12  0.74  0.040355952526
-0.12  0.76  0.0331379969439
-0.12  0.78  0.0272110252074
-0.12  0.8  0.0223441354676
-0.12  0.82  0.0183477243503
-0.12  0.84  0.0150661004236
-0.12  0.86  0.0123714188005
-0.12  0.88  0.0101587005818
-0.12  0.9  0.00834174310757
-0.12  0.92  0.00684976169073
-0.12  0.94  0.00562463200014
-0.12  0.96  0.00461862566399
-0.12  0.98  0.00379255087684
-0.1  -1  0.00386925081989
-0.1  -0.98  0.00471203201157
-0.1  -0.96  0.00573838365915
-0.1  -0.94  0.00698829017688
-0.1  -0.92  0.00851044518754
-0.1  -0.9  0.0103641485194
-0.1  -0.88  0.012621616398
-0.1  -0.86  0.0153707948317
-0.1  -0.84  0.0187187857964
-0.1  -0.82  0.0227960196937
-0.1  -0.8  0.0277613366341
-0.1  -0.78  0.0338081745002
-0.1  -0.76  0.0411721048628
-0.1  -0.74  0.0501400103347
-0.1  -0.72  0.0610612608887
-0.1  -0.7  0.0743613245476
-0.1  -0.68  0.0905583426872
-0.1  -0.66  0.110283315691
-0.1  -0.64  0.134304685342
