-0.26  0.52  0.00829724575157
-0.26  0.54  0.00635750821185
-0.26  0.56  0.00487124425068
-0.26  0.58  0.00373244040889
-0.26  0.6  0.00285986714872
-0.26  0.62  0.00219128484646
-0.26  0.64  0.00167900431336
-0.26  0.66  0.00128648518189
-0.26  0.68  0.000985729524374
-0.26  0.7  0.000755284793715
-0.26  0.72  0.000578713638489
-0.26  0.74  0.000443421446003
-0.26  0.76  0.000339757983394
-0.26  0.78  0.000260329057876
-0.26  0.8  0.000199469097672
-0.26  0.82  0.000152837033448
-0.26  0.84  0.000117106654945
-0.26  0.86  0.000089729356315
-0.26  0.88  0.0000687523470676
-0.26  0.9  0.0000526793618212
-0.26  0.92  0.0000403639334547
-0.26  0.94  0.0000309276169568
-0.26  0.96  0.0000236973309774
-0.26  0.98  0.000018157347727
-0.24  -1  0.0000182149838223
-0.24  -0.98  0.0000237725524055
-0.24  -0.96  0.0000310257891736
-0.24  -0.94  0.0000404920589689
-0.24  -0.92  0.0000528465796749
-0.24  -0.9  0.0000689705847136
-0.24  -0.88  0.0000900141803877
-0.24  -0.86  0.00011747838161
-0.24  -0.84  0.000153322177532
-0.24  -0.82  0.00020010226393
-0.24  -0.8  0.000261155409313
-0.24  -0.78  0.000340836462685
-0.24  -0.76  0.000444828979807
-0.24  -0.74  0.000580550624535
-0.24  -0.72  0.000757682262055
-0.24  -0.7  0.000988858483605
-0.24  -0.68  0.00129056881699
-0.24  -0.66  0.00168433390521
-0.24  -0.64  0.00219824054859
-0.24  -0.62  0.00286894510316
-0.24  -0.6  0.00374428813545
-0.24  -0.58  0.00488670683375
-0.24  -0.56  0.0063776885793
-0.24  -0.54  0.00832358334524
-0.24  -0.52  0.0108631895151
-0.24  -0.5  0.0141776542081
-0.24  -0.48  0.0185033942899
-0.24  -0.46  0.0241489597096
-0.24  -0.44  0.0315170420042
-0.24  -0.42  0.0411331978123
-0.24  -0.4  0.0536833362103
-0.24  -0.38  0.0700626437997
-0.24  -0.36  0.091439437314
-0.24  -0.34  0.119338498276
-0.24  -0.32  0.155749833869
-0.24  -0.3  0.203270621809
-0.24  -0.28  0.265290463971
-0.24  -0.26  0.346233162706
-0.24  -0.24  0.451872265451
-0.24  -0.22  0.589742885078
-0.24  -0.2  0.0392717830078
-0.24  -0.18  0.165311424965
-0.24  -0.16  0.365663920089
-0.24  -0.14  0.556658205124
-0.24  -0.12  0.733406281702
-0.24  -0.1  0.891384745836
-0.24  -0.08  1.0265505526
-0.24  -0.06  1.13544448727
-0.24  -0.04  1.21527969486
-0.24  -0.02  1.26401300239
-0.24  6.17561557e-16  1.28039720851
-0.24  0.02  1.26401300239
-0.24  0.04  1.21527969486
-0.24  0.06  1.13544448727
-0.24  0.08  1.0265505526
-0.24  0.1  0.891384745836
-0.24  0.12  0.733406281702
-0.24  0.14  0.556658205124
-0.24  0.16  0.365663920089
-0.24  0.18  0.165311424965
-0.24  0.2  0.769679170623
-0.24  0.22  0.589742885078
-0.24  0.24  0.451872265451
-0.24  0.26  0.346233162706
-0.24  0.28  0.265290463971
-0.24  0.3  0.203270621809
-0.24  0.32  0.155749833869
-0.24  0.34  0.119338498276
-0.24  0.36  0.091439437314
-0.24  0.38  0.0700626437997
-0.24  0.4  0.0536833362103
-0.24  0.42  0.0411331978123
-0.24  0.44  0.0315170420042
-0.24  0.46  0.0241489597096
-0.24  0.48  0.0185033942899
-0.24  0.5  0.0141776542081
-0.24  0.52  0.0108631895151
-0.24  0.54  0.00832358334524
-0.24  0.56  0.00637768857929
-0.24  0.58  0.00488670683375
-0.24  0.6  0.00374428813545
-0.24  0.62  0.00286894510316
-0.24  0.64  0.00219824054859
-0.24  0.66  0.00168433390521
-0.24  0.68  0.00129056881699
-0.24  0.7  0.000988858483605
-0.24  0.72  0.000757682262055
-0.24  0.74  0.000580550624535
-0.24  0.76  0.000444828979807
-0.24  0.78  0.000340836462685
-0.24  0.8  0.000261155409313
-0.24  0.82  0.00020010226393
-0.24  0.84  0.000153322177532
-0.24  0.86  0.00011747838161
-0.24  0.88  0.0000900141803877
-0.24  0.9  0.0000689705847136
-0.24  0.92  0.0000528465796749
-0.24  0.94  0.0000404920589689
-0.24  0.96  0.0000310257891736
-0.24  0.98  0.0000237725524055
-0.22  -1  0.0000238480126057
-0.22  -0.98  0.0000311242730142
-0.22  -0.96  0.0000406205911864
-0.22  -0.94  0.0000530143283212
-0.22  -0.92  0.000069189515102
-0.22  -0.9  0.0000902999085653
-0.22  -0.88  0.000117851288232
-0.22  -0.86  0.000153808861587
-0.22  -0.84  0.000200737440021
-0.22  -0.82  0.000261984383801
-0.22  -0.8  0.000341918365346
-0.22  -0.78  0.000446240981485
-0.22  -0.76  0.000582393441647
-0.22  -0.74  0.000760087340577
-0.22  -0.72  0.000991997374957
-0.22  -0.7  0.0012946654146
-0.22  -0.68  0.00168968041456
-0.22  -0.66  0.0022052183299
-0.22  -0.64  0.00287805187336
-0.22  -0.62  0.00375617346974
-0.22  -0.6  0.00490221849905
-0.22  -0.58  0.00639793300442
-0.22  -0.56  0.00835000454121
-0.22  -0.54  0.0108976720747
-0.22  -0.52  0.0142226577317
-0.22  -0.5  0.018562128826
-0.22  -0.48  0.0242256147235
-0.22  -0.46  0.0316170852078
-0.22  -0.44  0.0412637651695
-0.22  -0.42  0.0538537409371
-0.22  -0.4  0.0702850406648
-0.22  -0.38  0.0917296896239
-0.22  -0.36  0.119717309386
-0.22  -0.34  0.156244223931
-0.22  -0.32  0.203915855083
-0.22  -0.3  0.266132564188
-0.22  -0.28  0.347332195882
-0.22  -0.26  0.45330662433
-0.22  -0.24  0.591614880791
-0.22  -0.22  0.772122330421
-0.22  -0.2  0.051416679002
-0.22  -0.18  0.216434391866
-0.22  -0.16  0.478746391477
-0.22  -0.14  0.728806131391
-0.22  -0.12  0.960213987657
-0.22  -0.1  1.16704768242
-0.22  -0.08  1.34401384913
-0.22  -0.06  1.48658350233
-0.22  -0.04  1.59110794527
-0.22  -0.02  1.65491214864
-0.22  6.17561557e-16  1.67636321101
-0.22  0.02  1.65491214864
-0.22  0.04  1.59110794527
-0.22  0.06  1.48658350233
-0.22  0.08  1.34401384913
-0.22  0.1  1.16704768242
-0.22  0.12  0.960213987657
-0.22  0.14  0.728806131391
-0.22  0.16  0.478746391477
-0.22  0.18  0.216434391866
-0.22  0.2  1.00770435716
-0.22  0.22  0.772122330421
-0.22  0.24  0.59161488079
-0.22  0.26  0.45330662433
-0.22  0.28  0.347332195882
-0.22  0.3  0.266132564188
-0.22  0.32  0.203915855083
-0.22  0.34  0.156244223931
-0.22  0.36  0.119717309386
-0.22  0.38  0.0917296896239
-0.22  0.4  0.0702850406648
-0.22  0.42  0.0538537409371
-0.22  0.44  0.0412637651695
-0.22  0.46  0.0316170852078
-0.22  0.48  0.0242256147235
-0.22  0.5  0.018562128826
-0.22  0.52  0.0142226577317
-0.22  0.54  0.0108976720747
-0.22  0.56  0.00835000454121
-0.22  0.58  0.00639793300442
-0.22  0.6  0.00490221849905
-0.22  0.62  0.00375617346974
-0.22  0.64  0.00287805187336
-0.22  0.66  0.0022052183299
-0.22  0.68  0.00168968041456
-0.22  0.7  0.0012946654146
-0.22  0.72  0.000991997374957
-0.22  0.74  0.000760087340577
-0.22  0.76  0.000582393441647
-0.22  0.78  0.000446240981484
-0.22  0.8  0.000341918365346
-0.22  0.82  0.000261984383801
-0.22  0.84  0.000200737440021
-0.22  0.86  0.000153808861587
-0.22  0.88  0.000117851288232
-0.22  0.9  0.0000902999085653
-0.22  0.92  0.000069189515102
-0.22  0.94  0.0000530143283212
-0.22  0.96  0.0000406205911864
-0.22  0.98  0.0000311242730142
-0.2  -1  0.0000312230694679
-0.2  -0.98  0.0000407495313983
-0.2  -0.96  0.0000531826094448
-0.2  -0.94  0.0000694091404318
-0.2  -0.92  0.0000905865437176
-0.2  -0.9  0.000118225378555
-0.2  -0.88  0.000154297090503
-0.2  -0.86  0.000201374632324
-0.2  -0.84  0.000262815989668
-0.2  -0.82  0.000343003702245
-0.2  -0.8  0.000447657465219
-0.2  -0.78  0.000584242108335
-0.2  -0.76  0.000762500053437
-0.2  -0.74  0.000995146229958
-0.2  -0.72  0.00129877501587
-0.2  -0.7  0.00169504389511
-0.2  -0.68  0.00221221826049
-0.2  -0.66  0.0028871875508
-0.2  -0.64  0.00376809653115
-0.2  -0.62  0.00491777940236
-0.2  -0.6  0.00641824169056
-0.2  -0.58  0.00837650960485
-0.2  -0.56  0.0109322640909
-0.2  -0.54  0.0142678041082
-0.2  -0.52  0.0186210498007
-0.2  -0.5  0.0243025130601
-0.2  -0.48  0.0317174459743
-0.2  -0.46  0.0413947469812
-0.2  -0.44  0.0540246865724
-0.2  -0.42  0.0705081434747
-0.2  -0.4  0.0920208632693
-0.2  -0.38  0.120097322941
-0.2  -0.36  0.156740183314
-0.2  -0.34  0.204563136494
-0.2  -0.32  0.266977337447
-0.2  -0.3  0.348434717673
-0.2  -0.28  0.454745536234
-0.2  -0.26  0.5934928187
-0.2  -0.24  0.774573245436
-0.2  -0.22  1.01090307017
-0.2  -0.2  0.0673174141106
-0.2  -0.18  0.283367262682
-0.2  -0.16  0.626799896736
-0.2  -0.14  0.954191229488
-0.2  -0.12  1.25716253746
-0.2  -0.1  1.52796006373
-0.2  -0.08  1.75965345503
-0.2  -0.06  1.94631312599
-0.2  -0.04  2.08316201134
-0.2  -0.02  2.16669782235
-0.2  6.17561557e-16  2.1947826788
-0.2  0.02  2.16669782235
-0.2  0.04  2.08316201134
-0.2  0.06  1.94631312599
-0.2  0.08  1.75965345503
-0.2  0.1  1.52796006373
-0.2  0.12  1.25716253746
-0.2  0.14  0.954191229488
-0.2  0.16  0.626799896736
-0.2  0.18  0.283367262682
-0.2  0.2  1.31933942115
-0.2  0.22  1.01090307017
-0.2  0.24  0.774573245436
-0.2  0.26  0.5934928187
-0.2  0.28  0.454745536234
-0.2  0.3  0.348434717673
-0.2  0.32  0.266977337447
-0.2  0.34  0.204563136494
-0.2  0.36  0.156740183314
-0.2  0.38  0.120097322941
-0.2  0.4  0.0920208632693
-0.2  0.42  0.0705081434747
-0.2  0.44  0.0540246865724
-0.2  0.46  0.0413947469812
-0.2  0.48  0.0317174459743
-0.2  0.5  0.0243025130601
-0.2  0.52  0.0186210498007
-0.2  0.54  0.0142678041082
-0.2  0.56  0.0109322640909
-0.2  0.58  0.00837650960485
-0.2  0.6  0.00641824169056
-0.2  0.62  0.00491777940236
-0.2  0.64  0.00376809653115
-0.2  0.66  0.0028871875508
-0.2  0.68  0.00221221826049
-0.2  0.7  0.00169504389511
-0.2  0.72  0.00129877501586
-0.2  0.74  0.000995146229958
-0.2  0.76  0.000762500053437
-0.2  0.78  0.000584242108335
-0.2  0.8  0.000447657465219
-0.2  0.82  0.000343003702245
-0.2  0.84  0.000262815989668
-0.2  0.86  0.000201374632324
-0.2  0.88  0.000154297090503
-0.2  0.9  0.000118225378555
-0.2  0.92  0.0000905865437176
-0.2  0.94  0.0000694091404318
-0.2  0.96  0.0000531826094448
-0.2  0.98  0.0000407495313983
-0.18  -1  0.0000408788808996
-0.18  -0.98  0.000053351424736
-0.18  -0.96  0.000069629462909
-0.18  -0.94  0.0000908740887237
-0.18  -0.92  0.000118600656337
-0.18  -0.9  0.000154786869184
-0.18  -0.88  0.000202013847239
-0.18  -0.86  0.000263650235267
-0.18  -0.84  0.000344092484283
-0.18  -0.82  0.000449078445238
-0.18  -0.8  0.000586096643166
-0.18  -0.78  0.000764920424869
-0.18  -0.76  0.000998305080236
-0.18  -0.74  0.00130289766206
-0.18  -0.72  0.00170042440073
-0.18  -0.7  0.00221924041065
-0.18  -0.68  0.00289635222723
-0.18  -0.66  0.00378005743942
-0.18  -0.64  0.00493338969999
-0.18  -0.62  0.0064386148417
-0.18  -0.6  0.0084030988024
-0.18  -0.58  0.010966965911
-0.18  -0.56  0.0143130937909
-0.18  -0.54  0.0186801578057
-0.18  -0.52  0.0243796554919
-0.18  -0.5  0.0318181253116
-0.18  -0.48  0.0415261445628
-0.18  -0.46  0.0541961748332
-0.18  -0.44  0.0707319544704
-0.18  -0.42  0.0923129611749
-0.18  -0.4  0.120478542756
-0.18  -0.38  0.157237716999
-0.18  -0.36  0.205212472542
-0.18  -0.34  0.267824792234
-0.18  -0.32  0.349540739151
-0.18  -0.3  0.456189015614
-0.18  -0.28  0.595376717667
-0.18  -0.26  0.777031940287
-0.18  -0.24  1.01411193671
-0.18  -0.22  1.32352734406
-0.18  -0.2  0.0881354908658
-0.18  -0.18  0.370999289289
-0.18  -0.16  0.820639314557
-0.18  -0.14  1.24927722643
-0.18  -0.12  1.64594316049
-0.18  -0.1  2.0004854913
-0.18  -0.08  2.30383063672
-0.18  -0.06  2.54821527244
-0.18  -0.04  2.72738501394
-0.18  -0.02  2.83675448105
-0.18  6.17561557e-16  2.8735246488
-0.18  0.02  2.83675448105
-0.18  0.04  2.72738501394
-0.18  0.06  2.54821527244
-0.18  0.08  2.30383063672
-0.18  0.1  2.0004854913
-0.18  0.12  1.64594316049
-0.18  0.14  1.24927722643
-0.18  0.16  0.820639314557
-0.18  0.18  0.370999289289
-0.18  0.2  1.72734839919
-0.18  0.22  1.32352734406
-0.18  0.24  1.01411193671
-0.18  0.26  0.777031940287
-0.18  0.28  0.595376717667
-0.18  0.3  0.456189015614
-0.18  0.32  0.349540739151
-0.18  0.34  0.267824792234
-0.18  0.36  0.205212472542
-0.18  0.38  0.157237716999
-0.18  0.4  0.120478542756
-0.18  0.42  0.0923129611749
-0.18  0.44  0.0707319544704
-0.18  0.46  0.0541961748332
-0.18  0.48  0.0415261445628
-0.18  0.5  0.0318181253116
-0.18  0.52  0.0243796554919
-0.18  0.54  0.0186801578057
-0.18  0.56  0.0143130937909
-0.18  0.58  0.010966965911
-0.18  0.6  0.0084030988024
-0.18  0.62  0.00643861484169
-0.18  0.64  0.00493338969998
-0.18  0.66  0.00378005743942
-0.18  0.68  0.00289635222723
-0.18  0.7  0.00221924041065
-0.18  0.72  0.00170042440073
-0.18  0.74  0.00130289766206
-0.18  0.76  0.000998305080236
-0.18  0.78  0.000764920424869
-0.18  0.8  0.000586096643166
-0.18  0.82  0.000449078445238
-0.18  0.84  0.000344092484283
-0.18  0.86  0.000263650235267
-0.18  0.88  0.000202013847239
-0.18  0.9  0.000154786869184
-0.18  0.92  0.000118600656337
-0.18  0.94  0.0000908740887237
-0.18  0.96  0.000069629462909
-0.18  0.98  0.000053351424736
-0.16  -1  0.0000535207758904
-0.16  -0.98  0.0000698504847464
-0.16  -0.96  0.0000911625464717
-0.16  -0.94  0.000118977125347
-0.16  -0.92  0.000155278202547
-0.16  -0.9  0.000202655091187
-0.16  -0.88  0.000264487128975
-0.16  -0.86  0.000345184722395
-0.16  -0.84  0.000450503935812
-0.16  -0.82  0.000587957064769
-0.16  -0.8  0.000767348479183
-0.16  -0.78  0.00100147395752
-0.16  -0.76  0.0013070333946
-0.16  -0.74  0.00170582198545
-0.16  -0.72  0.00222628485093
-0.16  -0.7  0.0029055459947
-0.16  -0.68  0.00379205631469
-0.16  -0.66  0.00494904954871
-0.16  -0.64  0.00645905266246
-0.16  -0.62  0.00842977240089
-0.16  -0.6  0.0110017778836
-0.16  -0.58  0.0143585272347
-0.16  -0.56  0.0187394534347
-0.16  -0.54  0.0244570427935
-0.16  -0.52  0.0319191242311
-0.16  -0.5  0.0416579592342
-0.16  -0.48  0.0543682074418
-0.16  -0.46  0.0709564758998
-0.16  -0.44  0.0926059862744
-0.16  -0.42  0.120860972661
-0.16  -0.4  0.157736829985
-0.16  -0.38  0.20586386975
-0.16  -0.36  0.268674937061
-0.16  -0.34  0.350650271427
-0.16  -0.32  0.457637076969
-0.16  -0.3  0.597266596615
-0.16  -0.28  0.779498439668
-0.16  -0.26  1.01733098902
-0.16  -0.24  1.32772856052
-0.16  -0.22  1.73283144762
-0.16  -0.2  0.11539160933
-0.16  -0.18  0.485731736793
-0.16  -0.16  1.07442405161
-0.16  -0.14  1.63561929753
-0.16  -0.12  2.15495515245
-0.16  -0.1  2.61914057566
-0.16  -0.08  3.01629595732
-0.16  -0.06  3.33625714588
-0.16  -0.04  3.57083557293
-0.16  -0.02  3.71402781816
-0.16  6.17561557e-16  3.76216925119
-0.16  0.02  3.71402781816
-0.16  0.04  3.57083557293
-0.16  0.06  3.33625714588
-0.16  0.08  3.01629595732
-0.16  0.1  2.61914057566
-0.16  0.12  2.15495515245
-0.16  0.14  1.63561929753
-0.16  0.16  1.07442405161
-0.16  0.18  0.485731736793
-0.16  0.2  2.2615351625
-0.16  0.22  1.73283144762
-0.16  0.24  1.32772856052
-0.16  0.26  1.01733098902
-0.16  0.28  0.779498439668
-0.16  0.3  0.597266596615
-0.16  0.32  0.457637076969
-0.16  0.34  0.350650271427
-0.16  0.36  0.268674937061
-0.16  0.38  0.20586386975
-0.16  0.4  0.157736829985
-0.16  0.42  0.120860972661
-0.16  0.44  0.0926059862744
-0.16  0.46  0.0709564758998
-0.16  0.48  0.0543682074418
-0.16  0.5  0.0416579592342
-0.16  0.52  0.0319191242311
-0.16  0.54  0.0244570427935
-0.16  0.56  0.0187394534347
-0.16  0.58  0.0143585272347
-0.16  0.6  0.0110017778836
-0.16  0.62  0.00842977240089
-0.16  0.64  0.00645905266246
-0.16  0.66  0.00494904954871
-0.16  0.68  0.00379205631469
-0.16  0.7  0.0029055459947
-0.16  0.72  0.00222628485093
-0.16  0.74  0.00170582198545
-0.16  0.76  0.0013070333946
-0.16  0.78  0.00100147395752
-0.16  0.8  0.000767348479183
-0.16  0.82  0.000587957064769
-0.16  0.84  0.000450503935812
-0.16  0.86  0.000345184722395
-0.16  0.88  0.000264487128975
-0.16  0.9  0.000202655091187
-0.16  0.92  0.000155278202547
-0.16  0.94  0.000118977125347
-0.16  0.96  0.0000911625464717
-0.16  0.98  0.0000698504847464
-0.14  -1  0.000070072208164
-0.14  -0.98  0.0000914519198588
-0.14  -0.96  0.000119354789366
-0.14  -0.94  0.00015577109553
-0.14  -0.92  0.000203298370609
-0.14  -0.9  0.0002653266792
-0.14  -0.88  0.000346280427552
-0.14  -0.86  0.000451933951261
-0.14  -0.84  0.000589823391829
-0.14  -0.82  0.000769784240766
-0.14  -0.8  0.00100465289363
-0.14  -0.78  0.00131118225501
-0.14  -0.76  0.0017112367035
-0.14  -0.74  0.00223335165208
-0.14  -0.72  0.00291476894555
-0.14  -0.7  0.00380409327749
-0.14  -0.68  0.00496475910583
-0.14  -0.66  0.00647955535812
-0.14  -0.64  0.00845653066826
-0.14  -0.62  0.0110367003584
-0.14  -0.6  0.0144041048959
-0.14  -0.58  0.0187989372833
-0.14  -0.56  0.0245346757424
-0.14  -0.54  0.0320204437472
-0.14  -0.52  0.0417901923193
-0.14  -0.5  0.0545407861263
-0.14  -0.48  0.071181710018
-0.14  -0.46  0.0928999415109
-0.14  -0.44  0.121244616497
-0.14  -0.42  0.158237527284
-0.14  -0.4  0.206517334661
-0.14  -0.38  0.269527780466
-0.14  -0.36  0.351763325643
-0.14  -0.34  0.459089734844
-0.14  -0.32  0.599162474525
-0.14  -0.3  0.781972768353
-0.14  -0.28  1.02056025944
-0.14  -0.26  1.33194311272
-0.14  -0.24  1.73833190066
-0.14  -0.22  2.26871385721
-0.14  -0.2  0.15107674982
-0.14  -0.18  0.635945477363
-0.14  -0.16  1.40669234607
-0.14  -0.14  2.14143860935
-0.14  -0.12  2.82138036144
-0.14  -0.1  3.42911627448
-0.14  -0.08  3.94909293988
-0.14  -0.06  4.3680029171
-0.14  -0.04  4.67512530271
-0.14  -0.02  4.86260010382
-0.14  6.17561557e-16  4.92562939405
-0.14  0.02  4.86260010382
-0.14  0.04  4.67512530271
-0.14  0.06  4.3680029171
-0.14  0.08  3.94909293988
-0.14  0.1  3.42911627448
-0.14  0.12  2.82138036144
-0.14  0.14  2.14143860935
-0.14  0.16  1.40669234607
-0.14  0.18  0.635945477363
-0.14  0.2  2.96092050312
-0.14  0.22  2.26871385721
-0.14  0.24  1.73833190066
-0.14  0.26  1.33194311272
-0.14  0.28  1.02056025944
-0.14  0.3  0.781972768353
-0.14  0.32  0.599162474525
-0.14  0.34  0.459089734844
-0.14  0.36  0.351763325643
-0.14  0.38  0.269527780466
-0.14  0.4  0.206517334661
-0.14  0.42  0.158237527284
-0.14  0.44  0.121244616497
-0.14  0.46  0.0928999415109
-0.14  0.48  0.071181710018
-0.14  0.5  0.0545407861263
-0.14  0.52  0.0417901923193
-0.14  0.54  0.0320204437472
-0.14  0.56  0.0245346757424
-0.14  0.58  0.0187989372833
-0.14  0.6  0.0144041048959
-0.14  0.62  0.0110367003584
-0.14  0.64  0.00845653066826
-0.14  0.66  0.00647955535812
-0.14  0.68  0.00496475910583
-0.14  0.7  0.00380409327749
-0.14  0.72  0.00291476894555
-0.14  0.74  0.00223335165208
-0.14  0.76  0.0017112367035
-0.14  0.78  0.00131118225501
-0.14  0.8  0.00100465289363
-0.14  0.82  0.000769784240766
-0.14  0.84  0.000589823391829
-0.14  0.86  0.000451933951261
-0.14  0.88  0.000346280427552
-0.14  0.9  0.0002653266792
-0.14  0.92  0.000203298370609
-0.14  0.94  0.00015577109553
-0.14  0.96  0.000119354789366
-0.14  0.98  0.0000914519198588
-0.12  -1  0.0000917422117915
-0.12  -0.98  0.000119733652189
-0.12  -0.96  0.000156265553081
-0.12  -0.94  0.000203943691965
-0.12  -0.92  0.000266168894373
-0.12  -0.9  0.000347379610759
-0.12  -0.88  0.000453368505947
-0.12  -0.86  0.000591695643091
-0.12  -0.84  0.000772227734083
-0.12  -0.82  0.00100784192051
-0.12  -0.8  0.00131534428498
-0.12  -0.78  0.00171666860926
-0.12  -0.76  0.00224044088507
-0.12  -0.74  0.00292402117243
-0.12  -0.72  0.0038161684487
-0.12  -0.7  0.00498051852913
-0.12  -0.68  0.00650012313462
-0.12  -0.66  0.00848337387325
-0.12  -0.64  0.0110717336861
-0.12  -0.62  0.0144498272323
-0.12  -0.6  0.0188586099489
-0.12  -0.58  0.0246125551183
-0.12  -0.56  0.0321220848775
-0.12  -0.54  0.0419228451462
-0.12  -0.52  0.0547139126198
-0.12  -0.5  0.0714076590873
-0.12  -0.48  0.0931948298371
-0.12  -0.46  0.121629478117
-0.12  -0.44  0.158739813925
-0.12  -0.42  0.207172873837
-0.12  -0.4  0.270383331016
-0.12  -0.38  0.35287991298
-0.12  -0.36  0.460547003829
-0.12  -0.34  0.601064370439
-0.12  -0.32  0.784454951194
-0.12  -0.3  1.02379978039
-0.12  -0.28  1.33617104299
-0.12  -0.26  1.74384981354
-0.12  -0.24  2.27591533894
-0.12  -0.22  2.97031922692
-0.12  -0.2  0.197797608237
-0.12  -0.18  0.832613188605
-0.12  -0.16  1.84171543212
-0.12  -0.14  2.80368379397
-0.12  -0.12  3.69389921405
-0.12  -0.1  4.48957896082
-0.12  -0.08  5.17035969563
-0.12  -0.06  5.71881861906
-0.12  -0.04  6.12091936177
-0.12  -0.02  6.36637120865
-0.12  6.17561557e-16  6.44889246272
-0.12  0.02  6.36637120865
-0.12  0.04  6.12091936177
-0.12  0.06  5.71881861906
-0.12  0.08  5.17035969563
-0.12  0.1  4.48957896082
-0.12  0.12  3.69389921405
-0.12  0.14  2.80368379397
-0.12  0.16  1.84171543212
-0.12  0.18  0.832613188605
-0.12  0.2  3.87659248955
-0.12  0.22  2.97031922692
-0.12  0.24  2.27591533894
-0.12  0.26  1.74384981354
-0.12  0.28  1.33617104299
-0.12  0.3  1.02379978039
-0.12  0.32  0.784454951194
-0.12  0.34  0.601064370439
-0.12  0.36  0.460547003829
-0.12  0.38  0.35287991298
-0.12  0.4  0.270383331016
-0.12  0.42  0.207172873837
-0.12  0.44  0.158739813925
-0.12  0.46  0.121629478117
-0.12  0.48  0.0931948298371
-0.12  0.5  0.0714076590873
-0.12  0.52  0.0547139126198
-0.12  0.54  0.0419228451462
-0.12  0.56  0.0321220848775
-0.12  0.58  0.0246125551183
-0.12  0.6  0.0188586099489
-0.12  0.62  0.0144498272323
-0.12  0.64  0.0110717336861
-0.12  0.66  0.00848337387325
-0.12  0.68  0.00650012313462
-0.12  0.7  0.00498051852913
-0.12  0.72  0.0038161684487
-0.12  0.74  0.00292402117242
-0.12  0.76  0.00224044088507
-0.12  0.78  0.00171666860926
-0.12  0.8  0.00131534428498
-0.12  0.82  0.00100784192051
-0.12  0.84  0.000772227734083
-0.12  0.86  0.000591695643091
-0.12  0.88  0.000453368505947
-0.12  0.9  0.000347379610759
-0.12  0.92  0.000266168894373
-0.12  0.94  0.000203943691965
-0.12  0.96  0.000156265553081
-0.12  0.98  0.000119733652189
-0.1  -1  0.00012011371762
-0.1  -0.98  0.000156761580169
-0.1  -0.96  0.000204591061737
-0.1  -0.94  0.000267013782953
-0.1  -0.92  0.000348482283057
-0.1  -0.9  0.000454807614279
-0.1  -0.88  0.00059357383736
-0.1  -0.86  0.000774678983677
-0.1  -0.84  0.00101104107017
-0.1  -0.82  0.0013195195263
-0.1  -0.8  0.00172211775728
-0.1  -0.78  0.00224755262112
-0.1  -0.76  0.00293330276825
-0.1  -0.74  0.00382828194961
-0.1  -0.72  0.00499632797689
-0.1  -0.7  0.00652075619854
-0.1  -0.68  0.00851030228549
-0.1  -0.66  0.0111068782186
-0.1  -0.64  0.0144956947033
-0.1  -0.62  0.018918472031
-0.1  -0.6  0.0246906817033
-0.1  -0.58  0.0322240486429
-0.1  -0.56  0.0420559190474
-0.1  -0.54  0.0548875886615
-0.1  -0.52  0.0716343253771
-0.1  -0.5  0.0934906542147
-0.1  -0.48  0.122015561387
-0.1  -0.46  0.159243694953
-0.1  -0.44  0.207830493863
-0.1  -0.42  0.271241597304
-0.1  -0.4  0.354000044653
-0.1  -0.38  0.462008898561
-0.1  -0.36  0.602972303461
-0.1  -0.34  0.786945013123
-0.1  -0.32  1.02704958441
-0.1  -0.3  1.3404123938
-0.1  -0.28  1.74938524171
-0.1  -0.26  2.28313968003
-0.1  -0.24  2.97974778468
-0.1  -0.22  3.88889779192
-0.1  -0.2  0.258967007637
-0.1  -0.18  1.09010087581
-0.1  -0.16  2.41127048312
-0.1  -0.14  3.67072993933
-0.1  -0.12  4.83624667912
-0.1  -0.1  5.87799235489
-0.1  -0.08  6.76930621516
-0.1  -0.06  7.48737741671
-0.1  -0.04  8.0138288083
-0.1  -0.02  8.33518724571
-0.1  6.17561557e-16  8.44322840164
-0.1  0.02  8.33518724571
-0.1  0.04  8.0138288083
-0.1  0.06  7.48737741671
-0.1  0.08  6.76930621516
-0.1  0.1  5.87799235489
-0.1  0.12  4.83624667912
-0.1  0.14  3.67072993933
-0.1  0.16  2.41127048312
-0.1  0.18  1.09010087581
-0.1  0.2  5.07543830178
-0.1  0.22  3.88889779192
-0.1  0.24  2.97974778468
-0.1  0.26  2.28313968003
-0.1  0.28  1.74938524171
-0.1  0.3  1.3404123938
-0.1  0.32  1.02704958441
-0.1  0.34  0.786945013123
-0.1  0.36  0.602972303461
-0.1  0.38  0.462008898561
-0.1  0.4  0.354000044653
-0.1  0.42  0.271241597304
-0.1  0.44  0.207830493863
-0.1  0.46  0.159243694953
-0.1  0.48  0.122015561387
-0.1  0.5  0.0934906542147
-0.1  0.52  0.0716343253771
-0.1  0.54  0.0548875886615
-0.1  0.56  0.0420559190474
-0.1  0.58  0.0322240486429
-0.1  0.6  0.0246906817033
-0.1  0.62  0.018918472031
-0.1  0.64  0.0144956947033
-0.1  0.66  0.0111068782186
-0.1  0.68  0.00851030228549
-0.1  0.7  0.00652075619854
-0.1  0.72  0.00499632797689
-0.1  0.74  0.00382828194961
-0.1  0.76  0.00293330276825
-0.1  0.78  0.00224755262112
-0.1  0.8  0.00172211775728
-0.1  0.82  0.0013195195263
-0.1  0.84  0.00101104107017
-0.1  0.86  0.000774678983677
-0.1  0.88  0.00059357383736
-0.1  0.9  0.000454807614279
-0.1  0.92  0.000348482283057
-0.1  0.94  0.000267013782953
-0.1  0.96  0.000204591061737
-0.1  0.98  0.000156761580169
-0.08  -1  0.000157259181773
-0.08  -0.98  0.000205240486427
-0.08  -0.96  0.000267861353428
-0.08  -0.94  0.00034958845552
-0.08  -0.92  0.000456251290711
-0.08  -0.9  0.000595457993502
-0.08  -0.88  0.000777138014169
-0.08  -0.86  0.00101425037477
-0.08  -0.84  0.00132370802091
-0.08  -0.82  0.00172758420231
-0.08  -0.8  0.00225468693164
-0.08  -0.78  0.00294261382625
-0.08  -0.76  0.00384043390189
-0.08  -0.74  0.00501218760791
-0.08  -0.72  0.00654145475711
-0.08  -0.7  0.00853731617544
-0.08  -0.68  0.0111421343089
-0.08  -0.66  0.0145417077693
-0.08  -0.64  0.0189785241307
-0.08  -0.62  0.0247690562823
-0.08  -0.6  0.0323263360675
-0.08  -0.58  0.0421894153593
-0.08  -0.56  0.0550618159956
-0.08  -0.54  0.071861711164
-0.08  -0.52  0.093787417615
-0.08  -0.5  0.122402870185
-0.08  -0.48  0.159749175429
-0.08  -0.46  0.208490201345
-0.08  -0.44  0.272102587949
-0.08  -0.42  0.355123731912
-0.08  -0.4  0.463475433723
-0.08  -0.38  0.604886292753
-0.08  -0.36  0.789442979149
-0.08  -0.34  1.03030970414
-0.08  -0.32  1.34466720775
-0.08  -0.3  1.75493824074
-0.08  -0.28  2.29038695304
-0.08  -0.26  2.98920627112
-0.08  -0.24  3.90124215449
-0.08  -0.22  5.09154904933
-0.08  -0.2  0.339053195042
-0.08  -0.18  1.42721726692
-0.08  -0.16  3.15696184187
-0.08  -0.14  4.80591224891
-0.08  -0.12  6.33186792221
-0.08  -0.1  7.69577602391
-0.08  -0.08  8.86273089924
-0.08  -0.06  9.80286739529
-0.08  -0.04  10.4921251814
-0.08  -0.02  10.9128645101
-0.08  6.17561557e-16  11.0543176606
-0.08  0.02  10.9128645101
-0.08  0.04  10.4921251814
-0.08  0.06  9.80286739529
-0.08  0.08  8.86273089924
-0.08  0.1  7.69577602391
-0.08  0.12  6.33186792221
-0.08  0.14  4.80591224891
-0.08  0.16  3.15696184187
-0.08  0.18  1.42721726691
-0.08  0.2  6.64503014557
-0.08  0.22  5.09154904933
-0.08  0.24  3.90124215449
-0.08  0.26  2.98920627112
-0.08  0.28  2.29038695304
-0.08  0.3  1.75493824074
-0.08  0.32  1.34466720775
-0.08  0.34  1.03030970414
-0.08  0.36  0.789442979149
-0.08  0.38  0.604886292753
-0.08  0.4  0.463475433723
-0.08  0.42  0.355123731912
-0.08  0.44  0.272102587949
-0.08  0.46  0.208490201345
-0.08  0.48  0.159749175429
-0.08  0.5  0.122402870185
-0.08  0.52  0.093787417615
-0.08  0.54  0.071861711164
-0.08  0.56  0.0550618159956
-0.08  0.58  0.0421894153593
-0.08  0.6  0.0323263360675
-0.08  0.62  0.0247690562823
-0.08  0.64  0.0189785241307
-0.08  0.66  0.0145417077693
-0.08  0.68  0.0111421343089
-0.08  0.7  0.00853731617543
-0.08  0.72  0.00654145475711
-0.08  0.74  0.00501218760791
-0.08  0.76  0.00384043390189
-0.08  0.78  0.00294261382625
-0.08  0.8  0.00225468693164
-0.08  0.82  0.00172758420231
-0.08  0.84  0.00132370802091
-0.08  0.86  0.00101425037476
-0.08  0.88  0.000777138014169
-0.08  0.9  0.000595457993502
-0.08  0.92  0.000456251290711
-0.08  0.94  0.00034958845552
-0.08  0.96  0.000267861353428
-0.08  0.98  0.000205240486427
-0.06  -1  0.000205891972558
-0.06  -0.98  0.000268711614309
-0.06  -0.96  0.00035069813926
-0.06  -0.94  0.000457699549744
-0.06  -0.92  0.00059734813044
-0.06  -0.9  0.000779604850256
-0.06  -0.88  0.00101746986652
-0.06  -0.86  0.00132790981088
-0.06  -0.84  0.00173306799923
-0.06  -0.82  0.0022618438883
-0.06  -0.8  0.00295195443994
-0.06  -0.78  0.0038526244276
-0.06  -0.76  0.00502809758148
-0.06  -0.74  0.00656221901823
-0.06  -0.72  0.00856441581442
-0.06  -0.7  0.0111775023111
-0.06  -0.68  0.0145878668927
-0.06  -0.66  0.0190387668512
-0.06  -0.64  0.0248476796423
-0.06  -0.62  0.0324289481788
-0.06  -0.6  0.0423233354229
-0.06  -0.58  0.0552365963721
-0.06  -0.56  0.0720898187319
-0.06  -0.54  0.0940851230188
-0.06  -0.52  0.122791408401
-0.06  -0.5  0.16025626043
-0.06  -0.48  0.209152002908
-0.06  -0.46  0.272966311601
-0.06  -0.44  0.356250986043
-0.06  -0.42  0.464946624045
-0.06  -0.4  0.60680635754
-0.06  -0.38  0.791948874362
-0.06  -0.36  1.03358017234
-0.06  -0.34  1.34893552758
-0.06  -0.32  1.76050886643
-0.06  -0.3  2.29765723076
-0.06  -0.28  2.99869478122
-0.06  -0.26  3.91362570124
-0.06  -0.24  5.10771093654
-0.06  -0.22  6.66612318164
-0.06  -0.2  0.443906233914
-0.06  -0.18  1.86858773549
-0.06  -0.16  4.13326009702
-0.06  -0.14  6.29215249446
-0.06  -0.12  8.29001373262
-0.06  -0.1  10.075713787
-0.06  -0.08  11.6035523428
-0.06  -0.06  12.8344283748
-0.06  -0.04  13.7368408354
-0.06  -0.02  14.2876948418
-0.06  6.17561557e-16  14.4728927289
-0.06  0.02  14.2876948418
-0.06  0.04  13.7368408354
-0.06  0.06  12.8344283748
-0.06  0.08  11.6035523428
-0.06  0.1  10.075713787
-0.06  0.12  8.29001373262
-0.06  0.14  6.29215249446
-0.06  0.16  4.13326009702
-0.06  0.18  1.86858773549
-0.06  0.2  8.70002214785
-0.06  0.22  6.66612318164
-0.06  0.24  5.10771093654
-0.06  0.26  3.91362570124
-0.06  0.28  2.99869478122
-0.06  0.3  2.29765723076
-0.06  0.32  1.76050886643
-0.06  0.34  1.34893552758
-0.06  0.36  1.03358017234
-0.06  0.38  0.791948874361
-0.06  0.4  0.60680635754
-0.06  0.42  0.464946624045
-0.06  0.44  0.356250986043
-0.06  0.46  0.272966311601
-0.06  0.48  0.209152002908
-0.06  0.5  0.16025626043
-0.06  0.52  0.122791408401
-0.06  0.54  0.0940851230188
-0.06  0.56  0.0720898187319
-0.06  0.58  0.0552365963721
-0.06  0.6  0.0423233354229
-0.06  0.62  0.0324289481788
-0.06  0.64  0.0248476796423
-0.06  0.66  0.0190387668512
-0.06  0.68  0.0145878668927
-0.06  0.7  0.0111775023111
-0.06  0.72  0.00856441581442
-0.06  0.74  0.00656221901823
-0.06  0.76  0.00502809758148
-0.06  0.78  0.00385262442759
-0.06  0.8  0.00295195443994
-0.06  0.82  0.0022618438883
-0.06  0.84  0.00173306799923
-0.06  0.86  0.00132790981088
-0.06  0.88  0.00101746986652
-0.06  0.9  0.000779604850256
-0.06  0.92  0.00059734813044
-0.06  0.94  0.000457699549744
-0.06  0.96  0.00035069813926
-0.06  0.98  0.000268711614309
-0.04  -1  0.000269564574138
-0.04  -0.98  0.000351811345421
-0.04  -0.96  0.000459152405923
-0.04  -0.94  0.000599244267159
-0.04  -0.92  0.000782079516715
-0.04  -0.9  0.00102069957776
-0.04  -0.88  0.00133212493842
-0.04  -0.86  0.00173856920314
-0.04  -0.84  0.00226902356299
-0.04  -0.82  0.00296132470315
-0.04  -0.8  0.00386485364917
-0.04  -0.78  0.0050440580574
-0.04  -0.76  0.00658304919047
-0.04  -0.74  0.00859160147464
-0.04  -0.72  0.0112129825805
-0.04  -0.7  0.0146341725371
-0.04  -0.68  0.0190992007977
-0.04  -0.66  0.0249265525731
-0.04  -0.64  0.0325318860073
-0.04  -0.62  0.0424576805833
-0.04  -0.6  0.0554119315465
-0.04  -0.58  0.072318650372
-0.04  -0.56  0.0943837734161
-0.04  -0.54  0.123181179937
-0.04  -0.52  0.160764955049
-0.04  -0.5  0.2098159052
-0.04  -0.48  0.273832776933
-0.04  -0.46  0.357381818369
-0.04  -0.44  0.466422484304
-0.04  -0.42  0.608732517106
-0.04  -0.4  0.794462723931
-0.04  -0.38  1.03686102184
-0.04  -0.36  1.35321739615
-0.04  -0.34  1.76609717471
-0.04  -0.32  2.30495058621
-0.04  -0.3  3.0082134103
-0.04  -0.28  3.92604855656
-0.04  -0.26  5.12392412575
-0.04  -0.24  6.68728317243
-0.04  -0.22  8.72763825747
-0.04  -0.2  0.581185334305
-0.04  -0.18  2.44645311275
-0.04  -0.16  5.41148100147
-0.04  -0.14  8.23801621064
-0.04  -0.12  10.8537209764
-0.04  -0.1  13.1916531878
-0.04  -0.08  15.1919795945
-0.04  -0.06  16.8035070827
-0.04  -0.04  17.9849928279
-0.04  -0.02  18.7061997978
-0.04  6.17561557e-16  18.9486705893
-0.04  0.02  18.7061997978
-0.04  0.04  17.9849928279
-0.04  0.06  16.8035070827
-0.04  0.08  15.1919795945
-0.04  0.1  13.1916531878
-0.04  0.12  10.8537209764
-0.04  0.14  8.23801621064
-0.04  0.16  5.41148100147
-0.04  0.18  2.44645311275
-0.04  0.2  11.3905255078
-0.04  0.22  8.72763825747
-0.04  0.24  6.68728317243
-0.04  0.26  5.12392412574
-0.04  0.28  3.92604855656
-0.04  0.3  3.0082134103
-0.04  0.32  2.30495058621
-0.04  0.34  1.76609717471
-0.04  0.36  1.35321739615
-0.04  0.38  1.03686102184
-0.04  0.4  0.794462723931
-0.04  0.42  0.608732517106
-0.04  0.44  0.466422484304
-0.04  0.46  0.357381818369
-0.04  0.48  0.273832776933
-0.04  0.5  0.209815905199
-0.04  0.52  0.160764955049
-0.04  0.54  0.123181179937
-0.04  0.56  0.0943837734161
-0.04  0.58  0.072318650372
-0.04  0.6  0.0554119315465
-0.04  0.62  0.0424576805833
-0.04  0.64  0.0325318860073
-0.04  0.66  0.0249265525731
-0.04  0.68  0.0190992007977
-0.04  0.7  0.0146341725371
-0.04  0.72  0.0112129825805
-0.04  0.74  0.00859160147464
-0.04  0.76  0.00658304919047
-0.04  0.78  0.0050440580574
-0.04  0.8  0.00386485364917
-0.04  0.82  0.00296132470315
-0.04  0.84  0.00226902356299
-0.04  0.86  0.00173856920314
-0.04  0.88  0.00133212493842
-0.04  0.9  0.00102069957776
-0.04  0.92  0.000782079516715
-0.04  0.94  0.000599244267159
-0.04  0.96  0.000459152405923
-0.04  0.98  0.000351811345421
-0.02  -1  0.000352928085185
-0.02  -0.98  0.000460609873842
-0.02  -0.96  0.000601146422704
-0.02  -0.94  0.000784562038403
-0.02  -0.92  0.00102393954094
-0.02  -0.9  0.00133635344585
-0.02  -0.88  0.00174408786929
-0.02  -0.86  0.00227622602781
-0.02  -0.84  0.00297072470998
-0.02  -0.82  0.00387712168944
-0.02  -0.8  0.00506006919598
-0.02  -0.78  0.00660394548303
-0.02  -0.76  0.00861887342914
-0.02  -0.74  0.0112485754733
-0.02  -0.72  0.0146806251674
-0.02  -0.7  0.019159826577
-0.02  -0.68  0.0250056758669
-0.02  -0.66  0.032635150587
-0.02  -0.64  0.0425924521898
-0.02  -0.62  0.0555878232799
-0.02  -0.6  0.0725482083826
-0.02  -0.58  0.0946833718066
-0.02  -0.56  0.123572188708
-0.02  -0.54  0.161275264396
-0.02  -0.52  0.210481914888
-0.02  -0.5  0.27470199265
-0.02  -0.48  0.358516240249
-0.02  -0.46  0.467903029323
-0.02  -0.44  0.610664790799
-0.02  -0.42  0.796984553106
-0.02  -0.4  1.04015228561
-0.02  -0.38  1.35751285648
-0.02  -0.36  1.77170322173
-0.02  -0.34  2.31226709265
-0.02  -0.32  3.01776225396
-0.02  -0.3  3.93851084521
-0.02  -0.28  5.14018877978
-0.02  -0.26  6.70851033048
-0.02  -0.24  8.75534202774
-0.02  -0.22  11.4266819676
-0.02  -0.2  0.760918335914
-0.02  -0.18  3.2030247867
-0.02  -0.16  7.084994881
-0.02  -0.14  10.7856430922
-0.02  -0.12  14.2102610241
-0.02  -0.1  17.2712045523
-0.02  -0.08  19.8901368461
-0.02  -0.06  22.0000331944
-0.02  -0.04  23.5468963276
-0.02  -0.02  24.4911383361
-0.02  6.17561557e-16  24.8085938195
-0.02  0.02  24.4911383361
-0.02  0.04  23.5468963276
-0.02  0.06  22.0000331944
-0.02  0.08  19.8901368461
-0.02  0.1  17.2712045523
-0.02  0.12  14.2102610241
-0.02  0.14  10.7856430922
-0.02  0.16  7.084994881
-0.02  0.18  3.2030247867
-0.02  0.2  14.913073684
-0.02  0.22  11.4266819676
-0.02  0.24  8.75534202774
-0.02  0.26  6.70851033048
-0.02  0.28  5.14018877978
-0.02  0.3  3.93851084521
-0.02  0.32  3.01776225396
-0.02  0.34  2.31226709265
-0.02  0.36  1.77170322173
-0.02  0.38  1.35751285648
-0.02  0.4  1.04015228561
-0.02  0.42  0.796984553106
-0.02  0.44  0.610664790799
-0.02  0.46  0.467903029323
-0.02  0.48  0.358516240248
-0.02  0.5  0.27470199265
-0.02  0.52  0.210481914888
-0.02  0.54  0.161275264396
-0.02  0.56  0.123572188708
-0.02  0.58  0.0946833718066
-0.02  0.6  0.0725482083826
-0.02  0.62  0.0555878232799
-0.02  0.64  0.0425924521898
-0.02  0.66  0.032635150587
-0.02  0.68  0.0250056758669
-0.02  0.7  0.019159826577
-0.02  0.72  0.0146806251674
-0.02  0.74  0.0112485754733
-0.02  0.76  0.00861887342914
-0.02  0.78  0.00660394548303
-0.02  0.8  0.00506006919598
-0.02  0.82  0.00387712168944
-0.02  0.84  0.00297072470998
-0.02  0.86  0.00227622602781
-0.02  0.88  0.00174408786929
-0.02  0.9  0.00133635344585
-0.02  0.92  0.00102393954094
-0.02  0.94  0.000784562038403
-0.02  0.96  0.000601146422704
-0.02  0.98  0.000460609873842
2.8449465e-16  -1  0.00046207196814
2.8449465e-16  -0.98  0.000603054616181
2.8449465e-16  -0.96  0.000787052440254
2.8449465e-16  -0.94  0.0010271897886
2.8449465e-16  -0.92  0.00134059537566
2.8449465e-16  -0.9  0.0017496240531
2.8449465e-16  -0.88  0.00228345135511
2.8449465e-16  -0.86  0.00298015455485
2.8449465e-16  -0.84  0.00388942867162
2.8449465e-16  -0.82  0.00507613115804
2.8449465e-16  -0.8  0.0066249081058
2.8449465e-16  -0.78  0.00864623195184
2.8449465e-16  -0.76  0.0112842813472
2.8449465e-16  -0.74  0.0147272252504
2.8449465e-16  -0.72  0.0192206447982
2.8449465e-16  -0.7  0.0250850503184
2.8449465e-16  -0.68  0.032738742955
2.8449465e-16  -0.66  0.0427276515961
2.8449465e-16  -0.64  0.0557642733389
2.8449465e-16  -0.62  0.0727784950694
2.8449465e-16  -0.6  0.0949839211996
2.8449465e-16  -0.58  0.123964438641
2.8449465e-16  -0.56  0.161787193597
2.8449465e-16  -0.54  0.211150038662
2.8449465e-16  -0.52  0.275573967481
2.8449465e-16  -0.5  0.359654263075
2.8449465e-16  -0.48  0.469388273973
2.8449465e-16  -0.46  0.612603198026
2.8449465e-16  -0.44  0.799514387216
2.8449465e-16  -0.42  1.04345399669
2.8449465e-16  -0.4  1.3618219517
2.8449465e-16  -0.38  1.77732706378
2.8449465e-16  -0.36  2.31960682356
2.8449465e-16  -0.34  3.0273414081
2.8449465e-16  -0.32  3.95101269238
2.8449465e-16  -0.3  5.15650506202
2.8449465e-16  -0.28  6.72980486899
2.8449465e-16  -0.26  8.7831337369
2.8449465e-16  -0.24  11.4629531973
2.8449465e-16  -0.22  14.9604116184
2.8449465e-16  -0.2  0.996234212657
2.8449465e-16  -0.18  4.19356812143
2.8449465e-16  -0.16  9.27604706552
2.8449465e-16  -0.14  14.1211298858
2.8449465e-16  -0.12  18.6048193805
2.8449465e-16  -0.1  22.6123672629
2.8449465e-16  -0.08  26.0412108439
2.8449465e-16  -0.06  28.8035978547
2.8449465e-16  -0.04  30.8288322364
2.8449465e-16  -0.02  32.0650834207
2.8449465e-16  6.17561557e-16  32.4807127971
2.8449465e-16  0.02  32.0650834207
2.8449465e-16  0.04  30.8288322364
2.8449465e-16  0.06  28.8035978547
2.8449465e-16  0.08  26.0412108439
2.8449465e-16  0.1  22.6123672629
2.8449465e-16  0.12  18.6048193805
2.8449465e-16  0.14  14.1211298858
2.8449465e-16  0.16  9.27604706552
2.8449465e-16  0.18  4.19356812143
2.8449465e-16  0.2  19.5249785932
2.8449465e-16  0.22  14.9604116184
2.8449465e-16  0.24  11.4629531973
2.8449465e-16  0.26  8.7831337369
2.8449465e-16  0.28  6.72980486899
2.8449465e-16  0.3  5.15650506202
2.8449465e-16  0.32  3.95101269238
2.8449465e-16  0.34  3.0273414081
2.8449465e-16  0.36  2.31960682356
2.8449465e-16  0.38  1.77732706378
2.8449465e-16  0.4  1.3618219517
2.8449465e-16  0.42  1.04345399669
2.8449465e-16  0.44  0.799514387216
2.8449465e-16  0.46  0.612603198026
2.8449465e-16  0.48  0.469388273973
2.8449465e-16  0.5  0.359654263075
2.8449465e-16  0.52  0.275573967481
2.8449465e-16  0.54  0.211150038662
2.8449465e-16  0.56  0.161787193597
2.8449465e-16  0.58  0.123964438641
2.8449465e-16  0.6  0.0949839211996
2.8449465e-16  0.62  0.0727784950694
2.8449465e-16  0.64  0.0557642733389
2.8449465e-16  0.66  0.0427276515961
2.8449465e-16  0.68  0.032738742955
2.8449465e-16  0.7  0.0250850503184
2.8449465e-16  0.72  0.0192206447982
2.8449465e-16  0.74  0.0147272252504
2.8449465e-16  0.76  0.0112842813472
2.8449465e-16  0.78  0.00864623195184
2.8449465e-16  0.8  0.0066249081058
2.8449465e-16  0.82  0.00507613115804
2.8449465e-16  0.84  0.00388942867162
2.8449465e-16  0.86  0.00298015455485
2.8449465e-16  0.88  0.0022834513551
2.8449465e-16  0.9  0.0017496240531
2.8449465e-16  0.92  0.00134059537566
2.8449465e-16  0.94  0.0010271897886
2.8449465e-16  0.96  0.000787052440254
2.8449465e-16  0.98  0.000603054616181
0.02  -1  0.000581274789782
0.02  -0.98  0.000758627377158
0.02  -0.96  0.00099009196251
0.02  -0.94  0.0012921786423
0.02  -0.92  0.00168643490387
0.02  -0.9  0.00220098258234
0.02  -0.88  0.00287252375806
0.02  -0.86  0.00374895867275
0.02  -0.84  0.00489280239737
0.02  -0.82  0.00638564395861
0.02  -0.8  0.00833396598809
0.02  -0.78  0.0108767400032
0.02  -0.76  0.0141953390818
0.02  -0.74  0.0185264749904
0.02  -0.72  0.0241790825561
0.02  -0.7  0.031556355624
0.02  -0.68  0.0411845063996
0.02  -0.66  0.0537502995461
0.02  -0.64  0.0701500383001
0.02  -0.62  0.0915534967258
0.02  -0.6  0.119487358323
0.02  -0.58  0.155944112563
0.02  -0.56  0.20352417682
0.02  -0.54  0.265621381081
0.02  -0.52  0.346665045841
0.02  -0.5  0.452435920328
0.02  -0.48  0.590478516536
0.02  -0.46  0.770639250388
0.02  -0.44  1.005768775
0.02  -0.42  1.31263860263
0.02  -0.4  1.71313739693
0.02  -0.38  2.23583226555
0.02  -0.36  2.91800641829
0.02  -0.34  3.80831853462
0.02  -0.32  4.97027352998
0.02  -0.3  6.48675228667
0.02  -0.28  8.46592344965
0.02  -0.26  11.0489589687
0.02  -0.24  14.4201037273
0.02  -0.22  18.8198175136
0.02  -0.2  1.25323731467
0.02  -0.18  5.27540209382
0.02  -0.16  11.6690314059
0.02  -0.14  17.7640224291
0.02  -0.12  23.4043898353
0.02  -0.1  28.4457831973
0.02  -0.08  32.759181259
0.02  -0.06  36.234193897
0.02  -0.04  38.7818872666
0.02  -0.02  40.3370598302
0.02  6.17561557e-16  40.8599110202
0.02  0.02  40.3370598302
0.02  0.04  38.7818872666
0.02  0.06  36.234193897
0.02  0.08  32.759181259
0.02  0.1  28.4457831973
0.02  0.12  23.4043898353
0.02  0.14  17.7640224291
0.02  0.16  11.6690314059
0.02  0.18  5.27540209382
0.02  0.2  24.561926734
0.02  0.22  18.8198175136
0.02  0.24  14.4201037273
0.02  0.26  11.0489589687
0.02  0.28  8.46592344965
0.02  0.3  6.48675228667
0.02  0.32  4.97027352998
0.02  0.34  3.80831853462
0.02  0.36  2.91800641829
0.02  0.38  2.23583226554
0.02  0.4  1.71313739693
0.02  0.42  1.31263860263
0.02  0.44  1.005768775
0.02  0.46  0.770639250388
0.02  0.48  0.590478516536
0.02  0.5  0.452435920328
0.02  0.52  0.346665045841
0.02  0.54  0.265621381081
0.02  0.56  0.20352417682
0.02  0.58  0.155944112563
0.02  0.6  0.119487358323
0.02  0.62  0.0915534967258
0.02  0.64  0.0701500383001
0.02  0.66  0.0537502995461
0.02  0.68  0.0411845063996
0.02  0.7  0.031556355624
0.02  0.72  0.0241790825561
0.02  0.74  0.0185264749904
0.02  0.76  0.0141953390818
0.02  0.78  0.0108767400032
0.02  0.8  0.00833396598809
0.02  0.82  0.00638564395861
0.02  0.84  0.00489280239737
0.02  0.86  0.00374895867275
0.02  0.88  0.00287252375806
0.02  0.9  0.00220098258234
0.02  0.92  0.00168643490387
0.02  0.94  0.0012921786423
0.02  0.96  0.00099009196251
0.02  0.98  0.000758627377158
0.04  -1  0.00068823030506
0.04  -0.98  0.000898216059574
0.04  -0.96  0.0011722705085
0.04  -0.94  0.00152994163314
0.04  -0.92  0.00199674169387
0.04  -0.9  0.00260596698963
0.04  -0.88  0.00340107284378
0.04  -0.86  0.00443877322113
0.04  -0.84  0.0057930860683
0.04  -0.82  0.00756061292678
0.04  -0.8  0.00986742940717
0.04  -0.78  0.0128780780141
0.04  -0.76  0.0168073047695
0.04  -0.74  0.0219353767933
0.04  -0.72  0.0286280734279
0.04  -0.7  0.0373627768475
0.04  -0.68  0.0487625231669
0.04  -0.66  0.0636404428748
0.04  -0.64  0.0830577604739
0.04  -0.62  0.108399490376
0.04  -0.6  0.141473228351
0.04  -0.58  0.184638085202
0.04  -0.56  0.240972959368
0.04  -0.54  0.314496151123
0.04  -0.52  0.410451983204
0.04  -0.5  0.535684872182
0.04  -0.48  0.699127532641
0.04  -0.46  0.912438137192
0.04  -0.44  1.19083188021
0.04  -0.42  1.55416625975
0.04  -0.4  2.02835748948
0.04  -0.38  2.64722907174
0.04  -0.36  3.45492438813
0.04  -0.34  4.509055395
0.04  -0.32  5.88481201645
0.04  -0.3  7.68032535314
0.04  -0.28  10.0236672582
0.04  -0.26  13.0819855519
0.04  -0.24  17.0734264786
0.04  -0.22  22.2826948222
0.04  -0.2  1.48383503732
0.04  -0.18  6.2460847368
0.04  -0.16  13.8161523352
0.04  -0.14  21.0326317094
0.04  -0.12  27.7108359751
0.04  -0.1  33.6798539893
0.04  -0.08  38.7869243733
0.04  -0.06  42.9013450397
0.04  -0.04  45.9178181704
0.04  -0.02  47.759145038
0.04  6.17561557e-16  48.3782017051
0.04  0.02  47.759145038
0.04  0.04  45.9178181704
0.04  0.06  42.9013450397
0.04  0.08  38.7869243733
0.04  0.1  33.6798539893
0.04  0.12  27.7108359751
0.04  0.14  21.0326317094
0.04  0.16  13.8161523352
0.04  0.18  6.2460847368
0.04  0.2  29.0813615628
0.04  0.22  22.2826948222
0.04  0.24  17.0734264786
0.04  0.26  13.0819855519
0.04  0.28  10.0236672582
0.04  0.3  7.68032535314
0.04  0.32  5.88481201645
0.04  0.34  4.509055395
0.04  0.36  3.45492438813
0.04  0.38  2.64722907174
0.04  0.4  2.02835748948
0.04  0.42  1.55416625975
0.04  0.44  1.19083188021
0.04  0.46  0.912438137192
0.04  0.48  0.699127532641
0.04  0.5  0.535684872182
0.04  0.52  0.410451983204
0.04  0.54  0.314496151123
0.04  0.56  0.240972959368
0.04  0.58  0.184638085202
0.04  0.6  0.141473228351
0.04  0.62  0.108399490376
0.04  0.64  0.0830577604739
0.04  0.66  0.0636404428748
0.04  0.68  0.0487625231669
0.04  0.7  0.0373627768475
0.04  0.72  0.0286280734279
0.04  0.74  0.0219353767933
0.04  0.76  0.0168073047695
0.04  0.78  0.0128780780141
0.04  0.8  0.00986742940717
0.04  0.82  0.00756061292678
0.04  0.84  0.0057930860683
0.04  0.86  0.00443877322113
0.04  0.88  0.00340107284378
0.04  0.9  0.00260596698963
0.04  0.92  0.00199674169387
0.04  0.94  0.00152994163314
0.04  0.96  0.0011722705085
0.04  0.98  0.000898216059574
0.06  -1  0.000780684989502
0.06  -0.98  0.00101887956674
0.06  -0.96  0.00132974962435
0.06  -0.94  0.00173546915767
0.06  -0.92  0.00226497766351
0.06  -0.9  0.00295604436042
0.06  -0.88  0.00385796222256
0.06  -0.86  0.00503506398957
0.06  -0.84  0.00657131094513
0.06  -0.82  0.00857628177658
0.06  -0.8  0.0111929886936
0.06  -0.78  0.0146080783211
0.06  -0.76  0.0190651449828
0.06  -0.74  0.0248821059981
0.06  -0.72  0.0324738783504
0.06  -0.7  0.0423819742265
0.06  -0.68  0.0553131264444
0.06  -0.66  0.0721896988731
0.06  -0.64  0.0942154775617
0.06  -0.62  0.122961535382
0.06  -0.6  0.160478294806
0.06  -0.58  0.20944178213
0.06  -0.56  0.273344505279
0.06  -0.54  0.356744570289
0.06  -0.52  0.46559080564
0.06  -0.5  0.6076470852
0.06  -0.48  0.793046116202
0.06  -0.46  1.03501219333
0.06  -0.44  1.35080447209
0.06  -0.42  1.76294804407
0.06  -0.4  2.3008406252
0.06  -0.38  3.00284946025
0.06  -0.36  3.91904801322
0.06  -0.34  5.1147876486
0.06  -0.32  6.67535906732
0.06  -0.3  8.71207599201
0.06  -0.28  11.3702150439
0.06  -0.26  14.8393781531
0.06  -0.24  19.3670166414
0.06  -0.22  25.2760816335
0.06  -0.2  1.68316874746
0.06  -0.18  7.08516402333
0.06  -0.16  15.6721705823
0.06  -0.14  23.8580889922
0.06  -0.12  31.4334221165
0.06  -0.1  38.2042991492
0.06  -0.08  43.9974372308
0.06  -0.06  48.6645761684
0.06  -0.04  52.0862727677
0.06  -0.02  54.1749576682
0.06  6.17561557e-16  54.8771764518
0.06  0.02  54.1749576682
0.06  0.04  52.0862727677
0.06  0.06  48.6645761684
0.06  0.08  43.9974372308
0.06  0.1  38.2042991492
0.06  0.12  31.4334221165
0.06  0.14  23.8580889922
0.06  0.16  15.6721705823
0.06  0.18  7.08516402333
0.06  0.2  32.9880597809
0.06  0.22  25.2760816335
0.06  0.24  19.3670166414
0.06  0.26  14.8393781531
0.06  0.28  11.3702150439
0.06  0.3  8.71207599201
0.06  0.32  6.67535906732
0.06  0.34  5.1147876486
0.06  0.36  3.91904801322
0.06  0.38  3.00284946025
0.06  0.4  2.3008406252
0.06  0.42  1.76294804407
0.06  0.44  1.35080447209
0.06  0.46  1.03501219333
0.06  0.48  0.793046116202
0.06  0.5  0.6076470852
0.06  0.52  0.46559080564
0.06  0.54  0.356744570289
0.06  0.56  0.273344505279
0.06  0.58  0.20944178213
0.06  0.6  0.160478294806
0.06  0.62  0.122961535382
0.06  0.64  0.0942154775617
0.06  0.66  0.0721896988731
0.06  0.68  0.0553131264444
0.06  0.7  0.0423819742265
0.06  0.72  0.0324738783503
0.06  0.74  0.0248821059981
0.06  0.76  0.0190651449828
0.06  0.78  0.0146080783211
0.06  0.8  0.0111929886936
0.06  0.82  0.00857628177658
0.06  0.84  0.00657131094513
0.06  0.86  0.00503506398957
0.06  0.88  0.00385796222256
0.06  0.9  0.00295604436042
0.06  0.92  0.00226497766351
0.06  0.94  0.00173546915767
0.06  0.96  0.00132974962435
0.06  0.98  0.00101887956674
0.08  -1  0.000856690847316
0.08  -0.98  0.00111807555043
0.08  -0.96  0.00145921126667
0.08  -0.94  0.00190443080521
0.08  -0.92  0.00248549115174
0.08  -0.9  0.00324383865693
0.08  -0.88  0.00423356535581
0.08  -0.86  0.005525267289
0.08  -0.84  0.00721108003518
0.08  -0.82  0.00941125063347
0.08  -0.8  0.0122827146633
0.08  -0.78  0.0160302902743
0.08  -0.76  0.0209212876245
0.08  -0.74  0.0273045757984
0.08  -0.72  0.035635467229
0.08  -0.7  0.0465081945973
0.08  -0.68  0.0606982967504
0.08  -0.66  0.0792179369742
0.08  -0.64  0.10338809941
0.08  -0.62  0.134932813298
