-0.46  -0.04  0.0640443827133
-0.46  -0.02  0.065565811714
-0.46  6.17561557e-16  0.0660826253791
-0.46  0.02  0.065565811714
-0.46  0.04  0.0640443827133
-0.46  0.06  0.0616067579009
-0.46  0.08  0.0584051267935
-0.46  0.1  0.0546631848141
-0.46  0.12  0.0506867079036
-0.46  0.14  0.0468722198299
-0.46  0.16  0.0436978656253
-0.46  0.18  0.0416639034731
-0.46  0.2  0.057163627195
-0.46  0.22  0.0437998632549
-0.46  0.24  0.0335602920124
-0.46  0.26  0.0257145369017
-0.46  0.28  0.0197029694445
-0.46  0.3  0.0150967916091
-0.46  0.32  0.0115674501517
-0.46  0.34  0.00886320129974
-0.46  0.36  0.00679115416532
-0.46  0.38  0.00520351206493
-0.46  0.4  0.00398703035607
-0.46  0.42  0.00305493883013
-0.46  0.44  0.00234075249556
-0.46  0.46  0.00179352928164
-0.46  0.48  0.00137423640057
-0.46  0.5  0.00105296618459
-0.46  0.52  0.000806802807313
-0.46  0.54  0.000618187724748
-0.46  0.56  0.000473667245038
-0.46  0.58  0.000362932892454
-0.46  0.6  0.000278086115949
-0.46  0.62  0.000213074894812
-0.46  0.64  0.000163262055153
-0.46  0.66  0.000125094505743
-0.46  0.68  0.0000958498002022
-0.46  0.7  0.0000734419481037
-0.46  0.72  0.0000562726237288
-0.46  0.74  0.0000431171593767
-0.46  0.76  0.000033037191258
-0.46  0.78  0.00002531372711
-0.46  0.8  0.0000193958613247
-0.46  0.82  0.0000148614795005
-0.46  0.84  0.0000113871495185
-0.46  0.86  0.00000872505150997
-0.46  0.88  0.00000668530115707
-0.46  0.9  0.00000512240546772
-0.46  0.92  0.00000392488493176
-0.46  0.94  0.00000300732181875
-0.46  0.96  0.00000230426743173
-0.46  0.98  0.0000017655737287
-0.44  -1  0.00000177117811416
-0.44  -0.98  0.00000231158176966
-0.44  -0.96  0.00000301686783227
-0.44  -0.94  0.00000393734352677
-0.44  -0.92  0.00000513866530114
-0.44  -0.9  0.0000067065220237
-0.44  -0.88  0.00000875274706923
-0.44  -0.86  0.000011423295262
-0.44  -0.84  0.0000149086536617
-0.44  -0.82  0.0000194574287809
-0.44  -0.8  0.0000253940793954
-0.44  -0.78  0.0000331420598066
-0.44  -0.76  0.0000432540243387
-0.44  -0.74  0.0000564512475207
-0.44  -0.72  0.0000736750717504
-0.44  -0.7  0.0000961540521391
-0.44  -0.68  0.000125491587902
-0.44  -0.66  0.000163780290938
-0.44  -0.64  0.000213751249372
-0.44  -0.62  0.000278968832858
-0.44  -0.6  0.000364084934871
-0.44  -0.58  0.000475170786793
-0.44  -0.56  0.000620150011704
-0.44  -0.54  0.000809363807089
-0.44  -0.52  0.00105630857029
-0.44  -0.5  0.00137859858062
-0.44  -0.48  0.00179922240523
-0.44  -0.46  0.00234818264647
-0.44  -0.44  0.0030646359923
-0.44  -0.42  0.00399968621665
-0.44  -0.4  0.00522002935157
-0.44  -0.38  0.00681271103663
-0.44  -0.36  0.00889133538199
-0.44  -0.34  0.0116041682159
-0.44  -0.32  0.0151447127115
-0.44  -0.3  0.0197655117409
-0.44  -0.28  0.0257961614605
-0.44  -0.26  0.0336668210174
-0.44  -0.24  0.0439388952947
-0.44  -0.22  0.0573450792612
-0.44  -0.2  0.0538832890217
-0.44  -0.18  0.0545485686357
-0.44  -0.16  0.0572115386125
-0.44  -0.14  0.0613675697033
-0.44  -0.12  0.0663616976451
-0.44  -0.1  0.071567909872
-0.44  -0.08  0.0764670566604
-0.44  -0.06  0.0806588001038
-0.44  -0.04  0.0838502664164
-0.44  -0.02  0.0858422010973
-0.44  6.17561557e-16  0.0865188406662
-0.44  0.02  0.0858422010973
-0.44  0.04  0.0838502664164
-0.44  0.06  0.0806588001038
-0.44  0.08  0.0764670566604
-0.44  0.1  0.071567909872
-0.44  0.12  0.0663616976451
-0.44  0.14  0.0613675697033
-0.44  0.16  0.0572115386125
-0.44  0.18  0.0545485686357
-0.44  0.2  0.0748416202415
-0.44  0.22  0.0573450792612
-0.44  0.24  0.0439388952947
-0.44  0.26  0.0336668210174
-0.44  0.28  0.0257961614605
-0.44  0.3  0.0197655117409
-0.44  0.32  0.0151447127115
-0.44  0.34  0.0116041682159
-0.44  0.36  0.00889133538199
-0.44  0.38  0.00681271103663
-0.44  0.4  0.00522002935157
-0.44  0.42  0.00399968621665
-0.44  0.44  0.0030646359923
-0.44  0.46  0.00234818264647
-0.44  0.48  0.00179922240523
-0.44  0.5  0.00137859858062
-0.44  0.52  0.00105630857029
-0.44  0.54  0.000809363807089
-0.44  0.56  0.000620150011704
-0.44  0.58  0.000475170786793
-0.44  0.6  0.000364084934871
-0.44  0.62  0.000278968832858
-0.44  0.64  0.000213751249372
-0.44  0.66  0.000163780290938
-0.44  0.68  0.000125491587902
-0.44  0.7  0.0000961540521391
-0.44  0.72  0.0000736750717504
-0.44  0.74  0.0000564512475207
-0.44  0.76  0.0000432540243387
-0.44  0.78  0.0000331420598066
-0.44  0.8  0.0000253940793954
-0.44  0.82  0.0000194574287809
-0.44  0.84  0.0000149086536617
-0.44  0.86  0.000011423295262
-0.44  0.88  0.00000875274706923
-0.44  0.9  0.0000067065220237
-0.44  0.92  0.00000513866530114
-0.44  0.94  0.00000393734352677
-0.44  0.96  0.00000301686783227
-0.44  0.98  0.00000231158176966
-0.42  -1  0.00000231891932518
-0.42  -0.98  0.00000302644414729
-0.42  -0.96  0.00000394984166857
-0.42  -0.94  0.00000515497674746
-0.42  -0.92  0.00000672781025081
-0.42  -0.9  0.00000878053054133
-0.42  -0.88  0.0000114595557415
-0.42  -0.86  0.0000149559775658
-0.42  -0.84  0.000019519191668
-0.42  -0.82  0.0000254746867396
-0.42  -0.8  0.000033247261235
-0.42  -0.78  0.0000433913237452
-0.42  -0.76  0.0000566304383105
-0.42  -0.74  0.0000739089353916
-0.42  -0.72  0.00009645926985
-0.42  -0.7  0.000125889930503
-0.42  -0.68  0.000164300171738
-0.42  -0.66  0.000214429750856
-0.42  -0.64  0.000279854351738
-0.42  -0.62  0.000365240634167
-0.42  -0.6  0.000476679101176
-0.42  -0.58  0.000622118527463
-0.42  -0.56  0.000811932936137
-0.42  -0.54  0.00105966156557
-0.42  -0.52  0.00138297460736
-0.42  -0.5  0.00180493360025
-0.42  -0.48  0.0023556363826
-0.42  -0.46  0.00307436393575
-0.42  -0.44  0.00401238225019
-0.42  -0.42  0.00523659906833
-0.42  -0.4  0.00683433633501
-0.42  -0.38  0.00891955876907
-0.42  -0.36  0.0116410028326
-0.42  -0.34  0.0151927859278
-0.42  -0.32  0.0198282525627
-0.42  -0.3  0.0258780451168
-0.42  -0.28  0.0337736881729
-0.42  -0.26  0.0440783686579
-0.42  -0.24  0.057527107303
-0.42  -0.22  0.0750791868078
-0.42  -0.2  0.0705468293775
-0.42  -0.18  0.0714178483571
-0.42  -0.16  0.0749043483833
-0.42  -0.14  0.0803456423647
-0.42  -0.12  0.0868842167204
-0.42  -0.1  0.0937004629507
-0.42  -0.08  0.100114682997
-0.42  -0.06  0.105602733464
-0.42  -0.04  0.109781168625
-0.42  -0.02  0.112389114031
-0.42  6.17561557e-16  0.113275006059
-0.42  0.02  0.112389114031
-0.42  0.04  0.109781168625
-0.42  0.06  0.105602733464
-0.42  0.08  0.100114682997
-0.42  0.1  0.0937004629507
-0.42  0.12  0.0868842167204
-0.42  0.14  0.0803456423647
-0.42  0.16  0.0749043483833
-0.42  0.18  0.0714178483571
-0.42  0.2  0.0979865763462
-0.42  0.22  0.0750791868078
-0.42  0.24  0.057527107303
-0.42  0.26  0.0440783686579
-0.42  0.28  0.0337736881729
-0.42  0.3  0.0258780451168
-0.42  0.32  0.0198282525627
-0.42  0.34  0.0151927859278
-0.42  0.36  0.0116410028326
-0.42  0.38  0.00891955876906
-0.42  0.4  0.00683433633501
-0.42  0.42  0.00523659906833
-0.42  0.44  0.00401238225019
-0.42  0.46  0.00307436393575
-0.42  0.48  0.0023556363826
-0.42  0.5  0.00180493360025
-0.42  0.52  0.00138297460736
-0.42  0.54  0.00105966156557
-0.42  0.56  0.000811932936137
-0.42  0.58  0.000622118527463
-0.42  0.6  0.000476679101176
-0.42  0.62  0.000365240634167
-0.42  0.64  0.000279854351738
-0.42  0.66  0.000214429750856
-0.42  0.68  0.000164300171738
-0.42  0.7  0.000125889930503
-0.42  0.72  0.00009645926985
-0.42  0.74  0.0000739089353916
-0.42  0.76  0.0000566304383105
-0.42  0.78  0.0000433913237452
-0.42  0.8  0.000033247261235
-0.42  0.82  0.0000254746867396
-0.42  0.84  0.000019519191668
-0.42  0.86  0.0000149559775658
-0.42  0.88  0.0000114595557415
-0.42  0.9  0.00000878053054133
-0.42  0.92  0.00000672781025081
-0.42  0.94  0.00000515497674746
-0.42  0.96  0.00000394984166857
-0.42  0.98  0.00000302644414729
-0.4  -1  0.00000303605086
-0.4  -0.98  0.00000396237948269
-0.4  -0.96  0.00000517133997052
-0.4  -0.94  0.00000674916605224
-0.4  -0.92  0.00000880840220532
-0.4  -0.9  0.000011495931321
-0.4  -0.88  0.0000150034516881
-0.4  -0.86  0.0000195811506065
-0.4  -0.84  0.0000255555499524
-0.4  -0.82  0.0000333527965998
-0.4  -0.8  0.0000435290589754
-0.4  -0.78  0.000056810197898
-0.4  -0.76  0.0000741435413762
-0.4  -0.74  0.0000967654564005
-0.4  -0.72  0.000126289537546
-0.4  -0.7  0.000164821702773
-0.4  -0.68  0.000215110406078
-0.4  -0.66  0.000280742681483
-0.4  -0.64  0.00036640000195
-0.4  -0.62  0.000478192203337
-0.4  -0.6  0.000624093291798
-0.4  -0.58  0.000814510220262
-0.4  -0.56  0.00106302520413
-0.4  -0.54  0.00138736452473
-0.4  -0.52  0.00181066292407
-0.4  -0.5  0.0023631137788
-0.4  -0.48  0.0030841227582
-0.4  -0.46  0.00402511858422
-0.4  -0.44  0.00525322138164
-0.4  -0.42  0.00685603027765
-0.4  -0.4  0.00894787174443
-0.4  -0.38  0.0116779543719
-0.4  -0.36  0.0152410117408
-0.4  -0.34  0.01989119254
-0.4  -0.32  0.0259601886928
-0.4  -0.3  0.0338808945523
-0.4  -0.28  0.0442182847455
-0.4  -0.26  0.0577097131487
-0.4  -0.24  0.0753175074716
-0.4  -0.22  0.0982976109606
-0.4  -0.2  0.0923636107888
-0.4  -0.18  0.0935039945413
-0.4  -0.16  0.098068703321
-0.4  -0.14  0.10519273092
-0.4  -0.12  0.113753375561
-0.4  -0.1  0.122677562792
-0.4  -0.08  0.131075396246
-0.4  -0.06  0.138260639889
-0.4  -0.04  0.143731266454
-0.4  -0.02  0.147145725425
-0.4  6.17561557e-16  0.148305581754
-0.4  0.02  0.147145725425
-0.4  0.04  0.143731266454
-0.4  0.06  0.138260639889
-0.4  0.08  0.131075396246
-0.4  0.1  0.122677562792
-0.4  0.12  0.113753375561
-0.4  0.14  0.10519273092
-0.4  0.16  0.098068703321
-0.4  0.18  0.0935039945413
-0.4  0.2  0.128289167352
-0.4  0.22  0.0982976109606
-0.4  0.24  0.0753175074716
-0.4  0.26  0.0577097131487
-0.4  0.28  0.0442182847455
-0.4  0.3  0.0338808945523
-0.4  0.32  0.0259601886928
-0.4  0.34  0.01989119254
-0.4  0.36  0.0152410117408
-0.4  0.38  0.0116779543719
-0.4  0.4  0.00894787174443
-0.4  0.42  0.00685603027765
-0.4  0.44  0.00525322138164
-0.4  0.46  0.00402511858422
-0.4  0.48  0.0030841227582
-0.4  0.5  0.0023631137788
-0.4  0.52  0.00181066292407
-0.4  0.54  0.00138736452473
-0.4  0.56  0.00106302520413
-0.4  0.58  0.000814510220262
-0.4  0.6  0.000624093291798
-0.4  0.62  0.000478192203337
-0.4  0.64  0.00036640000195
-0.4  0.66  0.000280742681483
-0.4  0.68  0.000215110406078
-0.4  0.7  0.000164821702773
-0.4  0.72  0.000126289537546
-0.4  0.74  0.0000967654564005
-0.4  0.76  0.0000741435413762
-0.4  0.78  0.000056810197898
-0.4  0.8  0.0000435290589754
-0.4  0.82  0.0000333527965998
-0.4  0.84  0.0000255555499524
-0.4  0.86  0.0000195811506065
-0.4  0.88  0.0000150034516881
-0.4  0.9  0.000011495931321
-0.4  0.92  0.00000880840220531
-0.4  0.94  0.00000674916605224
-0.4  0.96  0.00000517133997052
-0.4  0.98  0.00000396237948269
-0.38  -1  0.00000397495709506
-0.38  -0.98  0.00000518775513465
-0.38  -0.96  0.00000677058964248
-0.38  -0.94  0.00000883636234114
-0.38  -0.92  0.000011532422366
-0.38  -0.9  0.0000150510765056
-0.38  -0.88  0.0000196433062186
-0.38  -0.86  0.0000256366698457
-0.38  -0.84  0.0000334586669609
-0.38  -0.82  0.0000436672314127
-0.38  -0.8  0.0000569905280887
-0.38  -0.78  0.0000743788920605
-0.38  -0.76  0.0000970726148658
-0.38  -0.74  0.000126690413044
-0.38  -0.72  0.000165344889281
-0.38  -0.7  0.000215793221875
-0.38  -0.68  0.000281633831016
-0.38  -0.66  0.000367563049865
-0.38  -0.64  0.000479710108474
-0.38  -0.62  0.000626074324544
-0.38  -0.6  0.000817095685351
-0.38  -0.58  0.00106639951975
-0.38  -0.56  0.00139176837683
-0.38  -0.54  0.00181641043425
-0.38  -0.52  0.00237061491019
-0.38  -0.5  0.00309391255767
-0.38  -0.48  0.00403789534664
-0.38  -0.46  0.00526989645845
-0.38  -0.44  0.00687779308244
-0.38  -0.42  0.00897627459247
-0.38  -0.4  0.0117150232049
-0.38  -0.38  0.015289390635
-0.38  -0.36  0.0199543323049
-0.38  -0.34  0.0260425930137
-0.38  -0.32  0.0339884412323
-0.38  -0.3  0.0443586449628
-0.38  -0.28  0.0578928986323
-0.38  -0.26  0.0755565846265
-0.38  -0.24  0.0986096328789
-0.38  -0.22  0.12869639019
-0.38  -0.2  0.120927285793
-0.38  -0.18  0.122420336041
-0.38  -0.16  0.128396692297
-0.38  -0.14  0.137723843044
-0.38  -0.12  0.148931888208
-0.38  -0.1  0.160615902404
-0.38  -0.08  0.171610786617
-0.38  -0.06  0.181018084623
-0.38  -0.04  0.188180515979
-0.38  -0.02  0.192650904829
-0.38  6.17561557e-16  0.194169449595
-0.38  0.02  0.192650904829
-0.38  0.04  0.188180515979
-0.38  0.06  0.181018084623
-0.38  0.08  0.171610786617
-0.38  0.1  0.160615902404
-0.38  0.12  0.148931888208
-0.38  0.14  0.137723843044
-0.38  0.16  0.128396692297
-0.38  0.18  0.122420336041
-0.38  0.2  0.167962909549
-0.38  0.22  0.12869639019
-0.38  0.24  0.0986096328789
-0.38  0.26  0.0755565846265
-0.38  0.28  0.0578928986323
-0.38  0.3  0.0443586449628
-0.38  0.32  0.0339884412323
-0.38  0.34  0.0260425930137
-0.38  0.36  0.0199543323049
-0.38  0.38  0.015289390635
-0.38  0.4  0.0117150232049
-0.38  0.42  0.00897627459247
-0.38  0.44  0.00687779308244
-0.38  0.46  0.00526989645845
-0.38  0.48  0.00403789534664
-0.38  0.5  0.00309391255767
-0.38  0.52  0.00237061491019
-0.38  0.54  0.00181641043425
-0.38  0.56  0.00139176837683
-0.38  0.58  0.00106639951975
-0.38  0.6  0.000817095685351
-0.38  0.62  0.000626074324544
-0.38  0.64  0.000479710108474
-0.38  0.66  0.000367563049865
-0.38  0.68  0.000281633831016
-0.38  0.7  0.000215793221875
-0.38  0.72  0.000165344889281
-0.38  0.74  0.000126690413044
-0.38  0.76  0.0000970726148658
-0.38  0.78  0.0000743788920605
-0.38  0.8  0.0000569905280887
-0.38  0.82  0.0000436672314127
-0.38  0.84  0.0000334586669609
-0.38  0.86  0.0000256366698457
-0.38  0.88  0.0000196433062186
-0.38  0.9  0.0000150510765056
-0.38  0.92  0.000011532422366
-0.38  0.94  0.00000883636234114
-0.38  0.96  0.00000677058964248
-0.38  0.98  0.00000518775513465
-0.36  -1  0.00000520422240474
-0.36  -0.98  0.00000679208123671
-0.36  -0.96  0.00000886441122963
-0.36  -0.94  0.0000115690292429
-0.36  -0.92  0.0000150988524965
-0.36  -0.9  0.0000197056591286
-0.36  -0.88  0.0000257180472345
-0.36  -0.86  0.0000335648733819
-0.36  -0.84  0.0000438058424448
-0.36  -0.82  0.0000571714306938
-0.36  -0.8  0.0000746149898085
-0.36  -0.78  0.0000973807483312
-0.36  -0.76  0.000127092561024
-0.36  -0.74  0.000165869736518
-0.36  -0.72  0.000216478205105
-0.36  -0.7  0.000282527809286
-0.36  -0.68  0.000368729789594
-0.36  -0.66  0.000481232831832
-0.36  -0.64  0.000628061645597
-0.36  -0.62  0.000819689357371
-0.36  -0.6  0.00106978454631
-0.36  -0.58  0.00139618620789
-0.36  -0.56  0.0018221761885
-0.36  -0.54  0.00237813985209
-0.36  -0.52  0.00310373343248
-0.36  -0.5  0.0040507126658
-0.36  -0.48  0.00528662446624
-0.36  -0.46  0.00689962496798
-0.36  -0.44  0.00900476759846
-0.36  -0.42  0.0117522097039
-0.36  -0.4  0.0153379230963
-0.36  -0.38  0.0200176724918
-0.36  -0.36  0.0261252589071
-0.36  -0.34  0.0340963292932
-0.36  -0.32  0.0444994507195
-0.36  -0.3  0.0580766655938
-0.36  -0.28  0.0757964206739
-0.36  -0.26  0.0989226452351
-0.36  -0.24  0.129104905658
-0.36  -0.22  0.168496067057
-0.36  -0.2  0.158324347916
-0.36  -0.18  0.160279127644
-0.36  -0.16  0.168103686849
-0.36  -0.14  0.180315282027
-0.36  -0.12  0.194989442869
-0.36  -0.1  0.210286767343
-0.36  -0.08  0.224681846684
-0.36  -0.06  0.236998374858
-0.36  -0.04  0.24637580582
-0.36  -0.02  0.252228673475
-0.36  6.17561557e-16  0.254216831965
-0.36  0.02  0.252228673475
-0.36  0.04  0.24637580582
-0.36  0.06  0.236998374858
-0.36  0.08  0.224681846684
-0.36  0.1  0.210286767343
-0.36  0.12  0.194989442869
-0.36  0.14  0.180315282027
-0.36  0.16  0.168103686849
-0.36  0.18  0.160279127644
-0.36  0.2  0.219905854614
-0.36  0.22  0.168496067057
-0.36  0.24  0.129104905658
-0.36  0.26  0.0989226452351
-0.36  0.28  0.0757964206739
-0.36  0.3  0.0580766655938
-0.36  0.32  0.0444994507195
-0.36  0.34  0.0340963292932
-0.36  0.36  0.0261252589071
-0.36  0.38  0.0200176724918
-0.36  0.4  0.0153379230963
-0.36  0.42  0.0117522097039
-0.36  0.44  0.00900476759845
-0.36  0.46  0.00689962496798
-0.36  0.48  0.00528662446624
-0.36  0.5  0.0040507126658
-0.36  0.52  0.00310373343248
-0.36  0.54  0.00237813985209
-0.36  0.56  0.0018221761885
-0.36  0.58  0.00139618620789
-0.36  0.6  0.00106978454631
-0.36  0.62  0.000819689357371
-0.36  0.64  0.000628061645597
-0.36  0.66  0.000481232831832
-0.36  0.68  0.000368729789594
-0.36  0.7  0.000282527809286
-0.36  0.72  0.000216478205105
-0.36  0.74  0.000165869736518
-0.36  0.76  0.000127092561024
-0.36  0.78  0.0000973807483312
-0.36  0.8  0.0000746149898085
-0.36  0.82  0.0000571714306938
-0.36  0.84  0.0000438058424448
-0.36  0.86  0.0000335648733819
-0.36  0.88  0.0000257180472345
-0.36  0.9  0.0000197056591286
-0.36  0.92  0.0000150988524965
-0.36  0.94  0.0000115690292429
-0.36  0.96  0.00000886441122963
-0.36  0.98  0.00000679208123671
-0.34  -1  0.00000681364105079
-0.34  -0.98  0.00000889254915251
-0.34  -0.96  0.0000116057523195
-0.34  -0.94  0.0000151467801406
-0.34  -0.92  0.0000197682099627
-0.34  -0.9  0.0000257996829361
-0.34  -0.88  0.0000336714169294
-0.34  -0.86  0.000043944893464
-0.34  -0.84  0.0000573529075303
-0.34  -0.82  0.0000748518369916
-0.34  -0.8  0.0000976898598916
-0.34  -0.78  0.000127495985526
-0.34  -0.76  0.000166396249756
-0.34  -0.74  0.000217165362648
-0.34  -0.72  0.000283424625273
-0.34  -0.7  0.000369900232855
-0.34  -0.68  0.000482760388706
-0.34  -0.66  0.000630055274919
-0.34  -0.64  0.000822291262373
-0.34  -0.62  0.00107318031781
-0.34  -0.6  0.00140061806228
-0.34  -0.58  0.00182796024473
-0.34  -0.56  0.0023856886801
-0.34  -0.54  0.00311358548128
-0.34  -0.52  0.00406357067042
-0.34  -0.5  0.00530340557304
-0.34  -0.48  0.00692152615355
-0.34  -0.46  0.00903335104858
-0.34  -0.44  0.0117895142425
-0.34  -0.42  0.0153866096121
-0.34  -0.4  0.0200812137367
-0.34  -0.38  0.0262081872033
-0.34  -0.36  0.0342045598185
-0.34  -0.34  0.0446407034299
-0.34  -0.32  0.0582610158789
-0.34  -0.3  0.0760370180226
-0.34  -0.28  0.0992366511731
-0.34  -0.26  0.129514717859
-0.34  -0.24  0.169030916943
-0.34  -0.22  0.220603892399
-0.34  -0.2  0.207286543965
-0.34  -0.18  0.209845844157
-0.34  -0.16  0.220090167642
-0.34  -0.14  0.236078228821
-0.34  -0.12  0.255290410185
-0.34  -0.1  0.275318470076
-0.34  -0.08  0.294165263295
-0.34  -0.06  0.310290708258
-0.34  -0.04  0.322568132932
-0.34  -0.02  0.33023101438
-0.34  6.17561557e-16  0.332834015798
-0.34  0.02  0.33023101438
-0.34  0.04  0.322568132932
-0.34  0.06  0.310290708258
-0.34  0.08  0.294165263295
-0.34  0.1  0.275318470076
-0.34  0.12  0.255290410185
-0.34  0.14  0.236078228821
-0.34  0.16  0.220090167642
-0.34  0.18  0.209845844157
-0.34  0.2  0.287912283868
-0.34  0.22  0.220603892399
-0.34  0.24  0.169030916943
-0.34  0.26  0.129514717859
-0.34  0.28  0.0992366511731
-0.34  0.3  0.0760370180226
-0.34  0.32  0.0582610158789
-0.34  0.34  0.0446407034299
-0.34  0.36  0.0342045598185
-0.34  0.38  0.0262081872033
-0.34  0.4  0.0200812137367
-0.34  0.42  0.0153866096121
-0.34  0.44  0.0117895142425
-0.34  0.46  0.00903335104858
-0.34  0.48  0.00692152615355
-0.34  0.5  0.00530340557304
-0.34  0.52  0.00406357067042
-0.34  0.54  0.00311358548127
-0.34  0.56  0.0023856886801
-0.34  0.58  0.00182796024473
-0.34  0.6  0.00140061806228
-0.34  0.62  0.00107318031781
-0.34  0.64  0.000822291262373
-0.34  0.66  0.000630055274919
-0.34  0.68  0.000482760388706
-0.34  0.7  0.000369900232855
-0.34  0.72  0.000283424625273
-0.34  0.74  0.000217165362648
-0.34  0.76  0.000166396249756
-0.34  0.78  0.000127495985525
-0.34  0.8  0.0000976898598916
-0.34  0.82  0.0000748518369916
-0.34  0.84  0.0000573529075303
-0.34  0.86  0.000043944893464
-0.34  0.88  0.0000336714169294
-0.34  0.9  0.0000257996829361
-0.34  0.92  0.0000197682099627
-0.34  0.94  0.0000151467801406
-0.34  0.96  0.0000116057523195
-0.34  0.98  0.00000889254915251
-0.32  -1  0.0000089207763924
-0.32  -0.98  0.0000116425919646
-0.32  -0.96  0.0000151948599195
-0.32  -0.94  0.0000198309593494
-0.32  -0.92  0.0000258815777704
-0.32  -0.9  0.0000337782986735
-0.32  -0.88  0.000044084385867
-0.32  -0.86  0.0000575349604211
-0.32  -0.84  0.0000750894359885
-0.32  -0.82  0.0000979999526516
-0.32  -0.8  0.0001279006906
-0.32  -0.78  0.000166924434282
-0.32  -0.76  0.000217854701406
-0.32  -0.74  0.000284324287985
-0.32  -0.72  0.000371074391403
-0.32  -0.7  0.000484292794439
-0.32  -0.68  0.000632055232533
-0.32  -0.66  0.000824901426492
-0.32  -0.64  0.00107658686837
-0.32  -0.62  0.00140506398452
-0.32  -0.6  0.00183376266105
-0.32  -0.58  0.00239326147003
-0.32  -0.56  0.00312346880301
-0.32  -0.54  0.00407646948967
-0.32  -0.52  0.00532023994739
-0.32  -0.5  0.00694349685911
-0.32  -0.48  0.00906202522993
-0.32  -0.46  0.0118269371952
-0.32  -0.44  0.0154354506714
-0.32  -0.42  0.0201449566778
-0.32  -0.4  0.0262913787353
-0.32  -0.38  0.0343131338954
-0.32  -0.36  0.0447824045128
-0.32  -0.34  0.0584459513393
-0.32  -0.32  0.0762783790892
-0.32  -0.3  0.0995516538467
-0.32  -0.28  0.12992583091
-0.32  -0.26  0.169567464581
-0.32  -0.24  0.221304145935
-0.32  -0.22  0.288826191563
-0.32  -0.2  0.271390420199
-0.32  -0.18  0.274741190304
-0.32  -0.16  0.288153596155
-0.32  -0.14  0.309086004785
-0.32  -0.12  0.334239600737
-0.32  -0.1  0.360461387669
-0.32  -0.08  0.385136598289
-0.32  -0.06  0.406248876978
-0.32  -0.04  0.422323125587
-0.32  -0.02  0.432355772069
-0.32  6.17561557e-16  0.435763758112
-0.32  0.02  0.432355772069
-0.32  0.04  0.422323125587
-0.32  0.06  0.406248876978
-0.32  0.08  0.385136598289
-0.32  0.1  0.360461387669
-0.32  0.12  0.334239600737
-0.32  0.14  0.309086004785
-0.32  0.16  0.288153596155
-0.32  0.18  0.274741190304
-0.32  0.2  0.376949869514
-0.32  0.22  0.288826191563
-0.32  0.24  0.221304145935
-0.32  0.26  0.169567464581
-0.32  0.28  0.12992583091
-0.32  0.3  0.0995516538467
-0.32  0.32  0.0762783790892
-0.32  0.34  0.0584459513393
-0.32  0.36  0.0447824045128
-0.32  0.38  0.0343131338954
-0.32  0.4  0.0262913787353
-0.32  0.42  0.0201449566778
-0.32  0.44  0.0154354506714
-0.32  0.46  0.0118269371952
-0.32  0.48  0.00906202522993
-0.32  0.5  0.00694349685911
-0.32  0.52  0.00532023994738
-0.32  0.54  0.00407646948967
-0.32  0.56  0.00312346880301
-0.32  0.58  0.00239326147003
-0.32  0.6  0.00183376266105
-0.32  0.62  0.00140506398452
-0.32  0.64  0.00107658686837
-0.32  0.66  0.000824901426492
-0.32  0.68  0.000632055232533
-0.32  0.7  0.000484292794439
-0.32  0.72  0.000371074391403
-0.32  0.74  0.000284324287985
-0.32  0.76  0.000217854701406
-0.32  0.78  0.000166924434282
-0.32  0.8  0.0001279006906
-0.32  0.82  0.0000979999526515
-0.32  0.84  0.0000750894359885
-0.32  0.86  0.0000575349604211
-0.32  0.88  0.000044084385867
-0.32  0.9  0.0000337782986735
-0.32  0.92  0.0000258815777704
-0.32  0.94  0.0000198309593494
-0.32  0.96  0.0000151948599195
-0.32  0.98  0.0000116425919646
-0.3  -1  0.0000116795485483
-0.3  -0.98  0.0000152430923159
-0.3  -0.96  0.0000198939079187
-0.3  -0.94  0.00002596373256
-0.3  -0.92  0.0000338855196878
-0.3  -0.9  0.0000442243210548
-0.3  -0.88  0.0000577175911946
-0.3  -0.86  0.0000753277891859
-0.3  -0.84  0.0000983110297258
-0.3  -0.82  0.000128306680313
-0.3  -0.8  0.000167454295401
-0.3  -0.78  0.000218546228302
-0.3  -0.76  0.000285226806459
-0.3  -0.74  0.000372252277034
-0.3  -0.72  0.000485830064422
-0.3  -0.7  0.000634061538528
-0.3  -0.68  0.000827519875944
-0.3  -0.66  0.00108000423219
-0.3  -0.64  0.00140952401926
-0.3  -0.62  0.00183958349574
-0.3  -0.6  0.00240085829794
-0.3  -0.58  0.00313338349695
-0.3  -0.56  0.00408940925308
-0.3  -0.54  0.00533712775837
-0.3  -0.52  0.00696553730535
-0.3  -0.5  0.00909079043051
-0.3  -0.48  0.011864478938
-0.3  -0.46  0.0154844467648
-0.3  -0.44  0.0202089019555
-0.3  -0.42  0.0263748343386
-0.3  -0.4  0.0344220526144
-0.3  -0.38  0.0449245553914
-0.3  -0.36  0.0586314738324
-0.3  -0.34  0.0765205062979
-0.3  -0.32  0.09986765642
-0.3  -0.3  0.130338248939
-0.3  -0.28  0.170105715359
-0.3  -0.26  0.222006622256
-0.3  -0.24  0.289743000237
-0.3  -0.22  0.378146405424
-0.3  -0.2  0.355318578656
-0.3  -0.18  0.3597055827
-0.3  -0.16  0.377265808223
-0.3  -0.14  0.404671615976
-0.3  -0.12  0.437604023669
-0.3  -0.1  0.471934963042
-0.3  -0.08  0.504241043556
-0.3  -0.06  0.531882346629
-0.3  -0.04  0.552927596364
-0.3  -0.02  0.566062863577
-0.3  6.17561557e-16  0.57052477773
-0.3  0.02  0.566062863577
-0.3  0.04  0.552927596364
-0.3  0.06  0.531882346629
-0.3  0.08  0.504241043556
-0.3  0.1  0.471934963042
-0.3  0.12  0.437604023669
-0.3  0.14  0.404671615976
-0.3  0.16  0.377265808223
-0.3  0.18  0.3597055827
-0.3  0.2  0.493522548666
-0.3  0.22  0.378146405424
-0.3  0.24  0.289743000237
-0.3  0.26  0.222006622256
-0.3  0.28  0.170105715359
-0.3  0.3  0.130338248939
-0.3  0.32  0.09986765642
-0.3  0.34  0.0765205062979
-0.3  0.36  0.0586314738324
-0.3  0.38  0.0449245553914
-0.3  0.4  0.0344220526144
-0.3  0.42  0.0263748343386
-0.3  0.44  0.0202089019555
-0.3  0.46  0.0154844467648
-0.3  0.48  0.011864478938
-0.3  0.5  0.00909079043051
-0.3  0.52  0.00696553730535
-0.3  0.54  0.00533712775837
-0.3  0.56  0.00408940925308
-0.3  0.58  0.00313338349695
-0.3  0.6  0.00240085829794
-0.3  0.62  0.00183958349574
-0.3  0.64  0.00140952401926
-0.3  0.66  0.00108000423219
-0.3  0.68  0.000827519875944
-0.3  0.7  0.000634061538528
-0.3  0.72  0.000485830064422
-0.3  0.74  0.000372252277034
-0.3  0.76  0.000285226806459
-0.3  0.78  0.000218546228302
-0.3  0.8  0.000167454295401
-0.3  0.82  0.000128306680313
-0.3  0.84  0.0000983110297258
-0.3  0.86  0.0000753277891858
-0.3  0.88  0.0000577175911945
-0.3  0.9  0.0000442243210548
-0.3  0.92  0.0000338855196878
-0.3  0.94  0.00002596373256
-0.3  0.96  0.0000198939079187
-0.3  0.98  0.0000152430923159
-0.28  -1  0.0000152914778144
-0.28  -0.98  0.000019957056303
-0.28  -0.96  0.00002604614813
-0.28  -0.94  0.0000339930810492
-0.28  -0.92  0.0000443647004328
-0.28  -0.9  0.0000579008016851
-0.28  -0.88  0.0000755668989776
-0.28  -0.86  0.0000986230942387
-0.28  -0.84  0.000128713958741
-0.28  -0.82  0.000167985838436
-0.28  -0.8  0.000219239950283
-0.28  -0.78  0.000286132189758
-0.28  -0.76  0.000373433901576
-0.28  -0.74  0.000487372214096
-0.28  -0.72  0.000636074213054
-0.28  -0.7  0.000830146637028
-0.28  -0.68  0.00108343244361
-0.28  -0.66  0.0014139982113
-0.28  -0.64  0.00184542280725
-0.28  -0.62  0.00240847924015
-0.28  -0.6  0.00314332966268
-0.28  -0.58  0.00410239009064
-0.28  -0.56  0.00535406917562
-0.28  -0.54  0.00698764771364
-0.28  -0.52  0.00911964693924
-0.28  -0.5  0.011902139848
-0.28  -0.48  0.0155335983844
-0.28  -0.46  0.0202730502119
-0.28  -0.44  0.0264585548515
-0.28  -0.42  0.0345313170694
-0.28  -0.4  0.0450671574935
-0.28  -0.38  0.0588175852217
-0.28  -0.36  0.0767634020808
-0.28  -0.34  0.100184662067
-0.28  -0.32  0.13075197609
-0.28  -0.3  0.170645674684
-0.28  -0.28  0.222711328418
-0.28  -0.26  0.290662719098
-0.28  -0.24  0.379346739447
-0.28  -0.22  0.495089116264
-0.28  -0.2  0.465201727626
-0.28  -0.18  0.470945423518
-0.28  -0.16  0.493936192201
-0.28  -0.14  0.529817313763
-0.28  -0.12  0.57293414996
-0.28  -0.1  0.617882017217
-0.28  -0.08  0.660178833007
-0.28  -0.06  0.696368277397
-0.28  -0.04  0.723921822647
-0.28  -0.02  0.741119203722
-0.28  6.17561557e-16  0.746960975859
-0.28  0.02  0.741119203722
-0.28  0.04  0.723921822647
-0.28  0.06  0.696368277397
-0.28  0.08  0.660178833007
-0.28  0.1  0.617882017217
-0.28  0.12  0.57293414996
-0.28  0.14  0.529817313763
-0.28  0.16  0.493936192201
-0.28  0.18  0.470945423518
-0.28  0.2  0.646145617069
-0.28  0.22  0.495089116264
-0.28  0.24  0.379346739447
-0.28  0.26  0.290662719098
-0.28  0.28  0.222711328418
-0.28  0.3  0.170645674684
-0.28  0.32  0.13075197609
-0.28  0.34  0.100184662067
-0.28  0.36  0.0767634020808
-0.28  0.38  0.0588175852217
-0.28  0.4  0.0450671574935
-0.28  0.42  0.0345313170694
-0.28  0.44  0.0264585548515
-0.28  0.46  0.0202730502119
-0.28  0.48  0.0155335983844
-0.28  0.5  0.011902139848
-0.28  0.52  0.00911964693924
-0.28  0.54  0.00698764771364
-0.28  0.56  0.00535406917562
-0.28  0.58  0.00410239009064
-0.28  0.6  0.00314332966268
-0.28  0.62  0.00240847924015
-0.28  0.64  0.00184542280725
-0.28  0.66  0.0014139982113
-0.28  0.68  0.00108343244361
-0.28  0.7  0.000830146637028
-0.28  0.72  0.000636074213054
-0.28  0.74  0.000487372214096
-0.28  0.76  0.000373433901576
-0.28  0.78  0.000286132189758
-0.28  0.8  0.000219239950283
-0.28  0.82  0.000167985838436
-0.28  0.84  0.000128713958741
-0.28  0.86  0.0000986230942387
-0.28  0.88  0.0000755668989776
-0.28  0.9  0.0000579008016851
-0.28  0.92  0.0000443647004328
-0.28  0.94  0.0000339930810492
-0.28  0.96  0.00002604614813
-0.28  0.98  0.000019957056303
-0.26  -1  0.0000200204051365
-0.26  -0.98  0.0000261288253083
-0.26  -0.96  0.000034100983838
-0.26  -0.94  0.0000445055254112
-0.26  -0.92  0.0000580845937329
-0.26  -0.9  0.0000758067677653
-0.26  -0.88  0.0000989361493247
-0.26  -0.86  0.000129122529977
-0.26  -0.84  0.000168519068726
-0.26  -0.82  0.000219935874316
-0.26  -0.8  0.000287040446976
-0.26  -0.78  0.000374619276899
-0.26  -0.76  0.00048891925895
-0.26  -0.74  0.000638093276328
-0.26  -0.72  0.000832781736128
-0.26  -0.7  0.00108687153706
-0.26  -0.68  0.00141848660558
-0.26  -0.66  0.00185128065424
-0.26  -0.64  0.00241612437318
-0.26  -0.62  0.0031533074001
-0.26  -0.6  0.00411541213271
-0.26  -0.58  0.00537106436928
-0.26  -0.56  0.00700982830605
-0.26  -0.54  0.00914859504596
-0.26  -0.52  0.0119399203034
-0.26  -0.5  0.0155829060239
-0.26  -0.48  0.0203374020915
-0.26  -0.46  0.0265425411149
-0.26  -0.44  0.0346409283579
-0.26  -0.42  0.0452102122514
-0.26  -0.4  0.0590042873764
-0.26  -0.38  0.0770070688773
-0.26  -0.36  0.100502673971
-0.26  -0.34  0.131167016516
-0.26  -0.32  0.171187347978
-0.26  -0.3  0.223418271499
-0.26  -0.28  0.291585357383
-0.26  -0.26  0.380550883639
-0.26  -0.24  0.496660656552
-0.26  -0.22  0.648196649572
-0.26  -0.2  0.609066512101
-0.26  -0.18  0.616586460148
-0.26  -0.16  0.646687180891
-0.26  -0.14  0.693664628012
-0.26  -0.12  0.750115452408
-0.26  -0.1  0.808963558748
-0.26  -0.08  0.864340769399
-0.26  -0.06  0.911721888945
-0.26  -0.04  0.94779643619
-0.26  -0.02  0.970312149882
-0.26  6.17561557e-16  0.977960504496
-0.26  0.02  0.970312149882
-0.26  0.04  0.94779643619
-0.26  0.06  0.911721888945
-0.26  0.08  0.864340769399
-0.26  0.1  0.808963558748
-0.26  0.12  0.750115452408
-0.26  0.14  0.693664628012
-0.26  0.16  0.646687180891
-0.26  0.18  0.616586460148
-0.26  0.2  0.845967746736
-0.26  0.22  0.648196649571
-0.26  0.24  0.496660656552
-0.26  0.26  0.380550883639
-0.26  0.28  0.291585357383
-0.26  0.3  0.223418271499
-0.26  0.32  0.171187347978
-0.26  0.34  0.131167016516
-0.26  0.36  0.100502673971
-0.26  0.38  0.0770070688773
-0.26  0.4  0.0590042873764
-0.26  0.42  0.0452102122514
-0.26  0.44  0.0346409283579
-0.26  0.46  0.0265425411149
-0.26  0.48  0.0203374020915
-0.26  0.5  0.0155829060239
-0.26  0.52  0.0119399203034
-0.26  0.54  0.00914859504596
-0.26  0.56  0.00700982830605
-0.26  0.58  0.00537106436928
-0.26  0.6  0.00411541213271
-0.26  0.62  0.0031533074001
-0.26  0.64  0.00241612437318
-0.26  0.66  0.00185128065424
-0.26  0.68  0.00141848660558
-0.26  0.7  0.00108687153706
-0.26  0.72  0.000832781736128
-0.26  0.74  0.000638093276328
-0.26  0.76  0.00048891925895
-0.26  0.78  0.000374619276899
-0.26  0.8  0.000287040446976
-0.26  0.82  0.000219935874316
-0.26  0.84  0.000168519068726
-0.26  0.86  0.000129122529977
-0.26  0.88  0.0000989361493247
-0.26  0.9  0.0000758067677653
-0.26  0.92  0.0000580845937329
-0.26  0.94  0.0000445055254112
-0.26  0.96  0.000034100983838
-0.26  0.98  0.0000261288253083
-0.24  -1  0.0000262117649252
-0.24  -0.98  0.0000342092291381
-0.24  -0.96  0.0000446467974042
-0.24  -0.94  0.000058268969184
-0.24  -0.92  0.0000760473979584
-0.24  -0.9  0.0000992501981282
-0.24  -0.88  0.000129532398122
-0.24  -0.86  0.000169053991626
-0.24  -0.84  0.000220634007391
-0.24  -0.82  0.000287951587237
-0.24  -0.8  0.000375808414908
-0.24  -0.78  0.000490471214522
-0.24  -0.76  0.000640118748628
-0.24  -0.74  0.000835425199711
-0.24  -0.72  0.00109032154707
-0.24  -0.7  0.00142298924717
-0.24  -0.68  0.00185715709554
-0.24  -0.66  0.00242379377383
-0.24  -0.64  0.00316331680943
-0.24  -0.62  0.0041284755101
-0.24  -0.6  0.00538811351006
-0.24  -0.58  0.00703207930538
-0.24  -0.56  0.00917763504142
-0.24  -0.54  0.0119778206837
-0.24  -0.52  0.0156323701786
-0.24  -0.5  0.0204019582404
-0.24  -0.48  0.0266267939722
-0.24  -0.46  0.0347508875808
-0.24  -0.44  0.0453537211018
-0.24  -0.42  0.0591915821719
-0.24  -0.4  0.077251509135
-0.24  -0.38  0.100821695327
-0.24  -0.36  0.131583374388
-0.24  -0.34  0.171730740683
-0.24  -0.32  0.224127458599
-0.24  -0.3  0.292510924359
-0.24  -0.28  0.381758850095
-0.24  -0.26  0.498237185313
-0.24  -0.24  0.650254192579
-0.24  -0.22  0.848653066111
-0.24  -0.2  0.797421836878
-0.24  -0.18  0.807267347453
-0.24  -0.16  0.846676790509
-0.24  -0.14  0.908182129302
-0.24  -0.12  0.982090510718
-0.24  -0.1  1.05913753944
-0.24  -0.08  1.13164028941
-0.24  -0.06  1.19367413732
-0.24  -0.04  1.2409048275
-0.24  -0.02  1.27038358132
-0.24  6.17561557e-16  1.28039720851
-0.24  0.02  1.27038358132
-0.24  0.04  1.2409048275
-0.24  0.06  1.19367413732
-0.24  0.08  1.13164028941
-0.24  0.1  1.05913753944
-0.24  0.12  0.982090510718
-0.24  0.14  0.908182129302
-0.24  0.16  0.846676790509
-0.24  0.18  0.807267347453
-0.24  0.2  1.10758536406
-0.24  0.22  0.848653066111
-0.24  0.24  0.650254192579
-0.24  0.26  0.498237185313
-0.24  0.28  0.381758850095
-0.24  0.3  0.292510924359
-0.24  0.32  0.224127458599
-0.24  0.34  0.171730740683
-0.24  0.36  0.131583374388
-0.24  0.38  0.100821695327
-0.24  0.4  0.077251509135
-0.24  0.42  0.0591915821718
-0.24  0.44  0.0453537211018
-0.24  0.46  0.0347508875808
-0.24  0.48  0.0266267939722
-0.24  0.5  0.0204019582404
-0.24  0.52  0.0156323701786
-0.24  0.54  0.0119778206837
-0.24  0.56  0.00917763504142
-0.24  0.58  0.00703207930538
-0.24  0.6  0.00538811351006
-0.24  0.62  0.0041284755101
-0.24  0.64  0.00316331680943
-0.24  0.66  0.00242379377383
-0.24  0.68  0.00185715709554
-0.24  0.7  0.00142298924717
-0.24  0.72  0.00109032154707
-0.24  0.74  0.000835425199711
-0.24  0.76  0.000640118748627
-0.24  0.78  0.000490471214522
-0.24  0.8  0.000375808414908
-0.24  0.82  0.000287951587237
-0.24  0.84  0.000220634007391
-0.24  0.86  0.000169053991626
-0.24  0.88  0.000129532398122
-0.24  0.9  0.0000992501981282
-0.24  0.92  0.0000760473979583
-0.24  0.94  0.000058268969184
-0.24  0.96  0.0000446467974042
-0.24  0.98  0.0000342092291381
-0.22  -1  0.0000343178180366
-0.22  -0.98  0.000044788517831
-0.22  -0.96  0.0000584539298902
-0.22  -0.94  0.0000762887919735
-0.22  -0.92  0.0000995652438033
-0.22  -0.9  0.000129943567294
-0.22  -0.88  0.000169590612509
-0.22  -0.86  0.00022133435652
-0.22  -0.84  0.000288865619692
-0.22  -0.82  0.000377001327548
-0.22  -0.8  0.000492028096401
-0.22  -0.78  0.000642150650298
-0.22  -0.76  0.000838077054327
-0.22  -0.74  0.0010937825083
-0.22  -0.72  0.00142750618131
-0.22  -0.7  0.00186305219018
-0.22  -0.68  0.00243148751914
-0.22  -0.66  0.0031733579912
-0.22  -0.64  0.00414158035401
-0.22  -0.62  0.00540521676921
-0.22  -0.6  0.0070544009351
-0.22  -0.58  0.0092067672173
-0.22  -0.56  0.0120158413696
-0.22  -0.54  0.0156819913452
-0.22  -0.52  0.0204667193072
-0.22  -0.5  0.0267113142699
-0.22  -0.48  0.0348611958426
-0.22  -0.46  0.0454976854864
-0.22  -0.44  0.0593794714892
-0.22  -0.42  0.077496725309
-0.22  -0.4  0.101141729339
-0.22  -0.38  0.132001053887
-0.22  -0.36  0.172275858256
-0.22  -0.34  0.224838896842
-0.22  -0.32  0.293439429324
-0.22  -0.3  0.382970650948
-0.22  -0.28  0.499818718382
-0.22  -0.26  0.652318266757
-0.22  -0.24  0.85134690938
-0.22  -0.22  1.11110112509
-0.22  -0.2  1.04402651155
-0.22  -0.18  1.05691677061
-0.22  -0.16  1.10851368137
-0.22  -0.14  1.18903969826
-0.22  -0.12  1.28580442937
-0.22  -0.1  1.38667844222
-0.22  -0.08  1.48160284688
-0.22  -0.06  1.56282081564
-0.22  -0.04  1.62465771352
-0.22  -0.02  1.66325284485
-0.22  6.17561557e-16  1.67636321101
-0.22  0.02  1.66325284485
-0.22  0.04  1.62465771352
-0.22  0.06  1.56282081564
-0.22  0.08  1.48160284688
-0.22  0.1  1.38667844222
-0.22  0.12  1.28580442937
-0.22  0.14  1.18903969826
-0.22  0.16  1.10851368137
-0.22  0.18  1.05691677061
-0.22  0.2  1.45010887639
-0.22  0.22  1.11110112509
-0.22  0.24  0.85134690938
-0.22  0.26  0.652318266757
-0.22  0.28  0.499818718382
-0.22  0.3  0.382970650947
-0.22  0.32  0.293439429324
-0.22  0.34  0.224838896842
-0.22  0.36  0.172275858256
-0.22  0.38  0.132001053887
-0.22  0.4  0.101141729339
-0.22  0.42  0.077496725309
-0.22  0.44  0.0593794714892
-0.22  0.46  0.0454976854864
-0.22  0.48  0.0348611958426
-0.22  0.5  0.0267113142699
-0.22  0.52  0.0204667193072
-0.22  0.54  0.0156819913452
-0.22  0.56  0.0120158413696
-0.22  0.58  0.0092067672173
-0.22  0.6  0.0070544009351
-0.22  0.62  0.00540521676921
-0.22  0.64  0.00414158035401
-0.22  0.66  0.0031733579912
-0.22  0.68  0.00243148751914
-0.22  0.7  0.00186305219018
-0.22  0.72  0.00142750618131
-0.22  0.74  0.0010937825083
-0.22  0.76  0.000838077054327
-0.22  0.78  0.000642150650298
-0.22  0.8  0.000492028096401
-0.22  0.82  0.000377001327548
-0.22  0.84  0.000288865619692
-0.22  0.86  0.00022133435652
-0.22  0.88  0.000169590612509
-0.22  0.9  0.000129943567294
-0.22  0.92  0.0000995652438033
-0.22  0.94  0.0000762887919735
-0.22  0.96  0.0000584539298902
-0.22  0.98  0.000044788517831
-0.2  -1  0.0000449306881148
-0.2  -0.98  0.0000586394777093
-0.2  -0.96  0.0000765309522355
-0.2  -0.94  0.0000998812895146
-0.2  -0.92  0.000130356041623
-0.2  -0.9  0.000170128936764
-0.2  -0.88  0.000222036928738
-0.2  -0.86  0.000289782553521
-0.2  -0.84  0.000378198026799
-0.2  -0.82  0.000493589920224
-0.2  -0.8  0.000644189001747
-0.2  -0.78  0.000840737326613
-0.2  -0.76  0.00109725445551
-0.2  -0.74  0.00143203745336
-0.2  -0.72  0.00186896599737
-0.2  -0.7  0.00243920568637
-0.2  -0.68  0.00318343104626
-0.2  -0.66  0.00415472679607
-0.2  -0.64  0.0054223743185
-0.2  -0.62  0.00707679341942
-0.2  -0.6  0.00923599186621
-0.2  -0.58  0.0120539827429
-0.2  -0.56  0.0157317700222
-0.2  -0.54  0.0205316859423
-0.2  -0.52  0.0267961028567
-0.2  -0.5  0.0349718542513
-0.2  -0.48  0.0456421068509
-0.2  -0.46  0.0595679572155
-0.2  -0.44  0.0777427198623
-0.2  -0.42  0.101462779221
-0.2  -0.4  0.132420059208
-0.2  -0.38  0.172822706173
-0.2  -0.36  0.225552593372
-0.2  -0.34  0.294370881601
-0.2  -0.32  0.384186298368
-0.2  -0.3  0.501405271644
-0.2  -0.28  0.654388892838
-0.2  -0.26  0.854049303601
-0.2  -0.24  1.11462804605
-0.2  -0.22  1.45471189521
-0.2  -0.2  1.36689429159
-0.2  -0.18  1.38377089514
-0.2  -0.16  1.45132427813
-0.2  -0.14  1.55675316483
-0.2  -0.12  1.68344262828
-0.2  -0.1  1.81551217903
-0.2  -0.08  1.93979219052
-0.2  -0.06  2.04612701693
-0.2  -0.04  2.12708712838
-0.2  -0.02  2.1776178995
-0.2  6.17561557e-16  2.1947826788
-0.2  0.02  2.1776178995
-0.2  0.04  2.12708712838
-0.2  0.06  2.04612701693
-0.2  0.08  1.93979219052
-0.2  0.1  1.81551217903
-0.2  0.12  1.68344262828
-0.2  0.14  1.55675316483
-0.2  0.16  1.45132427813
-0.2  0.18  1.38377089514
-0.2  0.2  1.89855863179
-0.2  0.22  1.45471189521
-0.2  0.24  1.11462804605
-0.2  0.26  0.854049303601
-0.2  0.28  0.654388892838
-0.2  0.3  0.501405271644
-0.2  0.32  0.384186298368
-0.2  0.34  0.294370881601
-0.2  0.36  0.225552593372
-0.2  0.38  0.172822706173
-0.2  0.4  0.132420059208
-0.2  0.42  0.101462779221
-0.2  0.44  0.0777427198623
-0.2  0.46  0.0595679572155
-0.2  0.48  0.0456421068509
-0.2  0.5  0.0349718542513
-0.2  0.52  0.0267961028567
-0.2  0.54  0.0205316859423
-0.2  0.56  0.0157317700222
-0.2  0.58  0.0120539827429
-0.2  0.6  0.00923599186621
-0.2  0.62  0.00707679341942
-0.2  0.64  0.0054223743185
-0.2  0.66  0.00415472679607
-0.2  0.68  0.00318343104626
-0.2  0.7  0.00243920568637
-0.2  0.72  0.00186896599737
-0.2  0.74  0.00143203745336
-0.2  0.76  0.00109725445551
-0.2  0.78  0.000840737326613
-0.2  0.8  0.000644189001747
-0.2  0.82  0.000493589920223
-0.2  0.84  0.000378198026799
-0.2  0.86  0.000289782553521
-0.2  0.88  0.000222036928738
-0.2  0.9  0.000170128936764
-0.2  0.92  0.000130356041623
-0.2  0.94  0.0000998812895146
-0.2  0.96  0.0000765309522355
-0.2  0.98  0.0000586394777093
-0.18  -1  0.000058825614505
-0.18  -0.98  0.0000767738811764
-0.18  -0.96  0.000100198338436
-0.18  -0.94  0.000130769825252
-0.18  -0.92  0.000170668969799
-0.18  -0.9  0.0002227417311
-0.18  -0.88  0.000290702397934
-0.18  -0.86  0.000379398524682
-0.18  -0.84  0.000495156701677
-0.18  -0.82  0.000646233823448
-0.18  -0.8  0.000843406043288
-0.18  -0.78  0.00110073742358
-0.18  -0.76  0.00143658310883
-0.18  -0.74  0.00187489857651
-0.18  -0.72  0.00244694835306
-0.18  -0.7  0.00319353607579
-0.18  -0.68  0.00416791496831
-0.18  -0.66  0.00543958633027
-0.18  -0.64  0.00709925698325
-0.18  -0.62  0.00926530928167
-0.18  -0.6  0.0120922451867
-0.18  -0.58  0.0157817067095
-0.18  -0.56  0.0205968587981
-0.18  -0.54  0.0268811605843
-0.18  -0.52  0.0350828639182
-0.18  -0.5  0.045786986646
-0.18  -0.48  0.0597570412441
-0.18  -0.46  0.0779894952656
-0.18  -0.44  0.101784848198
-0.18  -0.42  0.13284039456
-0.18  -0.4  0.173371289926
-0.18  -0.38  0.226268555359
-0.18  -0.36  0.295305290549
-0.18  -0.34  0.385405804566
-0.18  -0.32  0.502996861034
-0.18  -0.3  0.656466091619
-0.18  -0.28  0.856760275917
-0.18  -0.26  1.11816616237
-0.18  -0.24  1.4593295252
-0.18  -0.22  1.90458514556
-0.18  -0.2  1.7896097309
-0.18  -0.18  1.81170546582
-0.18  -0.16  1.90014989952
-0.18  -0.14  2.03818293011
-0.18  -0.12  2.20405142337
-0.18  -0.1  2.37696380923
-0.18  -0.08  2.53967772155
-0.18  -0.06  2.67889685594
-0.18  -0.04  2.78489408203
-0.18  -0.02  2.85105161905
-0.18  6.17561557e-16  2.8735246488
-0.18  0.02  2.85105161905
-0.18  0.04  2.78489408203
-0.18  0.06  2.67889685594
-0.18  0.08  2.53967772155
-0.18  0.1  2.37696380923
-0.18  0.12  2.20405142337
-0.18  0.14  2.03818293011
-0.18  0.16  1.90014989952
-0.18  0.18  1.81170546582
-0.18  0.2  2.48569258284
-0.18  0.22  1.90458514556
-0.18  0.24  1.4593295252
-0.18  0.26  1.11816616237
-0.18  0.28  0.856760275917
-0.18  0.3  0.656466091619
-0.18  0.32  0.502996861034
-0.18  0.34  0.385405804566
-0.18  0.36  0.295305290549
-0.18  0.38  0.226268555359
-0.18  0.4  0.173371289926
-0.18  0.42  0.13284039456
-0.18  0.44  0.101784848198
-0.18  0.46  0.0779894952656
-0.18  0.48  0.0597570412441
-0.18  0.5  0.045786986646
-0.18  0.52  0.0350828639182
-0.18  0.54  0.0268811605843
-0.18  0.56  0.0205968587981
-0.18  0.58  0.0157817067095
-0.18  0.6  0.0120922451867
-0.18  0.62  0.00926530928167
-0.18  0.64  0.00709925698325
-0.18  0.66  0.00543958633027
-0.18  0.68  0.00416791496831
-0.18  0.7  0.00319353607579
-0.18  0.72  0.00244694835306
-0.18  0.74  0.00187489857651
-0.18  0.76  0.00143658310883
-0.18  0.78  0.00110073742358
-0.18  0.8  0.000843406043287
-0.18  0.82  0.000646233823448
-0.18  0.84  0.000495156701677
-0.18  0.86  0.000379398524681
-0.18  0.88  0.000290702397934
-0.18  0.9  0.0002227417311
-0.18  0.92  0.000170668969799
-0.18  0.94  0.000130769825252
-0.18  0.96  0.000100198338436
-0.18  0.98  0.0000767738811764
-0.16  -1  0.0000770175812363
-0.16  -0.98  0.000100516393753
-0.16  -0.96  0.000131184922337
-0.16  -0.94  0.000171210717039
-0.16  -0.92  0.000223448770687
-0.16  -0.9  0.00029162516217
-0.16  -0.88  0.000380602833253
-0.16  -0.86  0.000496728456498
-0.16  -0.84  0.00064828513594
-0.16  -0.82  0.000846083231156
-0.16  -0.8  0.00110423144749
-0.16  -0.78  0.00144114319339
-0.16  -0.76  0.00188084998717
-0.16  -0.74  0.00245471559696
-0.16  -0.72  0.00320367318129
-0.16  -0.7  0.00418114500322
-0.16  -0.68  0.00545685297739
-0.16  -0.66  0.00712179185222
-0.16  -0.64  0.00929471975816
-0.16  -0.62  0.0121306290854
-0.16  -0.6  0.0158318019087
-0.16  -0.58  0.0206622385295
-0.16  -0.56  0.026966488307
-0.16  -0.54  0.0351942259583
-0.16  -0.52  0.0459323263269
-0.16  -0.5  0.0599467254741
-0.16  -0.48  0.0782370539975
-0.16  -0.46  0.102107939505
-0.16  -0.44  0.133262064165
-0.16  -0.42  0.173921615024
-0.16  -0.4  0.226986789994
-0.16  -0.38  0.29624266555
-0.16  -0.36  0.38662918179
-0.16  -0.34  0.504593502539
-0.16  -0.32  0.658549883963
-0.16  -0.3  0.859479853557
-0.16  -0.28  1.12171550957
-0.16  -0.26  1.46396181273
-0.16  -0.24  1.91063078904
-0.16  -0.22  2.4935828109
-0.16  -0.2  2.34305096497
-0.16  -0.18  2.37197986055
-0.16  -0.16  2.48777595405
-0.16  -0.14  2.66849604064
-0.16  -0.12  2.88565977555
-0.16  -0.1  3.11204574425
-0.16  -0.08  3.32507933627
-0.16  -0.06  3.50735233219
-0.16  -0.04  3.64612946252
-0.16  -0.02  3.73274638144
-0.16  6.17561557e-16  3.76216925119
-0.16  0.02  3.73274638144
-0.16  0.04  3.64612946252
-0.16  0.06  3.50735233219
-0.16  0.08  3.32507933627
-0.16  0.1  3.11204574425
-0.16  0.12  2.88565977555
-0.16  0.14  2.66849604064
-0.16  0.16  2.48777595405
-0.16  0.18  2.37197986055
-0.16  0.2  3.25439915993
-0.16  0.22  2.49358281089
-0.16  0.24  1.91063078904
-0.16  0.26  1.46396181273
-0.16  0.28  1.12171550957
-0.16  0.3  0.859479853557
-0.16  0.32  0.658549883963
-0.16  0.34  0.504593502539
-0.16  0.36  0.38662918179
-0.16  0.38  0.29624266555
-0.16  0.4  0.226986789994
-0.16  0.42  0.173921615024
-0.16  0.44  0.133262064165
-0.16  0.46  0.102107939505
-0.16  0.48  0.0782370539975
-0.16  0.5  0.0599467254741
-0.16  0.52  0.0459323263269
-0.16  0.54  0.0351942259583
-0.16  0.56  0.026966488307
-0.16  0.58  0.0206622385295
-0.16  0.6  0.0158318019087
-0.16  0.62  0.0121306290854
-0.16  0.64  0.00929471975816
-0.16  0.66  0.00712179185222
-0.16  0.68  0.00545685297739
-0.16  0.7  0.00418114500322
-0.16  0.72  0.00320367318129
-0.16  0.74  0.00245471559696
-0.16  0.76  0.00188084998717
-0.16  0.78  0.00144114319339
-0.16  0.8  0.00110423144749
-0.16  0.82  0.000846083231156
-0.16  0.84  0.00064828513594
-0.16  0.86  0.000496728456498
-0.16  0.88  0.000380602833253
-0.16  0.9  0.00029162516217
-0.16  0.92  0.000223448770687
-0.16  0.94  0.000171210717039
-0.16  0.96  0.000131184922337
-0.16  0.98  0.000100516393753
-0.14  -1  0.000100835458659
-0.14  -0.98  0.000131601337047
-0.14  -0.96  0.000171754183923
-0.14  -0.94  0.000224158054599
-0.14  -0.92  0.000292550855497
-0.14  -0.9  0.000381810964611
-0.14  -0.88  0.000498305200473
-0.14  -0.86  0.000650342959826
-0.14  -0.84  0.000848768917107
-0.14  -0.82  0.00110773656232
-0.14  -0.8  0.00144571775282
-0.14  -0.78  0.00188682028915
-0.14  -0.76  0.00246250749609
-0.14  -0.74  0.00321384246457
-0.14  -0.72  0.00419441703365
-0.14  -0.7  0.0054741744333
-0.14  -0.68  0.00714439825266
-0.14  -0.66  0.00932422359107
-0.14  -0.64  0.0121691348245
-0.14  -0.62  0.0158820561229
-0.14  -0.6  0.0207278257929
-0.14  -0.58  0.0270520868819
-0.14  -0.56  0.0353059414903
-0.14  -0.54  0.0460781273533
-0.14  -0.52  0.0601370118106
-0.14  -0.5  0.0784853985446
-0.14  -0.48  0.102432056386
-0.14  -0.46  0.133685072257
-0.14  -0.44  0.174473686997
-0.14  -0.42  0.22770730449
-0.14  -0.4  0.297183016022
-0.14  -0.38  0.387856442329
-0.14  -0.36  0.506195212195
-0.14  -0.34  0.660640290801
-0.14  -0.32  0.862208063836
-0.14  -0.3  1.12527612332
-0.14  -0.28  1.46860880434
-0.14  -0.26  1.91669562295
-0.14  -0.24  2.50149808457
-0.14  -0.22  3.26472946052
-0.14  -0.2  3.06764526905
-0.14  -0.18  3.10552049711
-0.14  -0.16  3.25712681883
-0.14  -0.14  3.49373503903
-0.14  -0.12  3.7780571959
-0.14  -0.1  4.07445358516
-0.14  -0.08  4.35336834223
-0.14  -0.06  4.59200971281
-0.14  -0.04  4.77370401382
-0.14  -0.02  4.88710742907
-0.14  6.17561557e-16  4.92562939405
-0.14  0.02  4.88710742907
-0.14  0.04  4.77370401382
-0.14  0.06  4.59200971281
-0.14  0.08  4.35336834223
-0.14  0.1  4.07445358516
-0.14  0.12  3.7780571959
-0.14  0.14  3.49373503903
-0.14  0.16  3.25712681883
-0.14  0.18  3.10552049711
-0.14  0.2  4.2608301466
