-0.36  0.12  4.14353794615
-0.36  0.14  4.69377659124
-0.36  0.16  5.25536120482
-0.36  0.18  5.82415553746
-0.36  0.2  15.1428774181
-0.36  0.22  11.8456644451
-0.36  0.24  9.26638724408
-0.36  0.26  7.24872234523
-0.36  0.28  5.67038418039
-0.36  0.3  4.43571366399
-0.36  0.32  3.46988053772
-0.36  0.34  2.71434809776
-0.36  0.36  2.12332543317
-0.36  0.38  1.66099215457
-0.36  0.4  1.29932741088
-0.36  0.42  1.01641161641
-0.36  0.44  0.795097960158
-0.36  0.46  0.621973180985
-0.36  0.48  0.486544623744
-0.36  0.5  0.380604305992
-0.36  0.52  0.297731452924
-0.36  0.54  0.232903350447
-0.36  0.56  0.182190931179
-0.36  0.58  0.142520643607
-0.36  0.6  0.111488171901
-0.36  0.62  0.0872127164124
-0.36  0.64  0.0682230031613
-0.36  0.66  0.05336811364
-0.36  0.68  0.0417477305529
-0.36  0.7  0.0326575718616
-0.36  0.72  0.025546706031
-0.36  0.74  0.0199841614619
-0.36  0.76  0.0156328063919
-0.36  0.78  0.0122289161922
-0.36  0.8  0.00956618968376
-0.36  0.82  0.00748324574538
-0.36  0.84  0.00585384241135
-0.36  0.86  0.00457922566529
-0.36  0.88  0.0035821442089
-0.36  0.9  0.00280216745609
-0.36  0.92  0.00219202298792
-0.36  0.94  0.00171473149085
-0.36  0.96  0.00134136553399
-0.36  0.98  0.00104929635069
-0.34  -1  0.000973850025699
-0.34  -0.98  0.00124491890102
-0.34  -0.96  0.00159143916333
-0.34  -0.94  0.00203441252961
-0.34  -0.92  0.0026006864956
-0.34  -0.9  0.00332458149463
-0.34  -0.88  0.00424997097234
-0.34  -0.86  0.00543294044525
-0.34  -0.84  0.00694518670216
-0.34  -0.82  0.0088783631652
-0.34  -0.8  0.011349634772
-0.34  -0.78  0.0145087790465
-0.34  -0.76  0.0185472637357
-0.34  -0.74  0.0237098511859
-0.34  -0.72  0.0303094327696
-0.34  -0.7  0.0387459924405
-0.34  -0.68  0.0495308487497
-0.34  -0.66  0.0633176445701
-0.34  -0.64  0.0809419627386
-0.34  -0.62  0.103471968619
-0.34  -0.6  0.132273148903
-0.34  -0.58  0.16909107031
-0.34  -0.56  0.216157173966
-0.34  -0.54  0.276324017414
-0.34  -0.52  0.353238160913
-0.34  -0.5  0.451561176234
-0.34  -0.48  0.577252172741
-0.34  -0.46  0.73792896394
-0.34  -0.44  0.943329763899
-0.34  -0.42  1.20590339578
-0.34  -0.4  1.54156378352
-0.34  -0.38  1.97065445457
-0.34  -0.36  2.5191815096
-0.34  -0.34  3.22038978655
-0.34  -0.32  4.11677774617
-0.34  -0.3  5.26267319633
-0.34  -0.28  6.72752596302
-0.34  -0.26  8.60011706876
-0.34  -0.24  10.9939395259
-0.34  -0.22  14.0540768612
-0.34  -0.2  7.59003164068
-0.34  -0.18  6.90996524123
-0.34  -0.16  6.23512937144
-0.34  -0.14  5.56884734395
-0.34  -0.12  4.916026538
-0.34  -0.1  4.28425222163
-0.34  -0.08  3.6857740208
-0.34  -0.06  3.14104520504
-0.34  -0.04  2.68424207397
-0.34  -0.02  2.36783628586
-0.34  6.17561557e-16  2.25244223818
-0.34  0.02  2.36783628586
-0.34  0.04  2.68424207397
-0.34  0.06  3.14104520504
-0.34  0.08  3.6857740208
-0.34  0.1  4.28425222163
-0.34  0.12  4.916026538
-0.34  0.14  5.56884734395
-0.34  0.16  6.23512937144
-0.34  0.18  6.90996524123
-0.34  0.2  17.9659962613
-0.34  0.22  14.0540768612
-0.34  0.24  10.9939395259
-0.34  0.26  8.60011706876
-0.34  0.28  6.72752596302
-0.34  0.3  5.26267319633
-0.34  0.32  4.11677774617
-0.34  0.34  3.22038978655
-0.34  0.36  2.5191815096
-0.34  0.38  1.97065445457
-0.34  0.4  1.54156378352
-0.34  0.42  1.20590339578
-0.34  0.44  0.943329763899
-0.34  0.46  0.73792896394
-0.34  0.48  0.577252172741
-0.34  0.5  0.451561176234
-0.34  0.52  0.353238160913
-0.34  0.54  0.276324017414
-0.34  0.56  0.216157173966
-0.34  0.58  0.16909107031
-0.34  0.6  0.132273148903
-0.34  0.62  0.103471968619
-0.34  0.64  0.0809419627386
-0.34  0.66  0.0633176445701
-0.34  0.68  0.0495308487497
-0.34  0.7  0.0387459924405
-0.34  0.72  0.0303094327696
-0.34  0.74  0.0237098511859
-0.34  0.76  0.0185472637357
-0.34  0.78  0.0145087790465
-0.34  0.8  0.011349634772
-0.34  0.82  0.0088783631652
-0.34  0.84  0.00694518670216
-0.34  0.86  0.00543294044525
-0.34  0.88  0.00424997097234
-0.34  0.9  0.00332458149463
-0.34  0.92  0.0026006864956
-0.34  0.94  0.00203441252961
-0.34  0.96  0.00159143916333
-0.34  0.98  0.00124491890102
-0.32  -1  0.00115540695719
-0.32  -0.98  0.00147701177945
-0.32  -0.96  0.00188813455125
-0.32  -0.94  0.00241369238433
-0.32  -0.92  0.00308553801016
-0.32  -0.9  0.00394439029345
-0.32  -0.88  0.00504230209962
-0.32  -0.86  0.00644581508733
-0.32  -0.84  0.00823999263019
-0.32  -0.82  0.0105335752927
-0.32  -0.8  0.0134655713212
-0.32  -0.78  0.0172136815817
-0.32  -0.76  0.0220050695606
-0.32  -0.74  0.0281301291691
-0.32  -0.72  0.0359600847835
-0.32  -0.7  0.0459694902169
-0.32  -0.68  0.0587649902252
-0.32  -0.66  0.0751220877125
-0.32  -0.64  0.0960321450008
-0.32  -0.62  0.122762467794
-0.32  -0.6  0.156933113374
-0.32  -0.58  0.200615078173
-0.32  -0.56  0.256455815635
-0.32  -0.54  0.327839691671
-0.32  -0.52  0.419093102525
-0.32  -0.5  0.535746686708
-0.32  -0.48  0.684870523015
-0.32  -0.46  0.875502630128
-0.32  -0.44  1.11919673807
-0.32  -0.42  1.43072253059
-0.32  -0.4  1.82896079831
-0.32  -0.38  2.33804775576
-0.32  -0.36  2.98883787628
-0.32  -0.34  3.82077390364
-0.32  -0.32  4.88427737703
-0.32  -0.3  6.24380455307
-0.32  -0.28  7.98175293653
-0.32  -0.26  10.2034551848
-0.32  -0.24  13.0435630538
-0.32  -0.22  16.6742083009
-0.32  -0.2  9.00505738207
-0.32  -0.18  8.19820475739
-0.32  -0.16  7.39755780114
-0.32  -0.14  6.60705939821
-0.32  -0.12  5.83253182098
-0.32  -0.1  5.08297447514
-0.32  -0.08  4.37292071047
-0.32  -0.06  3.72663694305
-0.32  -0.04  3.18467103271
-0.32  -0.02  2.80927704059
-0.32  6.17561557e-16  2.67236983518
-0.32  0.02  2.80927704059
-0.32  0.04  3.18467103271
-0.32  0.06  3.72663694305
-0.32  0.08  4.37292071047
-0.32  0.1  5.08297447514
-0.32  0.12  5.83253182098
-0.32  0.14  6.60705939821
-0.32  0.16  7.39755780114
-0.32  0.18  8.19820475739
-0.32  0.2  21.3154351547
-0.32  0.22  16.6742083009
-0.32  0.24  13.0435630538
-0.32  0.26  10.2034551848
-0.32  0.28  7.98175293653
-0.32  0.3  6.24380455307
-0.32  0.32  4.88427737703
-0.32  0.34  3.82077390364
-0.32  0.36  2.98883787628
-0.32  0.38  2.33804775576
-0.32  0.4  1.82896079831
-0.32  0.42  1.43072253059
-0.32  0.44  1.11919673807
-0.32  0.46  0.875502630128
-0.32  0.48  0.684870523015
-0.32  0.5  0.535746686708
-0.32  0.52  0.419093102525
-0.32  0.54  0.327839691671
-0.32  0.56  0.256455815635
-0.32  0.58  0.200615078173
-0.32  0.6  0.156933113374
-0.32  0.62  0.122762467794
-0.32  0.64  0.0960321450008
-0.32  0.66  0.0751220877125
-0.32  0.68  0.0587649902252
-0.32  0.7  0.0459694902169
-0.32  0.72  0.0359600847835
-0.32  0.74  0.0281301291691
-0.32  0.76  0.0220050695606
-0.32  0.78  0.0172136815817
-0.32  0.8  0.0134655713212
-0.32  0.82  0.0105335752927
-0.32  0.84  0.00823999263019
-0.32  0.86  0.00644581508733
-0.32  0.88  0.00504230209962
-0.32  0.9  0.00394439029345
-0.32  0.92  0.00308553801016
-0.32  0.94  0.00241369238433
-0.32  0.96  0.00188813455125
-0.32  0.98  0.00147701177945
-0.3  -1  0.00137081193356
-0.3  -0.98  0.00175237422683
-0.3  -0.96  0.00224014349136
-0.3  -0.94  0.00286368218903
-0.3  -0.92  0.00366078142377
-0.3  -0.9  0.00467975136486
-0.3  -0.88  0.00598234920412
-0.3  -0.86  0.00764752210314
-0.3  -0.84  0.0097761919812
-0.3  -0.82  0.0124973721376
-0.3  -0.8  0.0159759864214
-0.3  -0.78  0.0204228648494
-0.3  -0.76  0.0261075214796
-0.3  -0.74  0.0333744889777
-0.3  -0.72  0.0426641998703
-0.3  -0.7  0.0545396800468
-0.3  -0.68  0.0697206723354
-0.3  -0.66  0.0891272582957
-0.3  -0.64  0.113935622036
-0.3  -0.62  0.145649335759
-0.3  -0.6  0.186190487469
-0.3  -0.58  0.238016173869
-0.3  -0.56  0.304267418779
-0.3  -0.54  0.388959542645
-0.3  -0.52  0.497225520964
-0.3  -0.5  0.635627080947
-0.3  -0.48  0.812552391216
-0.3  -0.46  1.0387244475
-0.3  -0.44  1.32785096628
-0.3  -0.42  1.69745517485
-0.3  -0.4  2.16993784981
-0.3  -0.38  2.77393497147
-0.3  -0.36  3.54605327827
-0.3  -0.34  4.53308890858
-0.3  -0.32  5.7948635964
-0.3  -0.3  7.40785031534
-0.3  -0.28  9.46980811222
-0.3  -0.26  12.1057070358
-0.3  -0.24  15.4753022553
-0.3  -0.22  19.7828164174
-0.3  -0.2  10.6838893819
-0.3  -0.18  9.7266135064
-0.3  -0.16  8.77670023527
-0.3  -0.14  7.83882753384
-0.3  -0.12  6.9199031331
-0.3  -0.1  6.0306042171
-0.3  -0.08  5.18817361893
-0.3  -0.06  4.42140179422
-0.3  -0.04  3.77839602655
-0.3  -0.02  3.33301653409
-0.3  6.17561557e-16  3.17058542719
-0.3  0.02  3.33301653409
-0.3  0.04  3.77839602655
-0.3  0.06  4.42140179422
-0.3  0.08  5.18817361893
-0.3  0.1  6.0306042171
-0.3  0.12  6.9199031331
-0.3  0.14  7.83882753384
-0.3  0.16  8.77670023527
-0.3  0.18  9.7266135064
-0.3  0.2  25.2893170647
-0.3  0.22  19.7828164174
-0.3  0.24  15.4753022553
-0.3  0.26  12.1057070358
-0.3  0.28  9.46980811222
-0.3  0.3  7.40785031534
-0.3  0.32  5.7948635964
-0.3  0.34  4.53308890858
-0.3  0.36  3.54605327827
-0.3  0.38  2.77393497147
-0.3  0.4  2.16993784981
-0.3  0.42  1.69745517485
-0.3  0.44  1.32785096628
-0.3  0.46  1.0387244475
-0.3  0.48  0.812552391216
-0.3  0.5  0.635627080947
-0.3  0.52  0.497225520964
-0.3  0.54  0.388959542645
-0.3  0.56  0.304267418779
-0.3  0.58  0.238016173869
-0.3  0.6  0.186190487469
-0.3  0.62  0.145649335759
-0.3  0.64  0.113935622036
-0.3  0.66  0.0891272582957
-0.3  0.68  0.0697206723354
-0.3  0.7  0.0545396800468
-0.3  0.72  0.0426641998703
-0.3  0.74  0.0333744889777
-0.3  0.76  0.0261075214796
-0.3  0.78  0.0204228648494
-0.3  0.8  0.0159759864214
-0.3  0.82  0.0124973721376
-0.3  0.84  0.0097761919812
-0.3  0.86  0.00764752210314
-0.3  0.88  0.00598234920412
-0.3  0.9  0.00467975136486
-0.3  0.92  0.00366078142377
-0.3  0.94  0.00286368218903
-0.3  0.96  0.00224014349136
-0.3  0.98  0.00175237422683
-0.28  -1  0.0016263753178
-0.28  -0.98  0.00207907308091
-0.28  -0.96  0.00265777820683
-0.28  -0.94  0.00339756455006
-0.28  -0.92  0.00434326869042
-0.28  -0.9  0.00555220736479
-0.28  -0.88  0.00709765128961
-0.28  -0.86  0.00907326591372
-0.28  -0.84  0.0115987882444
-0.28  -0.82  0.0148272838048
-0.28  -0.8  0.018954423548
-0.28  -0.78  0.024230342979
-0.28  -0.76  0.030974802235
-0.28  -0.74  0.0395965659393
-0.28  -0.72  0.0506181773911
-0.28  -0.7  0.0647076285939
-0.28  -0.68  0.082718845562
-0.28  -0.66  0.105743442617
-0.28  -0.64  0.135176882373
-0.28  -0.62  0.172803051194
-0.28  -0.6  0.220902376041
-0.28  -0.58  0.282390035381
-0.28  -0.56  0.360992640783
-0.28  -0.54  0.461474097426
-0.28  -0.52  0.589924332345
-0.28  -0.5  0.754128389511
-0.28  -0.48  0.964038261662
-0.28  -0.46  1.23237605542
-0.28  -0.44  1.57540504602
-0.28  -0.42  2.01391535328
-0.28  -0.4  2.57448397821
-0.28  -0.38  3.29108556786
-0.28  -0.36  4.20715153274
-0.28  -0.34  5.37820231487
-0.28  -0.32  6.8752123413
-0.28  -0.3  8.78891160477
-0.28  -0.28  11.2352845791
-0.28  -0.26  14.3625997451
-0.28  -0.24  18.3603957679
-0.28  -0.22  23.4709689566
-0.28  -0.2  12.6757096021
-0.28  -0.18  11.5399667491
-0.28  -0.16  10.4129591266
-0.28  -0.14  9.30023682273
-0.28  -0.12  8.20999539157
-0.28  -0.1  7.15490258729
-0.28  -0.08  6.15541586101
-0.28  -0.06  5.24569313423
-0.28  -0.04  4.48281043375
-0.28  -0.02  3.95439789526
-0.28  6.17561557e-16  3.76168441164
-0.28  0.02  3.95439789526
-0.28  0.04  4.48281043375
-0.28  0.06  5.24569313424
-0.28  0.08  6.15541586101
-0.28  0.1  7.15490258729
-0.28  0.12  8.20999539157
-0.28  0.14  9.30023682273
-0.28  0.16  10.4129591266
-0.28  0.18  11.5399667491
-0.28  0.2  30.0040582308
-0.28  0.22  23.4709689566
-0.28  0.24  18.3603957679
-0.28  0.26  14.3625997451
-0.28  0.28  11.2352845791
-0.28  0.3  8.78891160477
-0.28  0.32  6.8752123413
-0.28  0.34  5.37820231487
-0.28  0.36  4.20715153274
-0.28  0.38  3.29108556786
-0.28  0.4  2.57448397821
-0.28  0.42  2.01391535328
-0.28  0.44  1.57540504602
-0.28  0.46  1.23237605542
-0.28  0.48  0.964038261662
-0.28  0.5  0.754128389511
-0.28  0.52  0.589924332345
-0.28  0.54  0.461474097426
-0.28  0.56  0.360992640783
-0.28  0.58  0.282390035381
-0.28  0.6  0.220902376041
-0.28  0.62  0.172803051194
-0.28  0.64  0.135176882373
-0.28  0.66  0.105743442617
-0.28  0.68  0.082718845562
-0.28  0.7  0.0647076285939
-0.28  0.72  0.0506181773911
-0.28  0.74  0.0395965659393
-0.28  0.76  0.030974802235
-0.28  0.78  0.024230342979
-0.28  0.8  0.018954423548
-0.28  0.82  0.0148272838048
-0.28  0.84  0.0115987882444
-0.28  0.86  0.00907326591372
-0.28  0.88  0.00709765128961
-0.28  0.9  0.00555220736479
-0.28  0.92  0.00434326869042
-0.28  0.94  0.00339756455006
-0.28  0.96  0.00265777820683
-0.28  0.98  0.00207907308091
-0.26  -1  0.00192958392731
-0.26  -0.98  0.0024666790972
-0.26  -0.96  0.00315327345054
-0.26  -0.94  0.00403097973513
-0.26  -0.92  0.00515299350972
-0.26  -0.9  0.00658731719235
-0.26  -0.88  0.00842088151494
-0.26  -0.86  0.0107648141752
-0.26  -0.84  0.0137611750054
-0.26  -0.82  0.0175915658595
-0.26  -0.8  0.0224881370427
-0.26  -0.78  0.0287476573541
-0.26  -0.76  0.0367495004935
-0.26  -0.74  0.0469786379421
-0.26  -0.72  0.0600550318577
-0.26  -0.7  0.076771209414
-0.26  -0.68  0.0981402958681
-0.26  -0.66  0.125457417521
-0.26  -0.64  0.16037819605
-0.26  -0.62  0.205019091549
-0.26  -0.6  0.262085675826
-0.26  -0.58  0.335036610269
-0.26  -0.56  0.42829326657
-0.26  -0.54  0.547507694881
-0.26  -0.52  0.699905180286
-0.26  -0.5  0.894722149061
-0.26  -0.48  1.14376596512
-0.26  -0.46  1.46213054447
-0.26  -0.44  1.86911115935
-0.26  -0.42  2.38937387582
-0.26  -0.4  3.05445050173
-0.26  -0.38  3.90464964981
-0.26  -0.36  4.99149974084
-0.26  -0.34  6.38087201089
-0.26  -0.32  8.15697280041
-0.26  -0.3  10.4274470877
-0.26  -0.28  13.3299025786
-0.26  -0.26  17.0402497622
-0.26  -0.24  21.7833634001
-0.26  -0.22  27.8467116176
-0.26  -0.2  15.0388691021
-0.26  -0.18  13.6913872936
-0.26  -0.16  12.354269243
-0.26  -0.14  11.0340997535
-0.26  -0.12  9.74060229359
-0.26  -0.1  8.48880629382
-0.26  -0.08  7.30298313143
-0.26  -0.06  6.22365886189
-0.26  -0.04  5.31855031703
-0.26  -0.02  4.69162470516
-0.26  6.17561557e-16  4.46298323692
-0.26  0.02  4.69162470516
-0.26  0.04  5.31855031703
-0.26  0.06  6.22365886189
-0.26  0.08  7.30298313143
-0.26  0.1  8.48880629382
-0.26  0.12  9.74060229359
-0.26  0.14  11.0340997535
-0.26  0.16  12.354269243
-0.26  0.18  13.6913872936
-0.26  0.2  35.59777862
-0.26  0.22  27.8467116176
-0.26  0.24  21.7833634001
-0.26  0.26  17.0402497622
-0.26  0.28  13.3299025786
-0.26  0.3  10.4274470877
-0.26  0.32  8.15697280041
-0.26  0.34  6.38087201089
-0.26  0.36  4.99149974084
-0.26  0.38  3.90464964981
-0.26  0.4  3.05445050173
-0.26  0.42  2.38937387582
-0.26  0.44  1.86911115935
-0.26  0.46  1.46213054448
-0.26  0.48  1.14376596512
-0.26  0.5  0.894722149061
-0.26  0.52  0.699905180286
-0.26  0.54  0.547507694881
-0.26  0.56  0.42829326657
-0.26  0.58  0.335036610269
-0.26  0.6  0.262085675826
-0.26  0.62  0.205019091549
-0.26  0.64  0.16037819605
-0.26  0.66  0.125457417521
-0.26  0.68  0.0981402958681
-0.26  0.7  0.076771209414
-0.26  0.72  0.0600550318577
-0.26  0.74  0.0469786379421
-0.26  0.76  0.0367495004935
-0.26  0.78  0.0287476573541
-0.26  0.8  0.0224881370427
-0.26  0.82  0.0175915658595
-0.26  0.84  0.0137611750054
-0.26  0.86  0.0107648141752
-0.26  0.88  0.00842088151494
-0.26  0.9  0.00658731719235
-0.26  0.92  0.00515299350972
-0.26  0.94  0.00403097973513
-0.26  0.96  0.00315327345054
-0.26  0.98  0.0024666790972
-0.24  -1  0.00228932036275
-0.24  -0.98  0.00292654732747
-0.24  -0.96  0.00374114492636
-0.24  -0.94  0.00478248386031
-0.24  -0.92  0.00611367704922
-0.24  -0.9  0.00781540474654
-0.24  -0.88  0.00999080436546
-0.24  -0.86  0.0127717213767
-0.24  -0.84  0.0163267001291
-0.24  -0.82  0.0208711988967
-0.24  -0.8  0.0266806482597
-0.24  -0.78  0.0341071442556
-0.24  -0.76  0.04360078803
-0.24  -0.74  0.0557369653286
-0.24  -0.72  0.0712512191731
-0.24  -0.7  0.0910838292634
-0.24  -0.68  0.116436799953
-0.24  -0.66  0.148846710695
-0.24  -0.64  0.190277844235
-0.24  -0.62  0.243241236825
-0.24  -0.6  0.310946865778
-0.24  -0.58  0.397498198083
-0.24  -0.56  0.508140891158
-0.24  -0.54  0.649580718887
-0.24  -0.52  0.830389991618
-0.24  -0.5  1.06152710222
-0.24  -0.48  1.35700068658
-0.24  -0.46  1.73471865157
-0.24  -0.44  2.21757352805
-0.24  -0.42  2.83482992926
-0.24  -0.4  3.62389820502
-0.24  -0.38  4.63260178851
-0.24  -0.36  5.92207565354
-0.24  -0.34  7.57047155083
-0.24  -0.32  9.67769458799
-0.24  -0.3  12.3714582255
-0.24  -0.28  15.8150246667
-0.24  -0.26  20.2170997669
-0.24  -0.24  25.844482168
-0.24  -0.22  33.0382332894
-0.24  -0.2  17.8425974538
-0.24  -0.18  16.2439017458
-0.24  -0.16  14.6575019333
-0.24  -0.14  13.0912104381
-0.24  -0.12  11.5565634957
-0.24  -0.1  10.0713925053
-0.24  -0.08  8.66449380874
-0.24  -0.06  7.3839488201
-0.24  -0.04  6.31009896422
-0.24  -0.02  5.56629427718
-0.24  6.17561557e-16  5.29502669374
-0.24  0.02  5.56629427718
-0.24  0.04  6.31009896423
-0.24  0.06  7.3839488201
-0.24  0.08  8.66449380874
-0.24  0.1  10.0713925053
-0.24  0.12  11.5565634957
-0.24  0.14  13.0912104381
-0.24  0.16  14.6575019333
-0.24  0.18  16.2439017458
-0.24  0.2  42.2343481981
-0.24  0.22  33.0382332894
-0.24  0.24  25.844482168
-0.24  0.26  20.2170997669
-0.24  0.28  15.8150246667
-0.24  0.3  12.3714582255
-0.24  0.32  9.67769458799
-0.24  0.34  7.57047155083
-0.24  0.36  5.92207565354
-0.24  0.38  4.63260178851
-0.24  0.4  3.62389820502
-0.24  0.42  2.83482992926
-0.24  0.44  2.21757352805
-0.24  0.46  1.73471865157
-0.24  0.48  1.35700068658
-0.24  0.5  1.06152710222
-0.24  0.52  0.830389991618
-0.24  0.54  0.649580718887
-0.24  0.56  0.508140891158
-0.24  0.58  0.397498198083
-0.24  0.6  0.310946865778
-0.24  0.62  0.243241236825
-0.24  0.64  0.190277844235
-0.24  0.66  0.148846710695
-0.24  0.68  0.116436799953
-0.24  0.7  0.0910838292634
-0.24  0.72  0.0712512191731
-0.24  0.74  0.0557369653286
-0.24  0.76  0.04360078803
-0.24  0.78  0.0341071442556
-0.24  0.8  0.0266806482597
-0.24  0.82  0.0208711988967
-0.24  0.84  0.0163267001291
-0.24  0.86  0.0127717213767
-0.24  0.88  0.00999080436546
-0.24  0.9  0.00781540474654
-0.24  0.92  0.00611367704922
-0.24  0.94  0.00478248386031
-0.24  0.96  0.00374114492636
-0.24  0.98  0.00292654732747
-0.22  -1  0.00271612322694
-0.22  -0.98  0.00347214976996
-0.22  -0.96  0.00443861453172
-0.22  -0.94  0.00567409249786
-0.22  -0.92  0.00725346286418
-0.22  -0.9  0.00927244727539
-0.22  -0.88  0.0118534112719
-0.22  -0.86  0.0151527805561
-0.22  -0.84  0.0193705215581
-0.22  -0.82  0.0247622608963
-0.22  -0.8  0.0316547782597
-0.22  -0.78  0.0404658116989
-0.22  -0.76  0.0517293756733
-0.22  -0.74  0.0661281263172
-0.22  -0.72  0.0845347355019
-0.22  -0.7  0.108064781272
-0.22  -0.68  0.138144360209
-0.22  -0.66  0.17659651954
-0.22  -0.64  0.225751747422
-0.22  -0.62  0.288589217936
-0.22  -0.6  0.368917351293
-0.22  -0.58  0.471604632558
-0.22  -0.56  0.60287467822
-0.22  -0.54  0.770683433849
-0.22  -0.52  0.985201363844
-0.22  -0.5  1.25942985756
-0.22  -0.48  1.60998921067
-0.22  -0.46  2.05812593921
-0.22  -0.44  2.63100047726
-0.22  -0.42  3.36333330213
-0.22  -0.4  4.29950925476
-0.22  -0.38  5.49626759264
-0.22  -0.36  7.0261408128
-0.22  -0.34  8.98185066307
-0.22  -0.32  11.4819277727
-0.22  -0.3  14.6778954943
-0.22  -0.28  18.7634533509
-0.22  -0.26  23.9862166745
-0.22  -0.24  30.6627239451
-0.22  -0.22  39.1976213878
-0.22  -0.2  21.1690308451
-0.22  -0.18  19.2722868961
-0.22  -0.16  17.3901311925
-0.22  -0.14  15.5318326427
-0.22  -0.12  13.7110782069
-0.22  -0.1  11.9490236301
-0.22  -0.08  10.2798338173
-0.22  -0.06  8.76055410294
-0.22  -0.04  7.48650413456
-0.22  -0.02  6.60403035777
-0.22  6.17561557e-16  6.28218978181
-0.22  0.02  6.60403035777
-0.22  0.04  7.48650413456
-0.22  0.06  8.76055410295
-0.22  0.08  10.2798338173
-0.22  0.1  11.9490236301
-0.22  0.12  13.7110782069
-0.22  0.14  15.5318326427
-0.22  0.16  17.3901311925
-0.22  0.18  19.2722868961
-0.22  0.2  50.1081875574
-0.22  0.22  39.1976213878
-0.22  0.24  30.6627239451
-0.22  0.26  23.9862166745
-0.22  0.28  18.7634533509
-0.22  0.3  14.6778954943
-0.22  0.32  11.4819277727
-0.22  0.34  8.98185066307
-0.22  0.36  7.0261408128
-0.22  0.38  5.49626759264
-0.22  0.4  4.29950925476
-0.22  0.42  3.36333330213
-0.22  0.44  2.63100047726
-0.22  0.46  2.05812593921
-0.22  0.48  1.60998921067
-0.22  0.5  1.25942985756
-0.22  0.52  0.985201363844
-0.22  0.54  0.770683433849
-0.22  0.56  0.60287467822
-0.22  0.58  0.471604632558
-0.22  0.6  0.368917351293
-0.22  0.62  0.288589217936
-0.22  0.64  0.225751747422
-0.22  0.66  0.17659651954
-0.22  0.68  0.138144360209
-0.22  0.7  0.108064781272
-0.22  0.72  0.0845347355019
-0.22  0.74  0.0661281263172
-0.22  0.76  0.0517293756733
-0.22  0.78  0.0404658116989
-0.22  0.8  0.0316547782597
-0.22  0.82  0.0247622608963
-0.22  0.84  0.0193705215581
-0.22  0.86  0.0151527805561
-0.22  0.88  0.0118534112719
-0.22  0.9  0.00927244727539
-0.22  0.92  0.00725346286418
-0.22  0.94  0.00567409249786
-0.22  0.96  0.00443861453172
-0.22  0.98  0.00347214976996
-0.2  -1  0.00322249585684
-0.2  -0.98  0.00411947003621
-0.2  -0.96  0.00526611487899
-0.2  -0.94  0.00673192562999
-0.2  -0.92  0.00860574137275
-0.2  -0.9  0.0110011293417
-0.2  -0.88  0.0140632679454
-0.2  -0.86  0.0179777456623
-0.2  -0.84  0.0229818090898
-0.2  -0.82  0.02937874186
-0.2  -0.8  0.0375562458946
-0.2  -0.78  0.0480099390373
-0.2  -0.76  0.0613733931991
-0.2  -0.74  0.078456533549
-0.2  -0.72  0.100294726032
-0.2  -0.7  0.128211528278
-0.2  -0.68  0.16389890709
-0.2  -0.66  0.209519784266
-0.2  -0.64  0.267839125827
-0.2  -0.62  0.342391519612
-0.2  -0.6  0.437695397714
-0.2  -0.58  0.559526887223
-0.2  -0.56  0.715269886686
-0.2  -0.54  0.914363585525
-0.2  -0.52  1.16887454945
-0.2  -0.5  1.49422804449
-0.2  -0.48  1.91014292337
-0.2  -0.46  2.44182673532
-0.2  -0.44  3.12150349189
-0.2  -0.42  3.99036668285
-0.2  -0.4  5.1010759094
-0.2  -0.38  6.5209484495
-0.2  -0.36  8.33603918786
-0.2  -0.34  10.6563561849
-0.2  -0.32  13.6225279874
-0.2  -0.3  17.4143267686
-0.2  -0.28  22.2615638656
-0.2  -0.26  28.4580180635
-0.2  -0.24  36.3792407842
-0.2  -0.22  46.5053173094
-0.2  -0.2  25.1156182882
-0.2  -0.18  22.8652603308
-0.2  -0.16  20.6322103364
-0.2  -0.14  18.4274652356
-0.2  -0.12  16.267263678
-0.2  -0.1  14.1767055189
-0.2  -0.08  12.1963250992
-0.2  -0.06  10.3938028365
-0.2  -0.04  8.8822290228
-0.2  -0.02  7.83523378293
-0.2  6.17561557e-16  7.45339178391
-0.2  0.02  7.83523378294
-0.2  0.04  8.8822290228
-0.2  0.06  10.3938028365
-0.2  0.08  12.1963250992
-0.2  0.1  14.1767055189
-0.2  0.12  16.267263678
-0.2  0.14  18.4274652356
-0.2  0.16  20.6322103364
-0.2  0.18  22.8652603308
-0.2  0.2  59.4499635348
-0.2  0.22  46.5053173094
-0.2  0.24  36.3792407842
-0.2  0.26  28.4580180635
-0.2  0.28  22.2615638656
-0.2  0.3  17.4143267686
-0.2  0.32  13.6225279874
-0.2  0.34  10.6563561849
-0.2  0.36  8.33603918786
-0.2  0.38  6.5209484495
-0.2  0.4  5.1010759094
-0.2  0.42  3.99036668285
-0.2  0.44  3.12150349189
-0.2  0.46  2.44182673532
-0.2  0.48  1.91014292337
-0.2  0.5  1.49422804449
-0.2  0.52  1.16887454945
-0.2  0.54  0.914363585525
-0.2  0.56  0.715269886686
-0.2  0.58  0.559526887223
-0.2  0.6  0.437695397714
-0.2  0.62  0.342391519612
-0.2  0.64  0.267839125827
-0.2  0.66  0.209519784266
-0.2  0.68  0.16389890709
-0.2  0.7  0.128211528278
-0.2  0.72  0.100294726032
-0.2  0.74  0.078456533549
-0.2  0.76  0.0613733931991
-0.2  0.78  0.0480099390373
-0.2  0.8  0.0375562458946
-0.2  0.82  0.02937874186
-0.2  0.84  0.0229818090898
-0.2  0.86  0.0179777456623
-0.2  0.88  0.0140632679454
-0.2  0.9  0.0110011293417
-0.2  0.92  0.00860574137275
-0.2  0.94  0.00673192562999
-0.2  0.96  0.00526611487899
-0.2  0.98  0.00411947003621
-0.18  -1  0.0038232726131
-0.18  -0.98  0.00488747159642
-0.18  -0.96  0.00624788787595
-0.18  -0.94  0.00798697284278
-0.18  -0.92  0.0102101280397
-0.18  -0.9  0.0130520932823
-0.18  -0.88  0.0166851128985
-0.18  -0.86  0.0213293750216
-0.18  -0.84  0.0272663566365
-0.18  -0.82  0.0348558831882
-0.18  -0.8  0.044557936692
-0.18  -0.78  0.0569605340805
-0.18  -0.76  0.0728153654232
-0.18  -0.74  0.0930833519614
-0.18  -0.72  0.118992885114
-0.18  -0.7  0.152114276178
-0.18  -0.68  0.194454928922
-0.18  -0.66  0.248581003258
-0.18  -0.64  0.3177729437
-0.18  -0.62  0.406224298818
-0.18  -0.6  0.519295881609
-0.18  -0.58  0.66384067482
-0.18  -0.56  0.84861917291
-0.18  -0.54  1.08483033346
-0.18  -0.52  1.38679031769
-0.18  -0.5  1.77280015677
-0.18  -0.48  2.2662549311
-0.18  -0.46  2.8970616869
-0.18  -0.44  3.70345202676
-0.18  -0.42  4.73429923032
-0.18  -0.4  6.05208034025
-0.18  -0.38  7.73666273781
-0.18  -0.36  9.89014470289
-0.18  -0.34  12.6430433326
-0.18  -0.32  16.1622048527
-0.18  -0.3  20.6609167451
-0.18  -0.28  26.4118345634
-0.18  -0.26  33.7635068961
-0.18  -0.24  43.1615000157
-0.18  -0.22  55.1754025237
-0.18  -0.2  29.797976422
-0.18  -0.18  27.1280794445
-0.18  -0.16  24.4787171904
-0.18  -0.14  21.8629367714
-0.18  -0.12  19.300004243
-0.18  -0.1  16.81969888
-0.18  -0.08  14.4701119268
-0.18  -0.06  12.331541605
-0.18  -0.04  10.5381618704
-0.18  -0.02  9.2959730812
-0.18  6.17561557e-16  8.84294346619
-0.18  0.02  9.29597308121
-0.18  0.04  10.5381618704
-0.18  0.06  12.331541605
-0.18  0.08  14.4701119268
-0.18  0.1  16.81969888
-0.18  0.12  19.300004243
-0.18  0.14  21.8629367714
-0.18  0.16  24.4787171904
-0.18  0.18  27.1280794445
-0.18  0.2  70.5333466758
-0.18  0.22  55.1754025237
-0.18  0.24  43.1615000157
-0.18  0.26  33.7635068961
-0.18  0.28  26.4118345634
-0.18  0.3  20.6609167451
-0.18  0.32  16.1622048527
-0.18  0.34  12.6430433326
-0.18  0.36  9.89014470289
-0.18  0.38  7.73666273781
-0.18  0.4  6.05208034025
-0.18  0.42  4.73429923032
-0.18  0.44  3.70345202676
-0.18  0.46  2.8970616869
-0.18  0.48  2.2662549311
-0.18  0.5  1.77280015677
-0.18  0.52  1.38679031769
-0.18  0.54  1.08483033346
-0.18  0.56  0.84861917291
-0.18  0.58  0.66384067482
-0.18  0.6  0.519295881609
-0.18  0.62  0.406224298818
-0.18  0.64  0.3177729437
-0.18  0.66  0.248581003258
-0.18  0.68  0.194454928922
-0.18  0.7  0.152114276178
-0.18  0.72  0.118992885114
-0.18  0.74  0.0930833519614
-0.18  0.76  0.0728153654232
-0.18  0.78  0.0569605340805
-0.18  0.8  0.044557936692
-0.18  0.82  0.0348558831882
-0.18  0.84  0.0272663566365
-0.18  0.86  0.0213293750216
-0.18  0.88  0.0166851128985
-0.18  0.9  0.0130520932823
-0.18  0.92  0.0102101280397
-0.18  0.94  0.00798697284278
-0.18  0.96  0.00624788787595
-0.18  0.98  0.00488747159642
-0.16  -1  0.00453605345776
-0.16  -0.98  0.00579865332091
-0.16  -0.96  0.00741269490079
-0.16  -0.94  0.00947600117669
-0.16  -0.92  0.0121136239252
-0.16  -0.9  0.0154854227924
-0.16  -0.88  0.0197957539824
-0.16  -0.86  0.0253058557705
-0.16  -0.84  0.0323496814948
-0.16  -0.82  0.0413541396231
-0.16  -0.8  0.0528649675961
-0.16  -0.78  0.0675798075938
-0.16  -0.76  0.0863904888641
-0.16  -0.74  0.110437079239
-0.16  -0.72  0.141176981762
-0.16  -0.7  0.180473264205
-0.16  -0.68  0.230707574891
-0.16  -0.66  0.294924488382
-0.16  -0.64  0.377016029439
-0.16  -0.62  0.481957558812
-0.16  -0.6  0.616109317265
-0.16  -0.58  0.787601903696
-0.16  -0.56  1.00682905017
-0.16  -0.54  1.28707755976
-0.16  -0.52  1.64533258606
-0.16  -0.5  2.10330706042
-0.16  -0.48  2.68875765781
-0.16  -0.46  3.43716705872
-0.16  -0.44  4.39389446467
-0.16  -0.42  5.61692470482
-0.16  -0.4  7.18038254976
-0.16  -0.38  9.17902522649
-0.16  -0.36  11.7339854144
-0.16  -0.34  15.0001127906
-0.16  -0.32  19.1753590775
-0.16  -0.3  24.5127753959
-0.16  -0.28  31.3358490542
-0.16  -0.26  40.0581092955
-0.16  -0.24  51.2081902603
-0.16  -0.22  65.4618701643
-0.16  -0.2  35.3532765412
-0.16  -0.18  32.1856249919
-0.16  -0.16  29.042336498
-0.16  -0.14  25.9388905721
-0.16  -0.12  22.8981450816
-0.16  -0.1  19.9554311147
-0.16  -0.08  17.1678056686
-0.16  -0.06  14.6305371334
-0.16  -0.04  12.5028138007
-0.16  -0.02  11.0290411136
-0.16  6.17561557e-16  10.4915522239
-0.16  0.02  11.0290411136
-0.16  0.04  12.5028138007
-0.16  0.06  14.6305371334
-0.16  0.08  17.1678056686
-0.16  0.1  19.9554311147
-0.16  0.12  22.8981450816
-0.16  0.14  25.9388905721
-0.16  0.16  29.042336498
-0.16  0.18  32.1856249919
-0.16  0.2  83.6830285082
-0.16  0.22  65.4618701643
-0.16  0.24  51.2081902603
-0.16  0.26  40.0581092955
-0.16  0.28  31.3358490542
-0.16  0.3  24.5127753959
-0.16  0.32  19.1753590775
-0.16  0.34  15.0001127906
-0.16  0.36  11.7339854144
-0.16  0.38  9.17902522649
-0.16  0.4  7.18038254976
-0.16  0.42  5.61692470482
-0.16  0.44  4.39389446467
-0.16  0.46  3.43716705872
-0.16  0.48  2.68875765781
-0.16  0.5  2.10330706042
-0.16  0.52  1.64533258606
-0.16  0.54  1.28707755976
-0.16  0.56  1.00682905017
-0.16  0.58  0.787601903696
-0.16  0.6  0.616109317265
-0.16  0.62  0.481957558812
-0.16  0.64  0.377016029439
-0.16  0.66  0.294924488382
-0.16  0.68  0.230707574891
-0.16  0.7  0.180473264205
-0.16  0.72  0.141176981762
-0.16  0.74  0.110437079239
-0.16  0.76  0.0863904888641
-0.16  0.78  0.0675798075938
-0.16  0.8  0.0528649675961
-0.16  0.82  0.0413541396231
-0.16  0.84  0.0323496814948
-0.16  0.86  0.0253058557705
-0.16  0.88  0.0197957539824
-0.16  0.9  0.0154854227924
-0.16  0.92  0.0121136239252
-0.16  0.94  0.00947600117669
-0.16  0.96  0.00741269490079
-0.16  0.98  0.00579865332091
-0.14  -1  0.00538171955125
-0.14  -0.98  0.0068797085922
-0.14  -0.96  0.00879465937659
-0.14  -0.94  0.0112426322298
-0.14  -0.92  0.0143719925971
-0.14  -0.9  0.0183724030982
-0.14  -0.88  0.0234863184993
-0.14  -0.86  0.0300236802828
-0.14  -0.84  0.0383807014178
-0.14  -0.82  0.0490638798258
-0.14  -0.8  0.0627206959392
-0.14  -0.78  0.0801788548535
-0.14  -0.76  0.10249645144
-0.14  -0.74  0.131026098801
-0.14  -0.72  0.16749690673
-0.14  -0.7  0.214119278685
-0.14  -0.68  0.273718878751
-0.14  -0.66  0.349907888001
-0.14  -0.64  0.447303929652
-0.14  -0.62  0.571809931537
-0.14  -0.6  0.730971887635
-0.14  -0.58  0.934436201688
-0.14  -0.56  1.19453433134
-0.14  -0.54  1.52703016661
-0.14  -0.52  1.95207543941
-0.14  -0.5  2.49543106905
-0.14  -0.48  3.19002846646
-0.14  -0.46  4.0779654237
-0.14  -0.44  5.21305755474
-0.14  -0.42  6.66409992372
-0.14  -0.4  8.51903653988
-0.14  -0.38  10.8902904216
-0.14  -0.36  13.9215772712
-0.14  -0.34  17.7966157207
-0.14  -0.32  22.7502620528
-0.14  -0.3  29.0827442472
-0.14  -0.28  37.177858039
-0.14  -0.26  47.5262278078
-0.14  -0.24  60.755042081
-0.14  -0.22  77.6660658445
-0.14  -0.2  41.9442630768
-0.14  -0.18  38.1860595121
-0.14  -0.16  34.456761059
-0.14  -0.14  30.7747331088
-0.14  -0.12  27.1670949693
-0.14  -0.1  23.675764579
-0.14  -0.08  20.3684361922
-0.14  -0.06  17.3581392876
-0.14  -0.04  14.8337399687
-0.14  -0.02  13.0852087051
-0.14  6.17561557e-16  12.4475146187
-0.14  0.02  13.0852087051
-0.14  0.04  14.8337399687
-0.14  0.06  17.3581392876
-0.14  0.08  20.3684361922
-0.14  0.1  23.675764579
-0.14  0.12  27.1670949693
-0.14  0.14  30.7747331088
-0.14  0.16  34.456761059
-0.14  0.18  38.1860595121
-0.14  0.2  99.2842334916
-0.14  0.22  77.6660658445
-0.14  0.24  60.755042081
-0.14  0.26  47.5262278078
-0.14  0.28  37.177858039
-0.14  0.3  29.0827442472
-0.14  0.32  22.7502620528
-0.14  0.34  17.7966157207
-0.14  0.36  13.9215772712
-0.14  0.38  10.8902904216
-0.14  0.4  8.51903653988
-0.14  0.42  6.66409992372
-0.14  0.44  5.21305755474
-0.14  0.46  4.0779654237
-0.14  0.48  3.19002846646
-0.14  0.5  2.49543106905
-0.14  0.52  1.95207543941
-0.14  0.54  1.52703016661
-0.14  0.56  1.19453433134
-0.14  0.58  0.934436201688
-0.14  0.6  0.730971887635
-0.14  0.62  0.571809931537
-0.14  0.64  0.447303929652
-0.14  0.66  0.349907888001
-0.14  0.68  0.273718878751
-0.14  0.7  0.214119278685
-0.14  0.72  0.16749690673
-0.14  0.74  0.131026098801
-0.14  0.76  0.10249645144
-0.14  0.78  0.0801788548535
-0.14  0.8  0.0627206959392
-0.14  0.82  0.0490638798258
-0.14  0.84  0.0383807014178
-0.14  0.86  0.0300236802828
-0.14  0.88  0.0234863184993
-0.14  0.9  0.0183724030982
-0.14  0.92  0.0143719925971
-0.14  0.94  0.0112426322298
-0.14  0.96  0.00879465937659
-0.14  0.98  0.0068797085922
-0.12  -1  0.00638504497313
-0.12  -0.98  0.00816230729694
-0.12  -0.96  0.0104342664288
-0.12  -0.94  0.0133386200674
-0.12  -0.92  0.0170513937436
-0.12  -0.9  0.0217976092826
-0.12  -0.88  0.0278649228082
-0.12  -0.86  0.0356210588528
-0.12  -0.84  0.0455360972119
-0.12  -0.82  0.0582109632917
-0.12  -0.8  0.0744138486787
-0.12  -0.78  0.0951267692897
-0.12  -0.76  0.121605082873
-0.12  -0.74  0.155453573069
-0.12  -0.72  0.198723711287
-0.12  -0.7  0.254037991203
-0.12  -0.68  0.324748871467
-0.12  -0.66  0.415141959752
-0.12  -0.64  0.530695752591
-0.12  -0.62  0.678413673209
-0.12  -0.6  0.867248531291
-0.12  -0.58  1.10864513014
-0.12  -0.56  1.41723390729
-0.12  -0.54  1.81171764829
-0.12  -0.52  2.31600501529
-0.12  -0.5  2.96065959058
-0.12  -0.48  3.78475225807
-0.12  -0.46  4.83822919073
-0.12  -0.44  6.18493896189
-0.12  -0.42  7.90650224582
-0.12  -0.4  10.1072586404
-0.12  -0.38  12.9205904265
-0.12  -0.36  16.5170065306
-0.12  -0.34  21.1144766396
-0.12  -0.32  26.9916417929
-0.12  -0.3  34.5047021109
-0.12  -0.28  44.1090051838
-0.12  -0.26  56.3866435377
-0.12  -0.24  72.0817337911
-0.12  -0.22  92.1455156815
-0.12  -0.2  49.7640212501
-0.12  -0.18  45.3051678017
-0.12  -0.16  40.8806083065
-0.12  -0.14  36.5121320545
-0.12  -0.12  32.2319142639
-0.12  -0.1  28.0896877235
-0.12  -0.08  24.1657670715
-0.12  -0.06  20.5942541126
-0.12  -0.04  17.5992256598
-0.12  -0.02  15.5247119939
-0.12  6.17561557e-16  14.7681312426
-0.12  0.02  15.5247119939
-0.12  0.04  17.5992256598
-0.12  0.06  20.5942541126
-0.12  0.08  24.1657670715
-0.12  0.1  28.0896877235
-0.12  0.12  32.2319142639
-0.12  0.14  36.5121320545
-0.12  0.16  40.8806083065
-0.12  0.18  45.3051678017
-0.12  0.2  117.794004301
-0.12  0.22  92.1455156815
-0.12  0.24  72.0817337911
-0.12  0.26  56.3866435377
-0.12  0.28  44.1090051838
-0.12  0.3  34.5047021109
-0.12  0.32  26.9916417929
-0.12  0.34  21.1144766396
-0.12  0.36  16.5170065306
-0.12  0.38  12.9205904265
-0.12  0.4  10.1072586404
-0.12  0.42  7.90650224582
-0.12  0.44  6.18493896189
-0.12  0.46  4.83822919073
-0.12  0.48  3.78475225807
-0.12  0.5  2.96065959058
-0.12  0.52  2.31600501529
-0.12  0.54  1.81171764829
-0.12  0.56  1.41723390729
-0.12  0.58  1.10864513014
-0.12  0.6  0.867248531291
-0.12  0.62  0.678413673209
-0.12  0.64  0.530695752591
-0.12  0.66  0.415141959752
-0.12  0.68  0.324748871467
-0.12  0.7  0.254037991203
-0.12  0.72  0.198723711287
-0.12  0.74  0.155453573069
-0.12  0.76  0.121605082873
-0.12  0.78  0.0951267692897
-0.12  0.8  0.0744138486787
-0.12  0.82  0.0582109632917
-0.12  0.84  0.0455360972119
-0.12  0.86  0.0356210588528
-0.12  0.88  0.0278649228082
-0.12  0.9  0.0217976092826
-0.12  0.92  0.0170513937436
-0.12  0.94  0.0133386200674
-0.12  0.96  0.0104342664288
-0.12  0.98  0.00816230729694
-0.1  -1  0.0075754224873
-0.1  -0.98  0.00968402360605
-0.1  -0.96  0.0123795489109
-0.1  -0.94  0.0158253673754
-0.1  -0.92  0.0202303213444
-0.1  -0.9  0.0258613839407
-0.1  -0.88  0.033059839631
-0.1  -0.86  0.0422619686143
-0.1  -0.84  0.0540254886621
-0.1  -0.82  0.0690633569823
-0.1  -0.8  0.0882869807526
-0.1  -0.78  0.112861455206
-0.1  -0.76  0.144276177105
-0.1  -0.74  0.184435113318
-0.1  -0.72  0.235772195432
-0.1  -0.7  0.301398834195
-0.1  -0.68  0.385292494257
-0.1  -0.66  0.49253775824
-0.1  -0.64  0.62963449044
-0.1  -0.62  0.804891777168
-0.1  -0.6  1.02893151946
-0.1  -0.58  1.31533219964
-0.1  -0.56  1.68145183882
-0.1  -0.54  2.14948002265
-0.1  -0.52  2.74778275601
-0.1  -0.5  3.51262165484
-0.1  -0.48  4.49035167102
-0.1  -0.46  5.7402305488
-0.1  -0.44  7.3380102868
-0.1  -0.42  9.38052827521
-0.1  -0.4  11.9915763651
-0.1  -0.38  15.3294035795
-0.1  -0.36  19.5963071868
-0.1  -0.34  25.0508934262
-0.1  -0.32  32.0237509787
-0.1  -0.3  40.9374871107
-0.1  -0.28  52.332340832
-0.1  -0.26  66.8989254166
-0.1  -0.24  85.5200847265
-0.1  -0.22  109.324400147
-0.1  -0.2  59.0416335707
-0.1  -0.18  53.7515065909
-0.1  -0.16  48.5020670588
-0.1  -0.14  43.3191664881
-0.1  -0.12  38.2409785916
-0.1  -0.1  33.3265079474
-0.1  -0.08  28.6710424228
-0.1  -0.06  24.4336847071
-0.1  -0.04  20.8802867299
-0.1  -0.02  18.4190170692
-0.1  6.17561557e-16  17.5213853593
-0.1  0.02  18.4190170692
-0.1  0.04  20.8802867299
-0.1  0.06  24.4336847071
-0.1  0.08  28.6710424228
-0.1  0.1  33.3265079474
-0.1  0.12  38.2409785916
-0.1  0.14  43.3191664881
-0.1  0.16  48.5020670588
-0.1  0.18  53.7515065909
-0.1  0.2  139.754591049
-0.1  0.22  109.324400147
-0.1  0.24  85.5200847265
-0.1  0.26  66.8989254166
-0.1  0.28  52.332340832
-0.1  0.3  40.9374871107
-0.1  0.32  32.0237509787
-0.1  0.34  25.0508934262
-0.1  0.36  19.5963071868
-0.1  0.38  15.3294035795
-0.1  0.4  11.9915763651
-0.1  0.42  9.38052827521
-0.1  0.44  7.3380102868
-0.1  0.46  5.7402305488
-0.1  0.48  4.49035167102
-0.1  0.5  3.51262165484
-0.1  0.52  2.74778275601
-0.1  0.54  2.14948002265
-0.1  0.56  1.68145183882
-0.1  0.58  1.31533219964
-0.1  0.6  1.02893151946
-0.1  0.62  0.804891777168
-0.1  0.64  0.62963449044
-0.1  0.66  0.49253775824
-0.1  0.68  0.385292494257
-0.1  0.7  0.301398834195
-0.1  0.72  0.235772195432
-0.1  0.74  0.184435113318
-0.1  0.76  0.144276177105
-0.1  0.78  0.112861455206
-0.1  0.8  0.0882869807526
-0.1  0.82  0.0690633569823
-0.1  0.84  0.0540254886621
-0.1  0.86  0.0422619686143
-0.1  0.88  0.033059839631
-0.1  0.9  0.0258613839407
-0.1  0.92  0.0202303213444
-0.1  0.94  0.0158253673754
-0.1  0.96  0.0123795489109
-0.1  0.98  0.00968402360605
-0.08  -1  0.00898772461316
-0.08  -0.98  0.0114894367231
-0.08  -0.96  0.0146874945434
-0.08  -0.94  0.0187757242729
-0.08  -0.92  0.0240019031789
-0.08  -0.9  0.0306827767513
-0.08  -0.88  0.0392232558456
-0.08  -0.86  0.0501409573066
-0.08  -0.84  0.0640975754158
-0.08  -0.82  0.0819389855097
-0.08  -0.8  0.104746510345
-0.08  -0.78  0.133902456335
-0.08  -0.76  0.171173891652
-0.08  -0.74  0.218819743754
-0.08  -0.72  0.279727707271
-0.08  -0.7  0.357589259875
-0.08  -0.68  0.457123393408
-0.08  -0.66  0.584362620047
-0.08  -0.64  0.747018587611
-0.08  -0.62  0.954949463044
-0.08  -0.6  1.22075741098
-0.08  -0.58  1.5605523791
-0.08  -0.56  1.99492848128
-0.08  -0.54  2.55021215483
-0.08  -0.52  3.26005773924
-0.08  -0.5  4.16748718066
-0.08  -0.48  5.32749748321
-0.08  -0.46  6.81039393843
-0.08  -0.44  8.70605115118
-0.08  -0.42  11.1293601122
-0.08  -0.4  14.2271914507
-0.08  -0.38  18.1872968917
-0.08  -0.36  23.2496884134
-0.08  -0.34  29.7211847663
-0.08  -0.32  37.9940069824
-0.08  -0.3  48.5695498993
-0.08  -0.28  62.0887704347
-0.08  -0.26  79.3710343638
-0.08  -0.24  101.463776008
-0.08  -0.22  129.705980579
-0.08  -0.2  70.0488908881
-0.08  -0.18  63.7725142843
-0.08  -0.16  57.5444105756
-0.08  -0.14  51.3952508285
-0.08  -0.12  45.370325562
-0.08  -0.1  39.5396397035
-0.08  -0.08  34.0162458398
-0.08  -0.06  28.988908513
-0.08  -0.04  24.7730429935
-0.08  -0.02  21.8529135953
-0.08  6.17561557e-16  20.7879344966
-0.08  0.02  21.8529135953
-0.08  0.04  24.7730429935
-0.08  0.06  28.988908513
-0.08  0.08  34.0162458398
-0.08  0.1  39.5396397035
-0.08  0.12  45.370325562
-0.08  0.14  51.3952508285
-0.08  0.16  57.5444105756
-0.08  0.18  63.7725142843
-0.08  0.2  165.809336691
-0.08  0.22  129.705980579
-0.08  0.24  101.463776008
-0.08  0.26  79.3710343638
-0.08  0.28  62.0887704347
-0.08  0.3  48.5695498993
-0.08  0.32  37.9940069824
-0.08  0.34  29.7211847663
-0.08  0.36  23.2496884134
-0.08  0.38  18.1872968917
-0.08  0.4  14.2271914507
-0.08  0.42  11.1293601122
-0.08  0.44  8.70605115118
-0.08  0.46  6.81039393843
-0.08  0.48  5.32749748321
-0.08  0.5  4.16748718066
-0.08  0.52  3.26005773924
-0.08  0.54  2.55021215483
-0.08  0.56  1.99492848128
-0.08  0.58  1.5605523791
-0.08  0.6  1.22075741098
-0.08  0.62  0.954949463044
-0.08  0.64  0.747018587611
-0.08  0.66  0.584362620047
-0.08  0.68  0.457123393408
-0.08  0.7  0.357589259875
-0.08  0.72  0.279727707271
-0.08  0.74  0.218819743754
-0.08  0.76  0.171173891652
-0.08  0.78  0.133902456335
-0.08  0.8  0.104746510345
-0.08  0.82  0.0819389855097
-0.08  0.84  0.0640975754158
-0.08  0.86  0.0501409573066
-0.08  0.88  0.0392232558456
-0.08  0.9  0.0306827767513
-0.08  0.92  0.0240019031789
-0.08  0.94  0.0187757242729
-0.08  0.96  0.0146874945434
-0.08  0.98  0.0114894367231
-0.06  -1  0.010663325228
-0.06  -0.98  0.0136314368473
-0.06  -0.96  0.0174257153888
-0.06  -0.94  0.0222761224816
-0.06  -0.92  0.0284766290362
-0.06  -0.9  0.0364030320777
-0.06  -0.88  0.0465357308537
-0.06  -0.86  0.0594888426179
-0.06  -0.84  0.0760474227245
-0.06  -0.82  0.0972150448476
-0.06  -0.8  0.124274625045
-0.06  -0.78  0.158866176056
-0.06  -0.76  0.203086204328
-0.06  -0.74  0.259614773971
-0.06  -0.72  0.331877938667
-0.06  -0.7  0.424255386121
-0.06  -0.68  0.54234587986
-0.06  -0.66  0.693306586135
-0.06  -0.64  0.886286851672
-0.06  -0.62  1.13298272244
-0.06  -0.6  1.44834581144
-0.06  -0.58  1.85148947814
-0.06  -0.56  2.36684724089
-0.06  -0.54  3.02565363069
-0.06  -0.52  3.86783723712
-0.06  -0.5  4.94444067924
-0.06  -0.48  6.32071416963
-0.06  -0.46  8.08007016485
-0.06  -0.44  10.3291387835
-0.06  -0.42  13.2042303881
-0.06  -0.4  16.8795970115
-0.06  -0.38  21.5779933323
-0.06  -0.36  27.5841772721
-0.06  -0.34  35.2621684539
-0.06  -0.32  45.0773105104
-0.06  -0.3  57.6244743856
-0.06  -0.28  73.6641119584
-0.06  -0.26  94.168345108
-0.06  -0.24  120.379883564
-0.06  -0.22  153.8873424
-0.06  -0.2  83.1082545977
-0.06  -0.18  75.6617597548
-0.06  -0.16  68.2725374257
-0.06  -0.14  60.9769767488
-0.06  -0.12  53.828811851
-0.06  -0.1  46.911098827
-0.06  -0.08  40.3579668981
-0.06  -0.06  34.3933723812
-0.06  -0.04  29.3915340865
-0.06  -0.02  25.926998754
-0.06  6.17561557e-16  24.663473337
-0.06  0.02  25.926998754
-0.06  0.04  29.3915340865
-0.06  0.06  34.3933723812
-0.06  0.08  40.3579668981
-0.06  0.1  46.911098827
-0.06  0.12  53.828811851
-0.06  0.14  60.9769767488
-0.06  0.16  68.2725374257
-0.06  0.18  75.6617597548
-0.06  0.2  196.721523977
-0.06  0.22  153.8873424
-0.06  0.24  120.379883564
-0.06  0.26  94.168345108
-0.06  0.28  73.6641119584
-0.06  0.3  57.6244743856
-0.06  0.32  45.0773105104
-0.06  0.34  35.2621684539
-0.06  0.36  27.5841772721
-0.06  0.38  21.5779933323
-0.06  0.4  16.8795970115
-0.06  0.42  13.2042303881
-0.06  0.44  10.3291387835
-0.06  0.46  8.08007016485
-0.06  0.48  6.32071416963
-0.06  0.5  4.94444067924
-0.06  0.52  3.86783723712
-0.06  0.54  3.02565363069
-0.06  0.56  2.36684724089
-0.06  0.58  1.85148947814
-0.06  0.6  1.44834581144
-0.06  0.62  1.13298272244
-0.06  0.64  0.886286851672
-0.06  0.66  0.693306586135
-0.06  0.68  0.54234587986
-0.06  0.7  0.424255386121
-0.06  0.72  0.331877938667
-0.06  0.74  0.259614773971
-0.06  0.76  0.203086204328
-0.06  0.78  0.158866176056
-0.06  0.8  0.124274625045
-0.06  0.82  0.0972150448476
-0.06  0.84  0.0760474227245
-0.06  0.86  0.0594888426179
-0.06  0.88  0.0465357308537
-0.06  0.9  0.0364030320777
-0.06  0.92  0.0284766290362
-0.06  0.94  0.0222761224816
-0.06  0.96  0.0174257153888
-0.06  0.98  0.0136314368473
-0.04  -1  0.0126513116293
-0.04  -0.98  0.0161727746103
-0.04  -0.96  0.0206744285701
-0.04  -0.94  0.0264291073732
-0.04  -0.92  0.033785587552
-0.04  -0.9  0.0431897267705
-0.04  -0.88  0.0552114861297
-0.04  -0.86  0.0705794740691
-0.04  -0.84  0.090225105482
-0.04  -0.82  0.115339052417
-0.04  -0.8  0.147443407702
-0.04  -0.78  0.188483935138
-0.04  -0.76  0.240947997329
-0.04  -0.74  0.308015308436
-0.04  -0.72  0.393750648617
-0.04  -0.7  0.503350220069
-0.04  -0.68  0.643456575713
-0.04  -0.66  0.822561207525
-0.04  -0.64  1.0515191944
-0.04  -0.62  1.34420710104
-0.04  -0.6  1.71836400144
-0.04  -0.58  2.19666659933
-0.04  -0.56  2.80810360587
-0.04  -0.54  3.58973267207
-0.04  -0.52  4.58892635942
-0.04  -0.5  5.86624327099
-0.04  -0.48  7.49909835528
-0.04  -0.46  9.58645483052
-0.04  -0.44  12.2548220951
-0.04  -0.42  15.6659231423
-0.04  -0.4  20.0264961822
-0.04  -0.38  25.6008245217
-0.04  -0.36  32.7267541075
-0.04  -0.34  41.836169515
-0.04  -0.32  53.4811693801
-0.04  -0.3  68.3675277021
-0.04  -0.28  87.3974690209
-0.04  -0.26  111.724349965
-0.04  -0.24  142.822561283
-0.04  -0.22  182.576886934
-0.04  -0.2  98.6023032585
-0.04  -0.18  89.7675425447
-0.04  -0.16  81.0007317812
-0.04  -0.14  72.3450442111
-0.04  -0.12  63.8642317284
-0.04  -0.1  55.6568347527
-0.04  -0.08  47.881988501
-0.04  -0.06  40.8054019427
-0.04  -0.04  34.8710602967
-0.04  -0.02  30.7606242737
-0.04  6.17561557e-16  29.2615371259
-0.04  0.02  30.7606242737
-0.04  0.04  34.8710602967
-0.04  0.06  40.8054019427
-0.04  0.08  47.881988501
-0.04  0.1  55.6568347527
-0.04  0.12  63.8642317284
-0.04  0.14  72.3450442111
-0.04  0.16  81.0007317812
-0.04  0.18  89.7675425447
-0.04  0.2  233.396736083
-0.04  0.22  182.576886934
-0.04  0.24  142.822561283
-0.04  0.26  111.724349965
-0.04  0.28  87.3974690209
-0.04  0.3  68.3675277021
-0.04  0.32  53.4811693801
-0.04  0.34  41.836169515
-0.04  0.36  32.7267541075
-0.04  0.38  25.6008245217
-0.04  0.4  20.0264961822
-0.04  0.42  15.6659231423
-0.04  0.44  12.2548220951
-0.04  0.46  9.58645483052
-0.04  0.48  7.49909835528
-0.04  0.5  5.86624327099
-0.04  0.52  4.58892635942
-0.04  0.54  3.58973267207
-0.04  0.56  2.80810360587
-0.04  0.58  2.19666659933
-0.04  0.6  1.71836400144
-0.04  0.62  1.34420710104
-0.04  0.64  1.0515191944
-0.04  0.66  0.822561207525
-0.04  0.68  0.643456575713
-0.04  0.7  0.503350220069
-0.04  0.72  0.393750648617
-0.04  0.74  0.308015308436
-0.04  0.76  0.240947997329
-0.04  0.78  0.188483935138
-0.04  0.8  0.147443407702
-0.04  0.82  0.115339052417
-0.04  0.84  0.090225105482
-0.04  0.86  0.0705794740691
-0.04  0.88  0.0552114861297
-0.04  0.9  0.0431897267705
-0.04  0.92  0.033785587552
-0.04  0.94  0.0264291073732
-0.04  0.96  0.0206744285701
-0.04  0.98  0.0161727746103
-0.02  -1  0.0150099225633
-0.02  -0.98  0.0191878993775
-0.02  -0.96  0.0245288062591
-0.02  -0.94  0.0313563420706
-0.02  -0.92  0.0400843064952
-0.02  -0.9  0.0512416793891
-0.02  -0.88  0.0655046809137
-0.02  -0.86  0.0837377555295
-0.02  -0.84  0.107045963789
-0.02  -0.82  0.136841957265
-0.02  -0.8  0.174931595785
-0.02  -0.78  0.223623396037
-0.02  -0.76  0.285868444923
-0.02  -0.74  0.365439257481
-0.02  -0.72  0.467158419474
-0.02  -0.7  0.597190872131
-0.02  -0.68  0.763417553638
-0.02  -0.66  0.975913042882
-0.02  -0.64  1.2475561542
-0.02  -0.62  1.59481048977
-0.02  -0.6  2.03872225687
-0.02  -0.58  2.60619582536
-0.02  -0.56  3.33162433343
-0.02  -0.54  4.25897416884
-0.02  -0.52  5.44444966042
-0.02  -0.5  6.95989948044
-0.02  -0.48  8.89717121088
-0.02  -0.46  11.3736779932
-0.02  -0.44  14.5395146421
-0.02  -0.42  18.5865545123
-0.02  -0.4  23.7600784582
-0.02  -0.38  30.3736406856
-0.02  -0.36  38.8280724796
-0.02  -0.34  49.6357755756
-0.02  -0.32  63.4517775324
-0.02  -0.3  81.113431297
-0.02  -0.28  103.691165049
-0.02  -0.26  132.553358147
-0.02  -0.24  169.44927514
-0.02  -0.22  216.615084272
-0.02  -0.2  116.984940364
-0.02  -0.18  106.503096421
-0.02  -0.16  96.101870481
-0.02  -0.14  85.8324846681
-0.02  -0.12  75.7705762772
-0.02  -0.1  66.0330568276
-0.02  -0.08  56.8087294535
-0.02  -0.06  48.4128398126
-0.02  -0.04  41.3721462322
-0.02  -0.02  36.4953928793
-0.02  6.17561557e-16  34.7168277263
-0.02  0.02  36.4953928793
-0.02  0.04  41.3721462322
-0.02  0.06  48.4128398126
-0.02  0.08  56.8087294535
-0.02  0.1  66.0330568276
-0.02  0.12  75.7705762772
-0.02  0.14  85.8324846681
-0.02  0.16  96.1018704811
-0.02  0.18  106.503096421
-0.02  0.2  276.909385983
-0.02  0.22  216.615084272
-0.02  0.24  169.44927514
-0.02  0.26  132.553358147
-0.02  0.28  103.691165049
-0.02  0.3  81.113431297
-0.02  0.32  63.4517775324
-0.02  0.34  49.6357755756
-0.02  0.36  38.8280724796
-0.02  0.38  30.3736406856
-0.02  0.4  23.7600784582
-0.02  0.42  18.5865545123
-0.02  0.44  14.5395146421
-0.02  0.46  11.3736779932
-0.02  0.48  8.89717121088
