0.5  -0.54  0.554350881699
0.5  -0.52  0.708653152139
0.5  -0.5  0.905905098404
0.5  -0.48  1.15806166224
0.5  -0.46  1.48040541543
0.5  -0.44  1.89247279786
0.5  -0.42  2.41923817173
0.5  -0.4  3.0926274545
0.5  -0.38  3.95345306804
0.5  -0.36  5.0538874763
0.5  -0.34  6.46062522649
0.5  -0.32  8.25892513692
0.5  -0.3  10.5577776184
0.5  -0.28  13.4965103076
0.5  -0.26  17.2532323625
0.5  -0.24  22.0556292087
0.5  -0.22  28.1947619768
0.5  -0.2  6.07259573813
0.5  -0.18  6.09873561252
0.5  -0.16  6.1221553144
0.5  -0.14  6.14284439806
0.5  -0.12  6.1607936357
0.5  -0.1  6.17599502157
0.5  -0.08  6.1884417755
0.5  -0.06  6.19812834598
0.5  -0.04  6.20505041256
0.5  -0.02  6.20920488785
0.5  6.17561557e-16  6.21058991887
0.5  0.02  6.20920488785
0.5  0.04  6.20505041256
0.5  0.06  6.19812834598
0.5  0.08  6.1884417755
0.5  0.1  6.17599502157
0.5  0.12  6.1607936357
0.5  0.14  6.14284439806
0.5  0.16  6.1221553144
0.5  0.18  6.09873561252
0.5  0.2  36.042707982
0.5  0.22  28.1947619768
0.5  0.24  22.0556292087
0.5  0.26  17.2532323625
0.5  0.28  13.4965103076
0.5  0.3  10.5577776184
0.5  0.32  8.25892513692
0.5  0.34  6.46062522649
0.5  0.36  5.0538874763
0.5  0.38  3.95345306804
0.5  0.4  3.0926274545
0.5  0.42  2.41923817173
0.5  0.44  1.89247279786
0.5  0.46  1.48040541543
0.5  0.48  1.15806166224
0.5  0.5  0.905905098404
0.5  0.52  0.708653152139
0.5  0.54  0.554350881699
0.5  0.56  0.433646416605
0.5  0.58  0.33922416441
0.5  0.6  0.265361431142
0.5  0.62  0.207581583287
0.5  0.64  0.162382730356
0.5  0.66  0.127025484151
0.5  0.68  0.0993669313754
0.5  0.7  0.0777307570755
0.5  0.72  0.0608056474312
0.5  0.74  0.0475658143396
0.5  0.76  0.0372088249919
0.5  0.78  0.02910696845
0.5  0.8  0.0227692116731
0.5  0.82  0.0178114392471
0.5  0.84  0.0139331731202
0.5  0.86  0.0108993613882
0.5  0.88  0.00852613239255
0.5  0.9  0.0066696507241
0.5  0.92  0.0052173997228
0.5  0.94  0.00408136212728
0.5  0.96  0.00319268557116
0.5  0.98  0.00249750961527
0.52  -1  0.00161454071384
0.52  -0.98  0.00206394434264
0.52  -0.96  0.00263843841967
0.52  -0.94  0.0033728415784
0.52  -0.92  0.00431166413747
0.52  -0.9  0.00551180575851
0.52  -0.88  0.00704600399077
0.52  -0.86  0.00900724271014
0.52  -0.84  0.0115143876367
0.52  -0.82  0.0147193904854
0.52  -0.8  0.0188164983757
0.52  -0.78  0.0240540266577
0.52  -0.76  0.0307494086785
0.52  -0.74  0.0393084346138
0.52  -0.72  0.0502498453855
0.52  -0.7  0.0642367722367
0.52  -0.68  0.0821169274399
0.52  -0.66  0.104973981995
0.52  -0.64  0.134193244187
0.52  -0.62  0.171545619621
0.52  -0.6  0.219294941333
0.52  -0.58  0.280335174984
0.52  -0.56  0.358365814804
0.52  -0.54  0.458116100585
0.52  -0.52  0.585631644942
0.52  -0.5  0.748640842616
0.52  -0.48  0.957023268933
0.52  -0.46  1.22340845589
0.52  -0.44  1.56394133614
0.52  -0.42  1.99926074659
0.52  -0.4  2.55575029605
0.52  -0.38  3.26713740911
0.52  -0.36  4.17653746006
0.52  -0.34  5.33906688671
0.52  -0.32  6.82518365831
0.52  -0.3  8.72495755497
0.52  -0.28  11.1535290693
0.52  -0.26  14.2580877804
0.52  -0.24  18.2267931424
0.52  -0.22  23.300178353
0.52  -0.2  5.01839894518
0.52  -0.18  5.04000096246
0.52  -0.16  5.05935502656
0.52  -0.14  5.07645250515
0.52  -0.12  5.09128577236
0.52  -0.1  5.10384821223
0.52  -0.08  5.11413422163
0.52  -0.06  5.12213921276
0.52  -0.04  5.12785961523
0.52  -0.02  5.13129287759
0.52  6.17561557e-16  5.13243746855
0.52  0.02  5.13129287759
0.52  0.04  5.12785961523
0.52  0.06  5.12213921276
0.52  0.08  5.11413422163
0.52  0.1  5.10384821223
0.52  0.12  5.09128577236
0.52  0.14  5.07645250515
0.52  0.16  5.05935502656
0.52  0.18  5.04000096246
0.52  0.2  29.7857284625
0.52  0.22  23.300178353
0.52  0.24  18.2267931424
0.52  0.26  14.2580877804
0.52  0.28  11.1535290693
0.52  0.3  8.72495755497
0.52  0.32  6.82518365831
0.52  0.34  5.33906688671
0.52  0.36  4.17653746006
0.52  0.38  3.26713740911
0.52  0.4  2.55575029605
0.52  0.42  1.99926074659
0.52  0.44  1.56394133614
0.52  0.46  1.22340845589
0.52  0.48  0.957023268933
0.52  0.5  0.748640842616
0.52  0.52  0.585631644942
0.52  0.54  0.458116100585
0.52  0.56  0.358365814804
0.52  0.58  0.280335174984
0.52  0.6  0.219294941333
0.52  0.62  0.171545619621
0.52  0.64  0.134193244187
0.52  0.66  0.104973981995
0.52  0.68  0.0821169274399
0.52  0.7  0.0642367722367
0.52  0.72  0.0502498453855
0.52  0.74  0.0393084346138
0.52  0.76  0.0307494086785
0.52  0.78  0.0240540266577
0.52  0.8  0.0188164983757
0.52  0.82  0.0147193904854
0.52  0.84  0.0115143876367
0.52  0.86  0.00900724271014
0.52  0.88  0.00704600399077
0.52  0.9  0.00551180575851
0.52  0.92  0.00431166413747
0.52  0.94  0.0033728415784
0.52  0.96  0.00263843841967
0.52  0.98  0.00206394434264
0.54  -1  0.00133425799521
0.54  -0.98  0.00170564558529
0.54  -0.96  0.00218040804183
0.54  -0.94  0.00278731951693
0.54  -0.92  0.00356316338063
0.54  -0.9  0.00455496156789
0.54  -0.88  0.00582282445923
0.54  -0.86  0.00744359401889
0.54  -0.84  0.00951550099201
0.54  -0.82  0.0121641184217
0.54  -0.8  0.0155499723137
0.54  -0.78  0.0198782707119
0.54  -0.76  0.0254113408386
0.54  -0.74  0.0324845280847
0.54  -0.72  0.0415265204457
0.54  -0.7  0.0530853302172
0.54  -0.68  0.0678615076347
0.54  -0.66  0.0867505994521
0.54  -0.64  0.110897425766
0.54  -0.62  0.141765464668
0.54  -0.6  0.18122554995
0.54  -0.58  0.231669257613
0.54  -0.56  0.296153853238
0.54  -0.54  0.378587585126
0.54  -0.52  0.483966553345
0.54  -0.5  0.618677510724
0.54  -0.48  0.790884947794
0.54  -0.46  1.01102592191
0.54  -0.44  1.29244262093
0.54  -0.42  1.65219099945
0.54  -0.4  2.11207449712
0.54  -0.38  2.69996548999
0.54  -0.36  3.45149456475
0.54  -0.34  4.41220999848
0.54  -0.32  5.64033832459
0.54  -0.3  7.21031329579
0.54  -0.28  9.21728712562
0.54  -0.26  11.7828974236
0.54  -0.24  15.0626393431
0.54  -0.22  19.2552897495
0.54  -0.2  4.14720970389
0.54  -0.18  4.1650616317
0.54  -0.16  4.18105584884
0.54  -0.14  4.19518522156
0.54  -0.12  4.20744344782
0.54  -0.1  4.21782506018
0.54  -0.08  4.22632542821
0.54  -0.06  4.23294076057
0.54  -0.04  4.23766810665
0.54  -0.02  4.24050535797
0.54  6.17561557e-16  4.24145124904
0.54  0.02  4.24050535797
0.54  0.04  4.23766810665
0.54  0.06  4.23294076057
0.54  0.08  4.22632542821
0.54  0.1  4.21782506018
0.54  0.12  4.20744344782
0.54  0.14  4.19518522156
0.54  0.16  4.18105584884
0.54  0.18  4.1650616317
0.54  0.2  24.6149545834
0.54  0.22  19.2552897495
0.54  0.24  15.0626393431
0.54  0.26  11.7828974236
0.54  0.28  9.21728712562
0.54  0.3  7.21031329579
0.54  0.32  5.64033832459
0.54  0.34  4.41220999848
0.54  0.36  3.45149456475
0.54  0.38  2.69996548999
0.54  0.4  2.11207449712
0.54  0.42  1.65219099945
0.54  0.44  1.29244262093
0.54  0.46  1.01102592191
0.54  0.48  0.790884947794
0.54  0.5  0.618677510724
0.54  0.52  0.483966553345
0.54  0.54  0.378587585126
0.54  0.56  0.296153853238
0.54  0.58  0.231669257613
0.54  0.6  0.18122554995
0.54  0.62  0.141765464668
0.54  0.64  0.110897425766
0.54  0.66  0.0867505994521
0.54  0.68  0.0678615076347
0.54  0.7  0.0530853302172
0.54  0.72  0.0415265204457
0.54  0.74  0.0324845280847
0.54  0.76  0.0254113408386
0.54  0.78  0.0198782707119
0.54  0.8  0.0155499723137
0.54  0.82  0.0121641184217
0.54  0.84  0.00951550099201
0.54  0.86  0.00744359401889
0.54  0.88  0.00582282445923
0.54  0.9  0.00455496156789
0.54  0.92  0.00356316338063
0.54  0.94  0.00278731951693
0.54  0.96  0.00218040804183
0.54  0.98  0.00170564558529
0.56  -1  0.00110263208758
0.56  -0.98  0.0014095471484
0.56  -0.96  0.00180189129806
0.56  -0.94  0.00230344352347
0.56  -0.92  0.00294460163692
0.56  -0.9  0.00376422461059
0.56  -0.88  0.00481198772062
0.56  -0.86  0.00615139323999
0.56  -0.84  0.00786361915075
0.56  -0.82  0.0100524391362
0.56  -0.8  0.0128505120416
0.56  -0.78  0.0164274219913
0.56  -0.76  0.0209999564534
0.56  -0.74  0.026845245181
0.56  -0.72  0.0343175563447
0.56  -0.7  0.0438697678315
0.56  -0.68  0.0560808150284
0.56  -0.66  0.071690778632
0.56  -0.64  0.0916457390689
0.56  -0.62  0.117155116038
0.56  -0.6  0.149764968381
0.56  -0.58  0.191451696798
0.56  -0.56  0.244741828501
0.56  -0.54  0.312865143636
0.56  -0.52  0.399950424093
0.56  -0.5  0.511275688538
0.56  -0.48  0.65358807978
0.56  -0.46  0.835512792036
0.56  -0.44  1.06807582215
0.56  -0.42  1.36537222736
0.56  -0.4  1.74542039114
0.56  -0.38  2.23125407178
0.56  -0.36  2.85231842032
0.56  -0.34  3.64625457664
0.56  -0.32  4.66118100384
0.56  -0.3  5.95860982656
0.56  -0.28  7.61717492541
0.56  -0.26  9.73739773758
0.56  -0.24  12.447779607
0.56  -0.22  15.9125899261
0.56  -0.2  3.4272580789
0.56  -0.18  3.44201092917
0.56  -0.16  3.45522856557
0.56  -0.14  3.46690509274
0.56  -0.12  3.47703530268
0.56  -0.1  3.4856146771
0.56  -0.08  3.4926393894
0.56  -0.06  3.49810630641
0.56  -0.04  3.50201298975
0.56  -0.02  3.50435769696
0.56  6.17561557e-16  3.50513938225
0.56  0.02  3.50435769696
0.56  0.04  3.50201298975
0.56  0.06  3.49810630641
0.56  0.08  3.4926393894
0.56  0.1  3.4856146771
0.56  0.12  3.47703530268
0.56  0.14  3.46690509274
0.56  0.16  3.45522856557
0.56  0.18  3.44201092917
0.56  0.2  20.3418220879
0.56  0.22  15.9125899261
0.56  0.24  12.447779607
0.56  0.26  9.73739773758
0.56  0.28  7.61717492541
0.56  0.3  5.95860982656
0.56  0.32  4.66118100384
0.56  0.34  3.64625457664
0.56  0.36  2.85231842032
0.56  0.38  2.23125407178
0.56  0.4  1.74542039114
0.56  0.42  1.36537222736
0.56  0.44  1.06807582215
0.56  0.46  0.835512792036
0.56  0.48  0.65358807978
0.56  0.5  0.511275688538
0.56  0.52  0.399950424093
0.56  0.54  0.312865143636
0.56  0.56  0.244741828501
0.56  0.58  0.191451696798
0.56  0.6  0.149764968381
0.56  0.62  0.117155116038
0.56  0.64  0.0916457390689
0.56  0.66  0.071690778632
0.56  0.68  0.0560808150284
0.56  0.7  0.0438697678315
0.56  0.72  0.0343175563447
0.56  0.74  0.026845245181
0.56  0.76  0.0209999564534
0.56  0.78  0.0164274219913
0.56  0.8  0.0128505120416
0.56  0.82  0.0100524391362
0.56  0.84  0.00786361915075
0.56  0.86  0.00615139323999
0.56  0.88  0.00481198772062
0.56  0.9  0.00376422461059
0.56  0.92  0.00294460163692
0.56  0.94  0.00230344352347
0.56  0.96  0.00180189129806
0.56  0.98  0.0014095471484
0.58  -1  0.00091121621525
0.58  -0.98  0.00116485111602
0.58  -0.96  0.00148908469779
0.58  -0.94  0.00190356793815
0.58  -0.92  0.00243342161835
0.58  -0.9  0.00311075883029
0.58  -0.88  0.00397663126984
0.58  -0.86  0.00508351727633
0.58  -0.84  0.00649850241201
0.58  -0.82  0.00830734534837
0.58  -0.8  0.0106196754824
0.58  -0.78  0.0135756372971
0.58  -0.76  0.0173543841644
0.58  -0.74  0.0221849363779
0.58  -0.72  0.0283600614939
0.58  -0.7  0.0362540182328
0.58  -0.68  0.0463452393539
0.58  -0.66  0.059245328255
0.58  -0.64  0.0757361267086
0.58  -0.62  0.0968171003144
0.58  -0.6  0.123765913582
0.58  -0.58  0.158215865949
0.58  -0.56  0.202254881925
0.58  -0.54  0.258552054922
0.58  -0.52  0.330519414258
0.58  -0.5  0.422518719622
0.58  -0.48  0.540125816305
0.58  -0.46  0.690468573086
0.58  -0.44  0.882658884334
0.58  -0.42  1.12834491889
0.58  -0.4  1.44241708612
0.58  -0.38  1.843910506
0.58  -0.36  2.3571586796
0.58  -0.34  3.01326828104
0.58  -0.32  3.85200445438
0.58  -0.3  4.92420087848
0.58  -0.28  6.2948406677
0.58  -0.26  8.04699483422
0.58  -0.24  10.286857012
0.58  -0.22  13.1501795845
0.58  -0.2  2.83228936516
0.58  -0.18  2.84448113478
0.58  -0.16  2.85540420218
0.58  -0.14  2.86505369544
0.58  -0.12  2.87342531066
0.58  -0.1  2.88051531391
0.58  -0.08  2.8863205429
0.58  -0.06  2.89083840836
0.58  -0.04  2.89406689522
0.58  -0.02  2.89600456351
0.58  6.17561557e-16  2.89665054898
0.58  0.02  2.89600456351
0.58  0.04  2.89406689522
0.58  0.06  2.89083840836
0.58  0.08  2.8863205429
0.58  0.1  2.88051531391
0.58  0.12  2.87342531066
0.58  0.14  2.86505369544
0.58  0.16  2.85540420218
0.58  0.18  2.84448113478
0.58  0.2  16.8105012932
0.58  0.22  13.1501795845
0.58  0.24  10.286857012
0.58  0.26  8.04699483422
0.58  0.28  6.2948406677
0.58  0.3  4.92420087848
0.58  0.32  3.85200445438
0.58  0.34  3.01326828104
0.58  0.36  2.3571586796
0.58  0.38  1.843910506
0.58  0.4  1.44241708612
0.58  0.42  1.12834491889
0.58  0.44  0.882658884334
0.58  0.46  0.690468573086
0.58  0.48  0.540125816305
0.58  0.5  0.422518719622
0.58  0.52  0.330519414258
0.58  0.54  0.258552054922
0.58  0.56  0.202254881925
0.58  0.58  0.158215865949
0.58  0.6  0.123765913582
0.58  0.62  0.0968171003144
0.58  0.64  0.0757361267086
0.58  0.66  0.059245328255
0.58  0.68  0.0463452393539
0.58  0.7  0.0362540182328
0.58  0.72  0.0283600614939
0.58  0.74  0.0221849363779
0.58  0.76  0.0173543841644
0.58  0.78  0.0135756372971
0.58  0.8  0.0106196754824
0.58  0.82  0.00830734534837
0.58  0.84  0.00649850241201
0.58  0.86  0.00508351727633
0.58  0.88  0.00397663126984
0.58  0.9  0.00311075883029
0.58  0.92  0.00243342161835
0.58  0.94  0.00190356793815
0.58  0.96  0.00148908469779
0.58  0.98  0.00116485111602
0.6  -1  0.000753029954674
0.6  -0.98  0.000962634080059
0.6  -0.96  0.00123058102316
0.6  -0.94  0.00157311037073
0.6  -0.92  0.00201098196049
0.6  -0.9  0.0025707340824
0.6  -0.88  0.00328629189732
0.6  -0.86  0.00420102355524
0.6  -0.84  0.00537036862917
0.6  -0.82  0.00686519816752
0.6  -0.8  0.00877611000916
0.6  -0.78  0.0112189196894
0.6  -0.76  0.0143416797265
0.6  -0.74  0.0183336527111
0.6  -0.72  0.0234367820325
0.6  -0.7  0.0299603554565
0.6  -0.68  0.0382997502744
0.6  -0.66  0.048960396121
0.6  -0.64  0.0625884077875
0.6  -0.62  0.0800097446043
0.6  -0.6  0.102280269749
0.6  -0.58  0.130749743442
0.6  -0.56  0.167143628504
0.6  -0.54  0.213667666291
0.6  -0.52  0.273141561105
0.6  -0.5  0.349169875339
0.6  -0.48  0.446360492893
0.6  -0.46  0.570603891364
0.6  -0.44  0.729430149002
0.6  -0.42  0.932465323715
0.6  -0.4  1.1920148641
0.6  -0.38  1.52380941156
0.6  -0.36  1.94795819472
0.6  -0.34  2.49016779894
0.6  -0.32  3.18330017744
0.6  -0.3  4.06936433118
0.6  -0.28  5.20206236824
0.6  -0.26  6.65004425279
0.6  -0.24  8.50106850585
0.6  -0.22  10.8673210273
0.6  -0.2  2.3406066492
0.6  -0.18  2.35068193931
0.6  -0.16  2.3597087727
0.6  -0.14  2.36768312318
0.6  -0.12  2.37460143403
0.6  -0.1  2.38046061952
0.6  -0.08  2.38525806633
0.6  -0.06  2.38899163468
0.6  -0.04  2.39165965932
0.6  -0.02  2.39326095025
0.6  6.17561557e-16  2.39379479326
0.6  0.02  2.39326095025
0.6  0.04  2.39165965932
0.6  0.06  2.38899163468
0.6  0.08  2.38525806633
0.6  0.1  2.38046061952
0.6  0.12  2.37460143403
0.6  0.14  2.36768312318
0.6  0.16  2.3597087727
0.6  0.18  2.35068193931
0.6  0.2  13.8922143999
0.6  0.22  10.8673210273
0.6  0.24  8.50106850585
0.6  0.26  6.65004425279
0.6  0.28  5.20206236824
0.6  0.3  4.06936433118
0.6  0.32  3.18330017744
0.6  0.34  2.49016779894
0.6  0.36  1.94795819472
0.6  0.38  1.52380941156
0.6  0.4  1.1920148641
0.6  0.42  0.932465323715
0.6  0.44  0.729430149002
0.6  0.46  0.570603891364
0.6  0.48  0.446360492893
0.6  0.5  0.349169875339
0.6  0.52  0.273141561105
0.6  0.54  0.213667666291
0.6  0.56  0.167143628504
0.6  0.58  0.130749743442
0.6  0.6  0.102280269749
0.6  0.62  0.0800097446043
0.6  0.64  0.0625884077875
0.6  0.66  0.048960396121
0.6  0.68  0.0382997502744
0.6  0.7  0.0299603554565
0.6  0.72  0.0234367820325
0.6  0.74  0.0183336527111
0.6  0.76  0.0143416797265
0.6  0.78  0.0112189196894
0.6  0.8  0.00877611000916
0.6  0.82  0.00686519816752
0.6  0.84  0.00537036862917
0.6  0.86  0.00420102355524
0.6  0.88  0.00328629189732
0.6  0.9  0.0025707340824
0.6  0.92  0.00201098196049
0.6  0.94  0.00157311037073
0.6  0.96  0.00123058102316
0.6  0.98  0.000962634080059
0.62  -1  0.000622304677141
0.62  -0.98  0.000795521727493
0.62  -0.96  0.00101695333839
0.62  -0.94  0.00130001991991
0.62  -0.92  0.00166187742186
0.62  -0.9  0.00212445711254
0.62  -0.88  0.00271579477743
0.62  -0.86  0.0034717298973
0.62  -0.84  0.00443807778848
0.62  -0.82  0.0056734063534
0.62  -0.8  0.00725258573302
0.62  -0.78  0.00927132599682
0.62  -0.76  0.0118519778881
0.62  -0.74  0.0151509481932
0.62  -0.72  0.0193681791613
0.62  -0.7  0.0247592664989
0.62  -0.68  0.0316509503787
0.62  -0.66  0.0404609183362
0.62  -0.64  0.0517231202546
0.62  -0.62  0.0661201297173
0.62  -0.6  0.0845245130672
0.62  -0.58  0.108051713446
0.62  -0.56  0.138127654984
0.62  -0.54  0.176575164456
0.62  -0.52  0.2257244482
0.62  -0.5  0.288554320039
0.62  -0.48  0.368872739648
0.62  -0.46  0.471547603367
0.62  -0.44  0.602801775087
0.62  -0.42  0.7705902383
0.62  -0.4  0.985082227532
0.62  -0.38  1.25927755994
0.62  -0.36  1.60979452135
0.62  -0.34  2.05787705858
0.62  -0.32  2.63068232129
0.62  -0.3  3.3629265882
0.62  -0.28  4.29898933295
0.62  -0.26  5.49560295181
0.62  -0.24  7.02529117075
0.62  -0.22  8.98076452514
0.62  -0.2  1.93427958091
0.62  -0.18  1.94260581033
0.62  -0.16  1.9500655941
0.62  -0.14  1.956655605
0.62  -0.12  1.96237290372
0.62  -0.1  1.96721494023
0.62  -0.08  1.97117955488
0.62  -0.06  1.97426497934
0.62  -0.04  1.97646983747
0.62  -0.02  1.97779314583
0.62  6.17561557e-16  1.97823431421
0.62  0.02  1.97779314583
0.62  0.04  1.97646983747
0.62  0.06  1.97426497934
0.62  0.08  1.97117955488
0.62  0.1  1.96721494023
0.62  0.12  1.96237290372
0.62  0.14  1.956655605
0.62  0.16  1.9500655941
0.62  0.18  1.94260581033
0.62  0.2  11.4805393109
0.62  0.22  8.98076452514
0.62  0.24  7.02529117075
0.62  0.26  5.49560295181
0.62  0.28  4.29898933295
0.62  0.3  3.3629265882
0.62  0.32  2.63068232129
0.62  0.34  2.05787705858
0.62  0.36  1.60979452135
0.62  0.38  1.25927755994
0.62  0.4  0.985082227532
0.62  0.42  0.7705902383
0.62  0.44  0.602801775087
0.62  0.46  0.471547603367
0.62  0.48  0.368872739648
0.62  0.5  0.288554320039
0.62  0.52  0.2257244482
0.62  0.54  0.176575164456
0.62  0.56  0.138127654984
0.62  0.58  0.108051713446
0.62  0.6  0.0845245130672
0.62  0.62  0.0661201297173
0.62  0.64  0.0517231202546
0.62  0.66  0.0404609183362
0.62  0.68  0.0316509503787
0.62  0.7  0.0247592664989
0.62  0.72  0.0193681791613
0.62  0.74  0.0151509481932
0.62  0.76  0.0118519778881
0.62  0.78  0.00927132599682
0.62  0.8  0.00725258573302
0.62  0.82  0.0056734063534
0.62  0.84  0.00443807778848
0.62  0.86  0.0034717298973
0.62  0.88  0.00271579477743
0.62  0.9  0.00212445711254
0.62  0.92  0.00166187742186
0.62  0.94  0.00130001991991
0.62  0.96  0.00101695333839
0.62  0.98  0.000795521727493
0.64  -1  0.000514273182345
0.64  -0.98  0.000657419918973
0.64  -0.96  0.0008404112147
0.64  -0.94  0.00107433770929
0.64  -0.92  0.00137337709614
0.64  -0.9  0.00175565339641
0.64  -0.88  0.00224433541011
0.64  -0.86  0.00286904091856
0.64  -0.84  0.00366763174313
0.64  -0.82  0.00468850845458
0.64  -0.8  0.00599354380926
0.64  -0.78  0.00766183270042
0.64  -0.76  0.00979448589974
0.64  -0.74  0.0125207581255
0.64  -0.72  0.0160058818444
0.64  -0.7  0.0204610815933
0.64  -0.68  0.0261563757648
0.64  -0.66  0.0334369417388
0.64  -0.64  0.0427440362113
0.64  -0.62  0.0546417386465
0.64  -0.6  0.0698511387074
0.64  -0.58  0.089294039677
0.64  -0.56  0.114148826625
0.64  -0.54  0.145921885345
0.64  -0.52  0.186538900595
0.64  -0.5  0.238461566973
0.64  -0.48  0.304836786011
0.64  -0.46  0.389687391914
0.64  -0.44  0.498155965373
0.64  -0.42  0.63681651238
0.64  -0.4  0.814072898105
0.64  -0.38  1.04066818392
0.64  -0.36  1.33033573719
0.64  -0.34  1.70063157592
0.64  -0.32  2.17399839468
0.64  -0.3  2.77912575951
0.64  -0.28  3.55268891001
0.64  -0.26  4.54157155289
0.64  -0.24  5.80570736489
0.64  -0.22  7.42171242141
0.64  -0.2  1.59849050178
0.64  -0.18  1.60537130576
0.64  -0.16  1.61153607823
0.64  -0.14  1.61698206955
0.64  -0.12  1.6217068507
0.64  -0.1  1.62570831432
0.64  -0.08  1.62898467567
0.64  -0.06  1.63153447341
0.64  -0.04  1.63335657028
0.64  -0.02  1.63445015358
0.64  6.17561557e-16  1.63481473555
0.64  0.02  1.63445015358
0.64  0.04  1.63335657028
0.64  0.06  1.63153447341
0.64  0.08  1.62898467567
0.64  0.1  1.62570831432
0.64  0.12  1.6217068507
0.64  0.14  1.61698206955
0.64  0.16  1.61153607823
0.64  0.18  1.60537130576
0.64  0.2  9.48752870307
0.64  0.22  7.42171242141
0.64  0.24  5.80570736489
0.64  0.26  4.54157155289
0.64  0.28  3.55268891001
0.64  0.3  2.77912575951
0.64  0.32  2.17399839468
0.64  0.34  1.70063157592
0.64  0.36  1.33033573719
0.64  0.38  1.04066818392
0.64  0.4  0.814072898105
0.64  0.42  0.63681651238
0.64  0.44  0.498155965373
0.64  0.46  0.389687391914
0.64  0.48  0.304836786011
0.64  0.5  0.238461566973
0.64  0.52  0.186538900595
0.64  0.54  0.145921885345
0.64  0.56  0.114148826625
0.64  0.58  0.089294039677
0.64  0.6  0.0698511387074
0.64  0.62  0.0546417386465
0.64  0.64  0.0427440362113
0.64  0.66  0.0334369417388
0.64  0.68  0.0261563757648
0.64  0.7  0.0204610815933
0.64  0.72  0.0160058818444
0.64  0.74  0.0125207581255
0.64  0.76  0.00979448589974
0.64  0.78  0.00766183270042
0.64  0.8  0.00599354380926
0.64  0.82  0.00468850845458
0.64  0.84  0.00366763174313
0.64  0.86  0.00286904091856
0.64  0.88  0.00224433541011
0.64  0.9  0.00175565339641
0.64  0.92  0.00137337709614
0.64  0.94  0.00107433770929
0.64  0.96  0.0008404112147
0.64  0.98  0.000657419918973
0.66  -1  0.00042499585138
0.66  -0.98  0.000543292451891
0.66  -0.96  0.000694516634276
0.66  -0.94  0.000887833713881
0.66  -0.92  0.00113496015013
0.66  -0.9  0.00145087365149
0.66  -0.88  0.00185472093655
0.66  -0.86  0.00237097816819
0.66  -0.84  0.00303093439193
0.66  -0.82  0.0038745878859
0.66  -0.8  0.0049530703553
0.66  -0.78  0.00633174589583
0.66  -0.76  0.00809417254621
0.66  -0.74  0.0103471665297
0.66  -0.72  0.0132272761153
0.66  -0.7  0.0169090574629
0.66  -0.68  0.0216156540314
0.66  -0.66  0.0276323207387
0.66  -0.64  0.0353237125416
0.66  -0.62  0.045155985251
0.66  -0.6  0.0577250480561
0.66  -0.58  0.0737926800746
0.66  -0.56  0.0943326998584
0.66  -0.54  0.120589986074
0.66  -0.52  0.154155926452
0.66  -0.5  0.197064867772
0.66  -0.48  0.251917412477
0.66  -0.46  0.322038034617
0.66  -0.44  0.411676567809
0.66  -0.42  0.526265776912
0.66  -0.4  0.672750624168
0.66  -0.38  0.860009185804
0.66  -0.36  1.09939072978
0.66  -0.34  1.40540356625
0.66  -0.32  1.79659435951
0.66  -0.3  2.29667219447
0.66  -0.28  2.93594552434
0.66  -0.26  3.75315908934
0.66  -0.24  4.79784213743
0.66  -0.22  6.13331026683
0.66  -0.2  1.32099408456
0.66  -0.18  1.32668038757
0.66  -0.16  1.33177496146
0.66  -0.14  1.33627553391
0.66  -0.12  1.34018009759
0.66  -0.1  1.34348691097
0.66  -0.08  1.34619449913
0.66  -0.06  1.34830165443
0.66  -0.04  1.34980743703
0.66  -0.02  1.35071117532
0.66  6.17561557e-16  1.35101246621
0.66  0.02  1.35071117532
0.66  0.04  1.34980743703
0.66  0.06  1.34830165443
0.66  0.08  1.34619449913
0.66  0.1  1.34348691097
0.66  0.12  1.34018009759
0.66  0.14  1.33627553391
0.66  0.16  1.33177496146
0.66  0.18  1.32668038757
0.66  0.2  7.84050282433
0.66  0.22  6.13331026683
0.66  0.24  4.79784213743
0.66  0.26  3.75315908934
0.66  0.28  2.93594552434
0.66  0.3  2.29667219447
0.66  0.32  1.79659435951
0.66  0.34  1.40540356625
0.66  0.36  1.09939072978
0.66  0.38  0.860009185804
0.66  0.4  0.672750624168
0.66  0.42  0.526265776912
0.66  0.44  0.411676567809
0.66  0.46  0.322038034617
0.66  0.48  0.251917412477
0.66  0.5  0.197064867772
0.66  0.52  0.154155926452
0.66  0.54  0.120589986074
0.66  0.56  0.0943326998584
0.66  0.58  0.0737926800746
0.66  0.6  0.0577250480561
0.66  0.62  0.045155985251
0.66  0.64  0.0353237125416
0.66  0.66  0.0276323207387
0.66  0.68  0.0216156540314
0.66  0.7  0.0169090574629
0.66  0.72  0.0132272761153
0.66  0.74  0.0103471665297
0.66  0.76  0.00809417254621
0.66  0.78  0.00633174589583
0.66  0.8  0.0049530703553
0.66  0.82  0.0038745878859
0.66  0.84  0.00303093439193
0.66  0.86  0.00237097816819
0.66  0.88  0.00185472093655
0.66  0.9  0.00145087365149
0.66  0.92  0.00113496015013
0.66  0.94  0.000887833713881
0.66  0.96  0.000694516634276
0.66  0.98  0.000543292451891
0.68  -1  0.000351216979401
0.68  -0.98  0.000448977403579
0.68  -0.96  0.000573949213015
0.68  -0.94  0.000733706633105
0.68  -0.92  0.000937932157159
0.68  -0.9  0.00119900337783
0.68  -0.88  0.00153274316174
0.68  -0.86  0.00195937863335
0.68  -0.84  0.00250476708994
0.68  -0.82  0.00320196314691
0.68  -0.8  0.00409322209452
0.68  -0.78  0.00523256088418
0.68  -0.76  0.00668903195925
0.68  -0.74  0.00855090834915
0.68  -0.72  0.0109310336744
0.68  -0.7  0.0139736613131
0.68  -0.68  0.0178631972336
0.68  -0.66  0.0228353763741
0.68  -0.64  0.0291915499406
0.68  -0.62  0.0373169495425
0.68  -0.6  0.0477040351058
0.68  -0.58  0.0609823416241
0.68  -0.56  0.0779566336835
0.68  -0.54  0.0996556802085
0.68  -0.52  0.127394605546
0.68  -0.5  0.162854595827
0.68  -0.48  0.208184791408
0.68  -0.46  0.266132540831
0.68  -0.44  0.340209910677
0.68  -0.42  0.434906543038
0.68  -0.4  0.555961761375
0.68  -0.38  0.710712416402
0.68  -0.36  0.908537554055
0.68  -0.34  1.16142685576
0.68  -0.32  1.48470730269
0.68  -0.3  1.89797210537
0.68  -0.28  2.42626819862
0.68  -0.26  3.10161427292
0.68  -0.24  3.96494134632
0.68  -0.22  5.06857348996
0.68  -0.2  1.09167077909
0.68  -0.18  1.09636994536
0.68  -0.16  1.1005801061
0.68  -0.14  1.1042993835
0.68  -0.12  1.10752611867
0.68  -0.1  1.11025887242
0.68  -0.08  1.11249642587
0.68  -0.06  1.11423778103
0.68  -0.04  1.11548216122
0.68  -0.02  1.11622901141
0.68  6.17561557e-16  1.11647799849
0.68  0.02  1.11622901141
0.68  0.04  1.11548216122
0.68  0.06  1.11423778103
0.68  0.08  1.11249642587
0.68  0.1  1.11025887242
0.68  0.12  1.10752611867
0.68  0.14  1.1042993835
0.68  0.16  1.1005801061
0.68  0.18  1.09636994536
0.68  0.2  6.47939905768
0.68  0.22  5.06857348996
0.68  0.24  3.96494134632
0.68  0.26  3.10161427292
0.68  0.28  2.42626819862
0.68  0.3  1.89797210537
0.68  0.32  1.48470730269
0.68  0.34  1.16142685576
0.68  0.36  0.908537554055
0.68  0.38  0.710712416402
0.68  0.4  0.555961761375
0.68  0.42  0.434906543038
0.68  0.44  0.340209910677
0.68  0.46  0.266132540831
0.68  0.48  0.208184791408
0.68  0.5  0.162854595827
0.68  0.52  0.127394605546
0.68  0.54  0.0996556802085
0.68  0.56  0.0779566336835
0.68  0.58  0.0609823416241
0.68  0.6  0.0477040351058
0.68  0.62  0.0373169495425
0.68  0.64  0.0291915499406
0.68  0.66  0.0228353763741
0.68  0.68  0.0178631972336
0.68  0.7  0.0139736613131
0.68  0.72  0.0109310336744
0.68  0.74  0.00855090834915
0.68  0.76  0.00668903195925
0.68  0.78  0.00523256088418
0.68  0.8  0.00409322209452
0.68  0.82  0.00320196314691
0.68  0.84  0.00250476708994
0.68  0.86  0.00195937863335
0.68  0.88  0.00153274316174
0.68  0.9  0.00119900337783
0.68  0.92  0.000937932157159
0.68  0.94  0.000733706633105
0.68  0.96  0.000573949213015
0.68  0.98  0.000448977403579
0.7  -1  0.000290246048801
0.7  -0.98  0.000371035357151
0.7  -0.96  0.00047431218039
0.7  -0.94  0.000606335865654
0.7  -0.92  0.000775108034704
0.7  -0.9  0.000990857541991
0.7  -0.88  0.00126666041966
0.7  -0.86  0.0016192323828
0.7  -0.84  0.00206994192667
0.7  -0.82  0.00264610541717
0.7  -0.8  0.00338264266672
0.7  -0.78  0.00432419333578
0.7  -0.76  0.00552782242984
0.7  -0.74  0.00706647886508
0.7  -0.72  0.00903341671779
0.7  -0.7  0.0115478471181
0.7  -0.68  0.0147621633352
0.7  -0.66  0.0188711769481
0.7  -0.64  0.0241239248828
0.7  -0.62  0.0308387629108
0.7  -0.6  0.0394226603876
0.7  -0.58  0.0503958656361
0.7  -0.56  0.0644234368822
0.7  -0.54  0.0823555497526
0.7  -0.52  0.10527902427
0.7  -0.5  0.134583194265
0.7  -0.48  0.172044111391
0.7  -0.46  0.21993218712
0.7  -0.44  0.281149796645
0.7  -0.42  0.359407184498
0.7  -0.4  0.459447333095
0.7  -0.38  0.587333422906
0.7  -0.36  0.750816306493
0.7  -0.34  0.959804268088
0.7  -0.32  1.22696353965
0.7  -0.3  1.56848596915
0.7  -0.28  2.00507036755
0.7  -0.26  2.56317701141
0.7  -0.24  3.27663133331
0.7  -0.22  4.18867399584
0.7  -0.2  0.902157779394
0.7  -0.18  0.906041174905
0.7  -0.16  0.909520455785
0.7  -0.14  0.912594070196
0.7  -0.12  0.915260647237
0.7  -0.1  0.917518997555
0.7  -0.08  0.919368113876
0.7  -0.06  0.920807171453
0.7  -0.04  0.921835528433
0.7  -0.02  0.922452726147
0.7  6.17561557e-16  0.92265848931
0.7  0.02  0.922452726147
0.7  0.04  0.921835528433
0.7  0.06  0.920807171453
0.7  0.08  0.919368113876
0.7  0.1  0.917518997555
0.7  0.12  0.915260647237
0.7  0.14  0.912594070196
0.7  0.16  0.909520455785
0.7  0.18  0.906041174905
0.7  0.2  5.35458159881
0.7  0.22  4.18867399584
0.7  0.24  3.27663133331
0.7  0.26  2.56317701141
0.7  0.28  2.00507036755
0.7  0.3  1.56848596915
0.7  0.32  1.22696353965
0.7  0.34  0.959804268088
0.7  0.36  0.750816306493
0.7  0.38  0.587333422906
0.7  0.4  0.459447333095
0.7  0.42  0.359407184498
0.7  0.44  0.281149796645
0.7  0.46  0.21993218712
0.7  0.48  0.172044111391
0.7  0.5  0.134583194265
0.7  0.52  0.10527902427
0.7  0.54  0.0823555497526
0.7  0.56  0.0644234368822
0.7  0.58  0.0503958656361
0.7  0.6  0.0394226603876
0.7  0.62  0.0308387629108
0.7  0.64  0.0241239248828
0.7  0.66  0.0188711769481
0.7  0.68  0.0147621633352
0.7  0.7  0.0115478471181
0.7  0.72  0.00903341671779
0.7  0.74  0.00706647886508
0.7  0.76  0.00552782242984
0.7  0.78  0.00432419333578
0.7  0.8  0.00338264266672
0.7  0.82  0.00264610541717
0.7  0.84  0.00206994192667
0.7  0.86  0.0016192323828
0.7  0.88  0.00126666041966
0.7  0.9  0.000990857541991
0.7  0.92  0.000775108034704
0.7  0.94  0.000606335865654
0.7  0.96  0.00047431218039
0.7  0.98  0.000371035357151
0.72  -1  0.000239859613245
0.72  -0.98  0.000306623975191
0.72  -0.96  0.000391972041018
0.72  -0.94  0.000501076541209
0.72  -0.92  0.000640550023663
0.72  -0.9  0.000818845623516
0.72  -0.88  0.00104676938628
0.72  -0.86  0.00133813519494
0.72  -0.84  0.00171060199449
0.72  -0.82  0.00218674405592
0.72  -0.8  0.00279541914572
0.72  -0.78  0.00357351752213
0.72  -0.76  0.00456819776045
0.72  -0.74  0.00583974491501
0.72  -0.72  0.00746522424393
0.72  -0.7  0.00954315193956
0.72  -0.68  0.0121994659458
0.72  -0.66  0.0155951587384
0.72  -0.64  0.0199360346721
0.72  -0.62  0.025485183262
0.72  -0.6  0.0325789243738
0.72  -0.58  0.0416471917209
0.72  -0.56  0.0532395900594
0.72  -0.54  0.0680587053429
0.72  -0.52  0.0870026866808
0.72  -0.5  0.111219680885
0.72  -0.48  0.142177418745
0.72  -0.46  0.18175217048
0.72  -0.44  0.232342461735
0.72  -0.42  0.297014442151
0.72  -0.4  0.379687716949
0.72  -0.38  0.485372904287
0.72  -0.36  0.620475316159
0.72  -0.34  0.793183168164
0.72  -0.32  1.01396384654
0.72  -0.3  1.29619831
0.72  -0.28  1.65699207579
0.72  -0.26  2.11821194182
0.72  -0.24  2.70781127806
0.72  -0.22  3.46152420956
0.72  -0.2  0.745544054591
0.72  -0.18  0.748753296368
0.72  -0.16  0.751628577425
0.72  -0.14  0.754168615324
0.72  -0.12  0.756372277149
0.72  -0.1  0.758238580019
0.72  -0.08  0.759766691522
0.72  -0.06  0.760955930084
0.72  -0.04  0.761805765279
0.72  -0.02  0.762315818062
0.72  6.17561557e-16  0.762485860937
0.72  0.02  0.762315818062
0.72  0.04  0.761805765279
0.72  0.06  0.760955930084
0.72  0.08  0.759766691522
0.72  0.1  0.758238580019
0.72  0.12  0.756372277149
0.72  0.14  0.754168615324
0.72  0.16  0.751628577425
0.72  0.18  0.748753296368
0.72  0.2  4.42503137145
0.72  0.22  3.46152420956
0.72  0.24  2.70781127806
0.72  0.26  2.11821194182
0.72  0.28  1.65699207579
0.72  0.3  1.29619831
0.72  0.32  1.01396384654
0.72  0.34  0.793183168164
0.72  0.36  0.620475316159
0.72  0.38  0.485372904287
0.72  0.4  0.379687716949
0.72  0.42  0.297014442151
0.72  0.44  0.232342461735
0.72  0.46  0.18175217048
0.72  0.48  0.142177418745
0.72  0.5  0.111219680885
0.72  0.52  0.0870026866808
0.72  0.54  0.0680587053429
0.72  0.56  0.0532395900594
0.72  0.58  0.0416471917209
0.72  0.6  0.0325789243738
0.72  0.62  0.025485183262
0.72  0.64  0.0199360346721
0.72  0.66  0.0155951587384
0.72  0.68  0.0121994659458
0.72  0.7  0.00954315193956
0.72  0.72  0.00746522424393
0.72  0.74  0.00583974491501
0.72  0.76  0.00456819776045
0.72  0.78  0.00357351752213
0.72  0.8  0.00279541914572
0.72  0.82  0.00218674405592
0.72  0.84  0.00171060199449
0.72  0.86  0.00133813519494
0.72  0.88  0.00104676938628
0.72  0.9  0.000818845623516
0.72  0.92  0.000640550023663
0.72  0.94  0.000501076541209
0.72  0.96  0.000391972041018
0.72  0.98  0.000306623975191
0.74  -1  0.000198220214552
0.74  -0.98  0.00025339434733
0.74  -0.96  0.000323926070829
0.74  -0.94  0.000414090134482
0.74  -0.92  0.000529351154219
0.74  -0.9  0.000676694809027
0.74  -0.88  0.000865051225287
0.74  -0.86  0.00110583620916
0.74  -0.84  0.00141364312972
0.74  -0.82  0.00180712738618
0.74  -0.8  0.00231013706447
0.74  -0.78  0.00295315830939
0.74  -0.76  0.00377516301282
0.74  -0.74  0.00482597080151
0.74  -0.72  0.00616926847872
0.74  -0.7  0.00788646992034
0.74  -0.68  0.010081650364
0.74  -0.66  0.0128878541464
0.74  -0.64  0.0164751581834
0.74  -0.62  0.021060979903
0.74  -0.6  0.0269232543648
0.74  -0.58  0.0344172792023
0.74  -0.56  0.0439972483131
0.74  -0.54  0.0562437794037
0.74  -0.52  0.0718991037597
0.74  -0.5  0.0919120510084
0.74  -0.48  0.117495555283
0.74  -0.46  0.150200168092
0.74  -0.44  0.192008033331
0.74  -0.42  0.245453020005
0.74  -0.4  0.313774293631
0.74  -0.38  0.401112633861
0.74  -0.36  0.512761396675
0.74  -0.34  0.655487331299
0.74  -0.32  0.83794069577
0.74  -0.3  1.0711795272
0.74  -0.28  1.36933984146
0.74  -0.26  1.75049238133
0.74  -0.24  2.23773783857
0.74  -0.22  2.86060692842
0.74  -0.2  0.616118322129
0.74  -0.18  0.618770442613
0.74  -0.16  0.621146577638
0.74  -0.14  0.623245667394
0.74  -0.12  0.625066775641
0.74  -0.1  0.626609090124
0.74  -0.08  0.627871922936
0.74  -0.06  0.628854710825
0.74  -0.04  0.629557015446
0.74  -0.02  0.629978523555
0.74  6.17561557e-16  0.63011904715
0.74  0.02  0.629978523555
0.74  0.04  0.629557015446
0.74  0.06  0.628854710825
0.74  0.08  0.627871922936
0.74  0.1  0.626609090124
0.74  0.12  0.625066775641
0.74  0.14  0.623245667394
0.74  0.16  0.621146577638
0.74  0.18  0.618770442613
0.74  0.2  3.65685017157
0.74  0.22  2.86060692842
0.74  0.24  2.23773783857
0.74  0.26  1.75049238133
0.74  0.28  1.36933984146
0.74  0.3  1.0711795272
0.74  0.32  0.83794069577
0.74  0.34  0.655487331299
0.74  0.36  0.512761396675
0.74  0.38  0.401112633861
0.74  0.4  0.313774293631
0.74  0.42  0.245453020005
0.74  0.44  0.192008033331
0.74  0.46  0.150200168092
0.74  0.48  0.117495555283
0.74  0.5  0.0919120510084
0.74  0.52  0.0718991037597
0.74  0.54  0.0562437794037
0.74  0.56  0.0439972483131
0.74  0.58  0.0344172792023
0.74  0.6  0.0269232543648
0.74  0.62  0.021060979903
0.74  0.64  0.0164751581834
0.74  0.66  0.0128878541464
0.74  0.68  0.010081650364
0.74  0.7  0.00788646992034
0.74  0.72  0.00616926847872
0.74  0.74  0.00482597080151
0.74  0.76  0.00377516301282
0.74  0.78  0.00295315830939
0.74  0.8  0.00231013706447
0.74  0.82  0.00180712738618
0.74  0.84  0.00141364312972
0.74  0.86  0.00110583620916
0.74  0.88  0.000865051225287
0.74  0.9  0.000676694809027
0.74  0.92  0.000529351154219
0.74  0.94  0.000414090134482
0.74  0.96  0.000323926070829
0.74  0.98  0.00025339434733
0.76  -1  0.000163809375516
0.76  -0.98  0.000209405331788
0.76  -0.96  0.000267692815769
0.76  -0.94  0.000342204484491
0.76  -0.92  0.000437456301806
0.76  -0.9  0.000559221239528
0.76  -0.88  0.00071487916267
0.76  -0.86  0.000913864104394
0.76  -0.84  0.00116823603891
0.76  -0.82  0.00149341180604
0.76  -0.8  0.00190909948686
0.76  -0.78  0.0024404928607
0.76  -0.76  0.00311979833639
0.76  -0.74  0.00398818690131
0.76  -0.72  0.00509828939077
0.76  -0.7  0.00651738630993
0.76  -0.68  0.00833148553508
0.76  -0.66  0.0106505350336
0.76  -0.64  0.0136150865321
0.76  -0.62  0.0174048140017
0.76  -0.6  0.0222494032423
0.76  -0.58  0.0284424725592
0.76  -0.56  0.0363593682252
0.76  -0.54  0.04647991327
0.76  -0.52  0.0594174883405
0.76  -0.5  0.075956207151
0.76  -0.48  0.0970984396327
0.76  -0.46  0.124125563041
0.76  -0.44  0.158675622993
0.76  -0.42  0.202842611266
0.76  -0.4  0.25930337735
0.76  -0.38  0.331479865525
0.76  -0.36  0.423746510251
0.76  -0.34  0.541695359583
0.76  -0.32  0.692474995062
0.76  -0.3  0.885223789171
0.76  -0.28  1.13162375898
0.76  -0.26  1.44660858368
0.76  -0.24  1.8492686971
0.76  -0.22  2.36400831065
0.76  -0.2  0.509160772627
0.76  -0.18  0.511352487539
0.76  -0.16  0.513316127804
0.76  -0.14  0.515050817593
0.76  -0.12  0.516555783196
0.76  -0.1  0.517830353365
0.76  -0.08  0.518873959613
0.76  -0.06  0.519686136467
0.76  -0.04  0.52026652168
0.76  -0.02  0.520614856385
0.76  6.17561557e-16  0.520730985219
0.76  0.02  0.520614856385
0.76  0.04  0.52026652168
0.76  0.06  0.519686136467
0.76  0.08  0.518873959613
0.76  0.1  0.517830353365
0.76  0.12  0.516555783196
0.76  0.14  0.515050817593
0.76  0.16  0.513316127804
0.76  0.18  0.511352487539
0.76  0.2  3.02202449085
0.76  0.22  2.36400831065
0.76  0.24  1.8492686971
0.76  0.26  1.44660858368
0.76  0.28  1.13162375898
0.76  0.3  0.885223789171
0.76  0.32  0.692474995062
0.76  0.34  0.541695359583
0.76  0.36  0.423746510251
0.76  0.38  0.331479865525
0.76  0.4  0.25930337735
0.76  0.42  0.202842611266
0.76  0.44  0.158675622993
0.76  0.46  0.124125563041
0.76  0.48  0.0970984396327
0.76  0.5  0.075956207151
0.76  0.52  0.0594174883405
0.76  0.54  0.04647991327
0.76  0.56  0.0363593682252
0.76  0.58  0.0284424725592
0.76  0.6  0.0222494032423
0.76  0.62  0.0174048140017
0.76  0.64  0.0136150865321
0.76  0.66  0.0106505350336
0.76  0.68  0.00833148553508
0.76  0.7  0.00651738630993
0.76  0.72  0.00509828939077
0.76  0.74  0.00398818690131
0.76  0.76  0.00311979833639
0.76  0.78  0.0024404928607
0.76  0.8  0.00190909948686
0.76  0.82  0.00149341180604
0.76  0.84  0.00116823603891
0.76  0.86  0.000913864104394
0.76  0.88  0.00071487916267
0.76  0.9  0.000559221239528
0.76  0.92  0.000437456301806
0.76  0.94  0.000342204484491
0.76  0.96  0.000267692815769
0.76  0.98  0.000209405331788
0.78  -1  0.000135372225116
0.78  -0.98  0.000173052767132
0.78  -0.96  0.000221221599826
0.78  -0.94  0.000282798114359
0.78  -0.92  0.00036151430759
0.78  -0.9  0.000462140968968
0.78  -0.88  0.000590776826019
0.78  -0.86  0.000755218172804
0.78  -0.84  0.000965431383583
0.78  -0.82  0.00123415694957
0.78  -0.8  0.00157768164789
0.78  -0.78  0.00201682564195
0.78  -0.76  0.00257820433892
0.78  -0.74  0.00329584148226
0.78  -0.72  0.00421323124479
0.78  -0.7  0.00538597430053
0.78  -0.68  0.00688514764098
0.78  -0.66  0.00880161237186
0.78  -0.64  0.011251520575
0.78  -0.62  0.0143833549924
0.78  -0.6  0.0183869281897
0.78  -0.58  0.0235048866159
0.78  -0.56  0.0300474167913
0.78  -0.54  0.0384110449279
0.78  -0.52  0.0491026693809
0.78  -0.5  0.0627702824762
0.78  -0.48  0.0802422436869
0.78  -0.46  0.102577484407
0.78  -0.44  0.131129687105
0.78  -0.42  0.167629328595
0.78  -0.4  0.214288559866
0.78  -0.38  0.273935278954
0.78  -0.36  0.350184522694
0.78  -0.34  0.447657564964
0.78  -0.32  0.57226200041
0.78  -0.3  0.73154978882
0.78  -0.28  0.935174960315
0.78  -0.26  1.1954787217
0.78  -0.24  1.52823742582
0.78  -0.22  1.95361873639
0.78  -0.2  0.420770951083
0.78  -0.18  0.42258218639
0.78  -0.16  0.424204940589
0.78  -0.14  0.425638489895
0.78  -0.12  0.426882194914
0.78  -0.1  0.427935500924
0.78  -0.08  0.428797938129
0.78  -0.06  0.429469121861
0.78  -0.04  0.429948752757
0.78  -0.02  0.430236616892
0.78  6.17561557e-16  0.430332585872
0.78  0.02  0.430236616892
0.78  0.04  0.429948752757
0.78  0.06  0.429469121861
0.78  0.08  0.428797938129
0.78  0.1  0.427935500924
0.78  0.12  0.426882194914
0.78  0.14  0.425638489895
0.78  0.16  0.424204940589
0.78  0.18  0.42258218639
0.78  0.2  2.49740393914
0.78  0.22  1.95361873639
0.78  0.24  1.52823742582
0.78  0.26  1.1954787217
0.78  0.28  0.935174960315
0.78  0.3  0.73154978882
0.78  0.32  0.57226200041
0.78  0.34  0.447657564964
0.78  0.36  0.350184522694
0.78  0.38  0.273935278954
0.78  0.4  0.214288559866
0.78  0.42  0.167629328595
0.78  0.44  0.131129687105
0.78  0.46  0.102577484407
0.78  0.48  0.0802422436869
0.78  0.5  0.0627702824762
0.78  0.52  0.0491026693809
0.78  0.54  0.0384110449279
0.78  0.56  0.0300474167913
0.78  0.58  0.0235048866159
0.78  0.6  0.0183869281897
0.78  0.62  0.0143833549924
0.78  0.64  0.011251520575
0.78  0.66  0.00880161237186
0.78  0.68  0.00688514764098
0.78  0.7  0.00538597430053
0.78  0.72  0.00421323124479
0.78  0.74  0.00329584148226
0.78  0.76  0.00257820433892
0.78  0.78  0.00201682564195
0.78  0.8  0.00157768164789
0.78  0.82  0.00123415694957
0.78  0.84  0.000965431383583
0.78  0.86  0.000755218172804
0.78  0.88  0.000590776826019
0.78  0.9  0.000462140968968
0.78  0.92  0.00036151430759
0.78  0.94  0.000282798114359
0.78  0.96  0.000221221599826
0.78  0.98  0.000173052767132
0.8  -1  0.000111871736737
0.8  -0.98  0.000143010972817
0.8  -0.96  0.000182817742378
0.8  -0.94  0.000233704633076
0.8  -0.92  0.000298755770697
0.8  -0.9  0.00038191374022
0.8  -0.88  0.000488218535924
0.8  -0.86  0.000624113022703
0.8  -0.84  0.000797833421809
0.8  -0.82  0.00101990848741
0.8  -0.8  0.00130379762774
0.8  -0.78  0.00166670664582
0.8  -0.76  0.00213063053969
0.8  -0.74  0.00272368656359
0.8  -0.72  0.00348181834366
0.8  -0.7  0.00445097433027
0.8  -0.68  0.0056898926174
0.8  -0.66  0.00727366091002
0.8  -0.64  0.00929826740002
0.8  -0.62  0.0118864183678
0.8  -0.6  0.0151949750998
0.8  -0.58  0.0194244608544
0.8  -0.56  0.0248312140695
0.8  -0.54  0.0317429243872
0.8  -0.52  0.0405784930947
0.8  -0.5  0.0518734216719
0.8  -0.48  0.0663122671823
0.8  -0.46  0.0847701315459
0.8  -0.44  0.108365699254
0.8  -0.42  0.138529038006
0.8  -0.4  0.177088271502
0.8  -0.38  0.226380377392
0.8  -0.36  0.289392825587
0.8  -0.34  0.369944641253
0.8  -0.32  0.472917866274
0.8  -0.3  0.604553447467
0.8  -0.28  0.772829484587
0.8  -0.26  0.987944762781
0.8  -0.24  1.26293687517
0.8  -0.22  1.61447239842
0.8  -0.2  0.347725517741
0.8  -0.18  0.349222324337
0.8  -0.16  0.350563369965
0.8  -0.14  0.351748056487
0.8  -0.12  0.352775855508
0.8  -0.1  0.353646308606
0.8  -0.08  0.354359027539
0.8  -0.06  0.354913694419
0.8  -0.04  0.355310061852
0.8  -0.02  0.35554795305
0.8  6.17561557e-16  0.355627261907
0.8  0.02  0.35554795305
0.8  0.04  0.355310061852
0.8  0.06  0.354913694419
0.8  0.08  0.354359027539
0.8  0.1  0.353646308606
0.8  0.12  0.352775855508
0.8  0.14  0.351748056487
0.8  0.16  0.350563369965
0.8  0.18  0.349222324337
0.8  0.2  2.06385701178
0.8  0.22  1.61447239842
0.8  0.24  1.26293687517
0.8  0.26  0.987944762781
0.8  0.28  0.772829484587
0.8  0.3  0.604553447467
0.8  0.32  0.472917866274
0.8  0.34  0.369944641253
0.8  0.36  0.289392825587
0.8  0.38  0.226380377392
0.8  0.4  0.177088271502
0.8  0.42  0.138529038006
0.8  0.44  0.108365699254
0.8  0.46  0.0847701315459
0.8  0.48  0.0663122671823
0.8  0.5  0.0518734216719
0.8  0.52  0.0405784930947
0.8  0.54  0.0317429243872
0.8  0.56  0.0248312140695
0.8  0.58  0.0194244608544
0.8  0.6  0.0151949750998
0.8  0.62  0.0118864183678
0.8  0.64  0.00929826740002
0.8  0.66  0.00727366091002
0.8  0.68  0.0056898926174
0.8  0.7  0.00445097433027
0.8  0.72  0.00348181834366
0.8  0.74  0.00272368656359
0.8  0.76  0.00213063053969
0.8  0.78  0.00166670664582
0.8  0.8  0.00130379762774
0.8  0.82  0.00101990848741
0.8  0.84  0.000797833421809
0.8  0.86  0.000624113022703
0.8  0.88  0.000488218535924
0.8  0.9  0.00038191374022
0.8  0.92  0.000298755770697
0.8  0.94  0.000233704633076
0.8  0.96  0.000182817742378
0.8  0.98  0.000143010972817
0.82  -1  0.0000924509105902
0.82  -0.98  0.000118184405168
0.82  -0.96  0.00015108075773
0.82  -0.94  0.000193133733034
0.82  -0.92  0.000246892055586
0.82  -0.9  0.000315613881397
0.82  -0.88  0.000403464266576
0.82  -0.86  0.000515767600853
0.82  -0.84  0.000659330305374
0.82  -0.82  0.000842853352685
0.82  -0.8  0.00107745961067
0.82  -0.78  0.00137736797146
0.82  -0.76  0.00176075512253
0.82  -0.74  0.00225085718976
0.82  -0.72  0.00287737802031
0.82  -0.7  0.00367828945763
0.82  -0.68  0.00470213271897
0.82  -0.66  0.00601096035576
0.82  -0.64  0.00768409710188
0.82  -0.62  0.00982294754523
0.82  -0.6  0.0125571420034
0.82  -0.58  0.0160523930895
0.82  -0.56  0.0205205391347
0.82  -0.54  0.0262323831737
0.82  -0.52  0.0335341056321
0.82  -0.5  0.0428682454468
0.82  -0.48  0.0548005212319
0.82  -0.46  0.0700541180539
0.82  -0.44  0.0895535178495
0.82  -0.42  0.114480529939
0.82  -0.4  0.146345917501
0.82  -0.38  0.187080961109
0.82  -0.36  0.239154508763
0.82  -0.34  0.305722606525
0.82  -0.32  0.390819778495
0.82  -0.3  0.499603549109
0.82  -0.28  0.63866702766
0.82  -0.26  0.816438499982
0.82  -0.24  1.04369224554
0.82  -0.22  1.33420153928
0.82  -0.2  0.287360701535
0.82  -0.18  0.288597663942
0.82  -0.16  0.289705905335
0.82  -0.14  0.290684931414
0.82  -0.12  0.291534305511
0.82  -0.1  0.292253648786
0.82  -0.08  0.292842640397
0.82  -0.06  0.293301017639
0.82  -0.04  0.293628576066
0.82  -0.02  0.29382516958
0.82  6.17561557e-16  0.293890710495
0.82  0.02  0.29382516958
0.82  0.04  0.293628576066
0.82  0.06  0.293301017639
0.82  0.08  0.292842640397
0.82  0.1  0.292253648786
0.82  0.12  0.291534305511
0.82  0.14  0.290684931414
0.82  0.16  0.289705905335
0.82  0.18  0.288597663942
0.82  0.2  1.70557341499
0.82  0.22  1.33420153928
0.82  0.24  1.04369224554
0.82  0.26  0.816438499982
0.82  0.28  0.63866702766
0.82  0.3  0.499603549109
0.82  0.32  0.390819778495
0.82  0.34  0.305722606525
0.82  0.36  0.239154508763
0.82  0.38  0.187080961109
0.82  0.4  0.146345917501
0.82  0.42  0.114480529939
0.82  0.44  0.0895535178495
0.82  0.46  0.0700541180539
0.82  0.48  0.0548005212319
0.82  0.5  0.0428682454468
0.82  0.52  0.0335341056321
0.82  0.54  0.0262323831737
0.82  0.56  0.0205205391347
0.82  0.58  0.0160523930895
0.82  0.6  0.0125571420034
0.82  0.62  0.00982294754523
0.82  0.64  0.00768409710188
0.82  0.66  0.00601096035576
0.82  0.68  0.00470213271897
0.82  0.7  0.00367828945763
0.82  0.72  0.00287737802031
0.82  0.74  0.00225085718976
0.82  0.76  0.00176075512253
0.82  0.78  0.00137736797146
0.82  0.8  0.00107745961067
0.82  0.82  0.000842853352685
0.82  0.84  0.000659330305374
0.82  0.86  0.000515767600853
0.82  0.88  0.000403464266576
0.82  0.9  0.000315613881397
0.82  0.92  0.000246892055586
0.82  0.94  0.000193133733034
0.82  0.96  0.00015108075773
0.82  0.98  0.000118184405168
0.84  -1  0.0000764015212264
0.84  -0.98  0.0000976677058388
0.84  -0.96  0.000124853283164
0.84  -0.94  0.000159605902308
0.84  -0.92  0.000204031831651
0.84  -0.9  0.000260823614446
0.84  -0.88  0.000333423257058
0.84  -0.86  0.000426230840269
0.84  -0.84  0.000544871197046
0.84  -0.82  0.00069653481945
0.84  -0.8  0.000890413656175
0.84  -0.78  0.00113825821332
0.84  -0.76  0.00145508972286
0.84  -0.74  0.00186011054151
0.84  -0.72  0.00237786795708
0.84  -0.7  0.00303974193743
0.84  -0.68  0.00388584699107
0.84  -0.66  0.00496746340604
0.84  -0.64  0.00635014521855
0.84  -0.62  0.00811769327736
0.84  -0.6  0.0103772342013
0.84  -0.58  0.0132657130529
0.84  -0.56  0.0169581932322
0.84  -0.54  0.021678466627
0.84  -0.52  0.0277126170732
0.84  -0.5  0.035426359173
0.84  -0.48  0.0452872033319
0.84  -0.46  0.0578927903828
0.84  -0.44  0.0740071130853
0.84  -0.42  0.0946068197958
0.84  -0.4  0.120940406655
0.84  -0.38  0.154603885781
0.84  -0.36  0.197637515531
0.84  -0.34  0.2526494554
0.84  -0.32  0.322973839974
0.84  -0.3  0.412872852397
0.84  -0.28  0.527795044515
0.84  -0.26  0.674705559829
0.84  -0.24  0.862508273231
0.84  -0.22  1.10258543235
0.84  -0.2  0.237475159496
0.84  -0.18  0.238497386416
0.84  -0.16  0.239413238167
0.84  -0.14  0.240222306258
0.84  -0.12  0.240924229827
0.84  -0.1  0.2415186958
0.84  -0.08  0.242005439032
0.84  -0.06  0.242384242424
0.84  -0.04  0.242654937023
0.84  -0.02  0.242817402092
0.84  6.17561557e-16  0.242871565167
0.84  0.02  0.242817402092
0.84  0.04  0.242654937023
0.84  0.06  0.242384242424
0.84  0.08  0.242005439032
0.84  0.1  0.2415186958
0.84  0.12  0.240924229827
0.84  0.14  0.240222306258
0.84  0.16  0.239413238167
0.84  0.18  0.238497386416
0.84  0.2  1.40948750679
0.84  0.22  1.10258543235
0.84  0.24  0.862508273231
