-0.3  -0.02  0.796153229065
-0.3  6.17561557e-16  2.09720402485e-13
-0.3  0.02  0.796153229065
-0.3  0.04  1.59195135598
-0.3  0.06  2.38703943698
-0.3  0.08  3.18106284499
-0.3  0.1  3.97366742782
-0.3  0.12  4.76449966608
-0.3  0.14  5.55320683092
-0.3  0.16  6.33943714128
-0.3  0.18  7.12283992087
-0.3  0.2  7.90306575452
-0.3  0.22  6.18225073285
-0.3  0.24  4.83612629719
-0.3  0.26  3.78310724896
-0.3  0.28  2.95937276607
-0.3  0.3  2.31499838418
-0.3  0.32  1.81093020123
-0.3  0.34  1.4166179191
-0.3  0.36  1.10816326734
-0.3  0.38  0.866871589384
-0.3  0.4  0.678118806704
-0.3  0.42  0.530465090374
-0.3  0.44  0.414961521969
-0.3  0.46  0.324607722241
-0.3  0.48  0.253927575836
-0.3  0.5  0.198637337783
-0.3  0.52  0.155386006548
-0.3  0.54  0.121552228299
-0.3  0.56  0.0950854232804
-0.3  0.58  0.0743815053573
-0.3  0.6  0.0581856624111
-0.3  0.62  0.0455163053498
-0.3  0.64  0.0356055764745
-0.3  0.66  0.0278528115658
-0.3  0.68  0.0217881351444
-0.3  0.7  0.0170439825061
-0.3  0.72  0.0133328225541
-0.3  0.74  0.0104297312672
-0.3  0.76  0.00815875962223
-0.3  0.78  0.00638226976978
-0.3  0.8  0.00499259315145
-0.3  0.82  0.00390550498099
-0.3  0.84  0.00305511959294
-0.3  0.86  0.00238989727899
-0.3  0.88  0.00186952059661
-0.3  0.9  0.00146245083079
-0.3  0.92  0.00114401651223
-0.3  0.94  0.000894918141998
-0.3  0.96  0.000700058497684
-0.3  0.98  0.00054762762892
-0.28  -1  0.000508252201721
-0.28  -0.98  0.000649723012484
-0.28  -0.96  0.000830571892305
-0.28  -0.94  0.00106175963454
-0.28  -0.92  0.00135729794372
-0.28  -0.9  0.00173509864954
-0.28  -0.88  0.00221805929757
-0.28  -0.86  0.00283545091158
-0.28  -0.84  0.00362469203633
-0.28  -0.82  0.0046336165809
-0.28  -0.8  0.00592337291102
-0.28  -0.78  0.00757212989689
-0.28  -0.76  0.0096798145308
-0.28  -0.74  0.0123741682494
-0.28  -0.72  0.0158184890194
-0.28  -0.7  0.0202215284141
-0.28  -0.68  0.0258501435188
-0.28  -0.66  0.0330454704639
-0.28  -0.64  0.0422435998232
-0.28  -0.62  0.0540020069611
-0.28  -0.6  0.0690333392048
-0.28  -0.58  0.0882486075969
-0.28  -0.56  0.112812400972
-0.28  -0.54  0.14421346874
-0.28  -0.52  0.184354950226
-0.28  -0.5  0.235669719131
-0.28  -0.48  0.301267833857
-0.28  -0.46  0.38512503028
-0.28  -0.44  0.492323681058
-0.28  -0.42  0.629360825376
-0.28  -0.4  0.804541938073
-0.28  -0.38  1.02848430347
-0.28  -0.36  1.31476050213
-0.28  -0.34  1.68072101065
-0.28  -0.32  2.14854577016
-0.28  -0.3  2.74658845652
-0.28  -0.28  3.51109492489
-0.28  -0.26  4.48839997937
-0.28  -0.24  5.73773560834
-0.28  -0.22  7.3348208855
-0.28  -0.2  9.37645111152
-0.28  -0.18  8.45076611631
-0.28  -0.16  7.52131189036
-0.28  -0.14  6.58850299107
-0.28  -0.12  5.65275547206
-0.28  -0.1  4.71448669766
-0.28  -0.08  3.77411515673
-0.28  -0.06  2.83206027601
-0.28  -0.04  1.88874223307
-0.28  -0.02  0.944581768833
-0.28  6.17561557e-16  2.48819023158e-13
-0.28  0.02  0.944581768833
-0.28  0.04  1.88874223307
-0.28  0.06  2.83206027602
-0.28  0.08  3.77411515673
-0.28  0.1  4.71448669766
-0.28  0.12  5.65275547206
-0.28  0.14  6.58850299107
-0.28  0.16  7.52131189036
-0.28  0.18  8.45076611631
-0.28  0.2  9.37645111152
-0.28  0.22  7.3348208855
-0.28  0.24  5.73773560834
-0.28  0.26  4.48839997937
-0.28  0.28  3.51109492489
-0.28  0.3  2.74658845652
-0.28  0.32  2.14854577016
-0.28  0.34  1.68072101065
-0.28  0.36  1.31476050213
-0.28  0.38  1.02848430347
-0.28  0.4  0.804541938073
-0.28  0.42  0.629360825376
-0.28  0.44  0.492323681058
-0.28  0.46  0.38512503028
-0.28  0.48  0.301267833857
-0.28  0.5  0.235669719131
-0.28  0.52  0.184354950226
-0.28  0.54  0.14421346874
-0.28  0.56  0.112812400972
-0.28  0.58  0.0882486075969
-0.28  0.6  0.0690333392048
-0.28  0.62  0.0540020069611
-0.28  0.64  0.0422435998232
-0.28  0.66  0.0330454704639
-0.28  0.68  0.0258501435188
-0.28  0.7  0.0202215284141
-0.28  0.72  0.0158184890194
-0.28  0.74  0.0123741682494
-0.28  0.76  0.0096798145308
-0.28  0.78  0.00757212989689
-0.28  0.8  0.00592337291102
-0.28  0.82  0.0046336165809
-0.28  0.84  0.00362469203633
-0.28  0.86  0.00283545091158
-0.28  0.88  0.00221805929757
-0.28  0.9  0.00173509864954
-0.28  0.92  0.00135729794372
-0.28  0.94  0.00106175963454
-0.28  0.96  0.000830571892305
-0.28  0.98  0.000649723012484
-0.26  -1  0.000603006740648
-0.26  -0.98  0.000770852255544
-0.26  -0.96  0.000985417176662
-0.26  -0.94  0.00125970574138
-0.26  -0.92  0.00161034188609
-0.26  -0.9  0.00205857678101
-0.26  -0.88  0.00263157680982
-0.26  -0.86  0.00336407005552
-0.26  -0.84  0.00430045108173
-0.26  -0.82  0.00549747157494
-0.26  -0.8  0.00702767992075
-0.26  -0.78  0.00898381817811
-0.26  -0.76  0.011484442941
-0.26  -0.74  0.0146811107538
-0.26  -0.72  0.0187675635703
-0.26  -0.7  0.0239914709639
-0.26  -0.68  0.0306694407536
-0.26  -0.66  0.0392062078042
-0.26  -0.64  0.0501191639828
-0.26  -0.62  0.0640697159713
-0.26  -0.6  0.0819033714541
-0.26  -0.58  0.1047009832
-0.26  -0.56  0.133844256817
-0.26  -0.54  0.171099492433
-0.26  -0.52  0.218724635687
-0.26  -0.5  0.279606126096
-0.26  -0.48  0.357433836864
-0.26  -0.46  0.456924708767
-0.26  -0.44  0.584108632
-0.26  -0.42  0.746693902586
-0.26  -0.4  0.954534402703
-0.26  -0.38  1.22022681957
-0.26  -0.36  1.5598740988
-0.26  -0.34  1.99406140325
-0.26  -0.32  2.54910372766
-0.26  -0.3  3.25864078397
-0.26  -0.28  4.1656758192
-0.26  -0.26  5.32518193353
-0.26  -0.24  6.80743386092
-0.26  -0.22  8.70226714302
-0.26  -0.2  11.1245228342
-0.26  -0.18  10.0262604166
-0.26  -0.16  8.92352606254
-0.26  -0.14  7.81681161624
-0.26  -0.12  6.70661069709
-0.26  -0.1  5.59341847956
-0.26  -0.08  4.47773147225
-0.26  -0.06  3.36004729655
-0.26  -0.04  2.24086446459
-0.26  -0.02  1.12068215695
-0.26  6.17561557e-16  2.95206882838e-13
-0.26  0.02  1.12068215695
-0.26  0.04  2.24086446459
-0.26  0.06  3.36004729655
-0.26  0.08  4.47773147225
-0.26  0.1  5.59341847956
-0.26  0.12  6.7066106971
-0.26  0.14  7.81681161624
-0.26  0.16  8.92352606254
-0.26  0.18  10.0262604166
-0.26  0.2  11.1245228342
-0.26  0.22  8.70226714302
-0.26  0.24  6.80743386092
-0.26  0.26  5.32518193353
-0.26  0.28  4.1656758192
-0.26  0.3  3.25864078397
-0.26  0.32  2.54910372766
-0.26  0.34  1.99406140325
-0.26  0.36  1.5598740988
-0.26  0.38  1.22022681957
-0.26  0.4  0.954534402703
-0.26  0.42  0.746693902586
-0.26  0.44  0.584108632
-0.26  0.46  0.456924708767
-0.26  0.48  0.357433836864
-0.26  0.5  0.279606126096
-0.26  0.52  0.218724635687
-0.26  0.54  0.171099492433
-0.26  0.56  0.133844256817
-0.26  0.58  0.1047009832
-0.26  0.6  0.0819033714541
-0.26  0.62  0.0640697159713
-0.26  0.64  0.0501191639828
-0.26  0.66  0.0392062078042
-0.26  0.68  0.0306694407536
-0.26  0.7  0.0239914709639
-0.26  0.72  0.0187675635703
-0.26  0.74  0.0146811107538
-0.26  0.76  0.011484442941
-0.26  0.78  0.00898381817811
-0.26  0.8  0.00702767992075
-0.26  0.82  0.00549747157494
-0.26  0.84  0.00430045108173
-0.26  0.86  0.00336407005552
-0.26  0.88  0.00263157680982
-0.26  0.9  0.00205857678101
-0.26  0.92  0.00161034188609
-0.26  0.94  0.00125970574138
-0.26  0.96  0.000985417176662
-0.26  0.98  0.000770852255544
-0.24  -1  0.000715426569792
-0.24  -0.98  0.000914563881008
-0.24  -0.96  0.00116913059671
-0.24  -0.94  0.00149455536191
-0.24  -0.92  0.00191056134882
-0.24  -0.9  0.00244236162852
-0.24  -0.88  0.00312218727136
-0.24  -0.86  0.00399124079074
-0.24  -0.84  0.00510219332317
-0.24  -0.82  0.00652237689277
-0.24  -0.8  0.00833786523498
-0.24  -0.78  0.010658690508
-0.24  -0.76  0.0136255120638
-0.24  -0.74  0.0174181414557
-0.24  -0.72  0.0222664403619
-0.24  -0.7  0.0284642519211
-0.24  -0.68  0.0363872098216
-0.24  -0.66  0.0465155045097
-0.24  -0.64  0.0594629863184
-0.24  -0.62  0.0760143693845
-0.24  -0.6  0.0971727911878
-0.24  -0.58  0.124220610178
-0.24  -0.56  0.158797126277
-0.24  -0.54  0.202997934705
-0.24  -0.52  0.259501934705
-0.24  -0.5  0.331733690855
-0.24  -0.48  0.424070987268
-0.24  -0.46  0.542110154018
-0.24  -0.44  0.693005246557
-0.24  -0.42  0.885901634928
-0.24  -0.4  1.13249028152
-0.24  -0.38  1.44771630074
-0.24  -0.36  1.85068474461
-0.24  -0.34  2.36581851166
-0.24  -0.32  3.02433855709
-0.24  -0.3  3.86615611586
-0.24  -0.28  4.94229162181
-0.24  -0.26  6.31796692709
-0.24  -0.24  8.07655823378
-0.24  -0.22  10.3246493146
-0.24  -0.2  13.1984912861
-0.24  -0.18  11.8954774701
-0.24  -0.16  10.5871580051
-0.24  -0.14  9.27411643079
-0.24  -0.12  7.9569383931
-0.24  -0.1  6.63621138288
-0.24  -0.08  5.31252447395
-0.24  -0.06  3.98646806025
-0.24  -0.04  2.65863359263
-0.24  -0.02  1.32961331496
-0.24  6.17561557e-16  3.50242929857e-13
-0.24  0.02  1.32961331496
-0.24  0.04  2.65863359263
-0.24  0.06  3.98646806026
-0.24  0.08  5.31252447395
-0.24  0.1  6.63621138288
-0.24  0.12  7.9569383931
-0.24  0.14  9.27411643079
-0.24  0.16  10.5871580051
-0.24  0.18  11.8954774701
-0.24  0.2  13.1984912861
-0.24  0.22  10.3246493146
-0.24  0.24  8.07655823378
-0.24  0.26  6.31796692709
-0.24  0.28  4.94229162181
-0.24  0.3  3.86615611586
-0.24  0.32  3.02433855709
-0.24  0.34  2.36581851166
-0.24  0.36  1.85068474461
-0.24  0.38  1.44771630074
-0.24  0.4  1.13249028152
-0.24  0.42  0.885901634928
-0.24  0.44  0.693005246557
-0.24  0.46  0.542110154018
-0.24  0.48  0.424070987268
-0.24  0.5  0.331733690855
-0.24  0.52  0.259501934705
-0.24  0.54  0.202997934705
-0.24  0.56  0.158797126277
-0.24  0.58  0.124220610178
-0.24  0.6  0.0971727911878
-0.24  0.62  0.0760143693845
-0.24  0.64  0.0594629863184
-0.24  0.66  0.0465155045097
-0.24  0.68  0.0363872098216
-0.24  0.7  0.0284642519211
-0.24  0.72  0.0222664403619
-0.24  0.74  0.0174181414557
-0.24  0.76  0.0136255120638
-0.24  0.78  0.010658690508
-0.24  0.8  0.00833786523498
-0.24  0.82  0.00652237689277
-0.24  0.84  0.00510219332317
-0.24  0.86  0.00399124079074
-0.24  0.88  0.00312218727136
-0.24  0.9  0.00244236162852
-0.24  0.92  0.00191056134882
-0.24  0.94  0.00149455536191
-0.24  0.96  0.00116913059671
-0.24  0.98  0.000914563881008
-0.22  -1  0.000848805066781
-0.22  -0.98  0.00108506797046
-0.22  -0.96  0.00138709410038
-0.22  -0.94  0.00177318849667
-0.22  -0.92  0.0022667513645
-0.22  -0.9  0.00289769630138
-0.22  -0.88  0.00370426328469
-0.22  -0.86  0.0047353363
-0.22  -0.84  0.00605340607584
-0.22  -0.82  0.0077383574888
-0.22  -0.8  0.00989231118386
-0.22  -0.78  0.0126458128485
-0.22  -0.76  0.0161657452568
-0.22  -0.74  0.0206654426125
-0.22  -0.72  0.0264176201953
-0.22  -0.7  0.0337709029451
-0.22  -0.68  0.0431709547376
-0.22  -0.66  0.0551874889454
-0.22  -0.64  0.0705487973247
-0.22  -0.62  0.0901858899376
-0.22  -0.6  0.115288921318
-0.22  -0.58  0.147379322728
-0.22  -0.56  0.188402012262
-0.22  -0.54  0.240843271412
-0.22  -0.52  0.307881432306
-0.22  -0.5  0.393579508378
-0.22  -0.48  0.503131443346
-0.22  -0.46  0.643176903001
-0.22  -0.44  0.822203688568
-0.22  -0.42  1.05106216088
-0.22  -0.4  1.3436228533
-0.22  -0.38  1.71761712972
-0.22  -0.36  2.19571183762
-0.22  -0.34  2.80688308846
-0.22  -0.32  3.5881724265
-0.22  -0.3  4.58693182315
-0.22  -0.28  5.86369356022
-0.22  -0.26  7.49583893848
-0.22  -0.24  9.58228816268
-0.22  -0.22  12.249495645
-0.22  -0.2  15.6591140873
-0.22  -0.18  14.1131766344
-0.22  -0.16  12.560944389
-0.22  -0.14  11.0031096813
-0.22  -0.12  9.44036734068
-0.22  -0.1  7.87341438501
-0.22  -0.08  6.3029497104
-0.22  -0.06  4.72967377922
-0.22  -0.04  3.15428830774
-0.22  -0.02  1.57749595311
-0.22  6.17561557e-16  4.15539464173e-13
-0.22  0.02  1.57749595311
-0.22  0.04  3.15428830774
-0.22  0.06  4.72967377922
-0.22  0.08  6.3029497104
-0.22  0.1  7.87341438501
-0.22  0.12  9.44036734068
-0.22  0.14  11.0031096813
-0.22  0.16  12.560944389
-0.22  0.18  14.1131766344
-0.22  0.2  15.6591140873
-0.22  0.22  12.249495645
-0.22  0.24  9.58228816268
-0.22  0.26  7.49583893848
-0.22  0.28  5.86369356022
-0.22  0.3  4.58693182315
-0.22  0.32  3.5881724265
-0.22  0.34  2.80688308846
-0.22  0.36  2.19571183762
-0.22  0.38  1.71761712972
-0.22  0.4  1.3436228533
-0.22  0.42  1.05106216088
-0.22  0.44  0.822203688568
-0.22  0.46  0.643176903001
-0.22  0.48  0.503131443346
-0.22  0.5  0.393579508378
-0.22  0.52  0.307881432306
-0.22  0.54  0.240843271412
-0.22  0.56  0.188402012262
-0.22  0.58  0.147379322728
-0.22  0.6  0.115288921318
-0.22  0.62  0.0901858899376
-0.22  0.64  0.0705487973247
-0.22  0.66  0.0551874889454
-0.22  0.68  0.0431709547376
-0.22  0.7  0.0337709029451
-0.22  0.72  0.0264176201953
-0.22  0.74  0.0206654426125
-0.22  0.76  0.0161657452568
-0.22  0.78  0.0126458128485
-0.22  0.8  0.00989231118386
-0.22  0.82  0.0077383574888
-0.22  0.84  0.00605340607584
-0.22  0.86  0.0047353363
-0.22  0.88  0.00370426328469
-0.22  0.9  0.00289769630138
-0.22  0.92  0.0022667513645
-0.22  0.94  0.00177318849667
-0.22  0.96  0.00138709410038
-0.22  0.98  0.00108506797046
-0.2  -1  0.00100704960063
-0.2  -0.98  0.00128735949993
-0.2  -0.96  0.00164569300362
-0.2  -0.94  0.00210376779936
-0.2  -0.92  0.00268934664235
-0.2  -0.9  0.00343791998572
-0.2  -0.88  0.00439485696715
-0.2  -0.86  0.0056181551176
-0.2  -0.84  0.00718195544506
-0.2  -0.82  0.00918103593352
-0.2  -0.8  0.011736555797
-0.2  -0.78  0.0150033986332
-0.2  -0.76  0.0191795595267
-0.2  -0.74  0.0245181450303
-0.2  -0.72  0.0313427133138
-0.2  -0.7  0.0400668842057
-0.2  -0.68  0.0512194076461
-0.2  -0.66  0.0654762098833
-0.2  -0.64  0.0837013596544
-0.2  -0.62  0.106999437208
-0.2  -0.6  0.136782480118
-0.2  -0.58  0.174855563313
-0.2  -0.56  0.223526200105
-0.2  -0.54  0.285744194731
-0.2  -0.52  0.365280422538
-0.2  -0.5  0.466955373197
-0.2  -0.48  0.596931308398
-0.2  -0.46  0.763085740948
-0.2  -0.44  0.975488870906
-0.2  -0.42  1.24701391495
-0.2  -0.4  1.59411731949
-0.2  -0.38  2.03783614427
-0.2  -0.36  2.60506306538
-0.2  -0.34  3.33017627237
-0.2  -0.32  4.25712304337
-0.2  -0.3  5.44208327851
-0.2  -0.28  6.95687442166
-0.2  -0.26  8.89330413407
-0.2  -0.24  11.3687345246
-0.2  -0.22  14.5331951706
-0.2  -0.2  18.5784760307
-0.2  -0.18  16.7443261705
-0.2  -0.16  14.9027079662
-0.2  -0.14  13.0544428208
-0.2  -0.12  11.2003551019
-0.2  -0.1  9.34127177413
-0.2  -0.08  7.47802203013
-0.2  -0.06  5.61143692104
-0.2  -0.04  3.74234898555
-0.2  -0.02  1.8715918787
-0.2  6.17561557e-16  4.93009370256e-13
-0.2  0.02  1.8715918787
-0.2  0.04  3.74234898555
-0.2  0.06  5.61143692104
-0.2  0.08  7.47802203014
-0.2  0.1  9.34127177413
-0.2  0.12  11.2003551019
-0.2  0.14  13.0544428208
-0.2  0.16  14.9027079662
-0.2  0.18  16.7443261705
-0.2  0.2  18.5784760307
-0.2  0.22  14.5331951706
-0.2  0.24  11.3687345246
-0.2  0.26  8.89330413407
-0.2  0.28  6.95687442166
-0.2  0.3  5.44208327851
-0.2  0.32  4.25712304337
-0.2  0.34  3.33017627237
-0.2  0.36  2.60506306538
-0.2  0.38  2.03783614427
-0.2  0.4  1.59411731949
-0.2  0.42  1.24701391495
-0.2  0.44  0.975488870906
-0.2  0.46  0.763085740948
-0.2  0.48  0.596931308398
-0.2  0.5  0.466955373197
-0.2  0.52  0.365280422538
-0.2  0.54  0.285744194731
-0.2  0.56  0.223526200105
-0.2  0.58  0.174855563313
-0.2  0.6  0.136782480118
-0.2  0.62  0.106999437208
-0.2  0.64  0.0837013596544
-0.2  0.66  0.0654762098833
-0.2  0.68  0.0512194076461
-0.2  0.7  0.0400668842057
-0.2  0.72  0.0313427133138
-0.2  0.74  0.0245181450303
-0.2  0.76  0.0191795595267
-0.2  0.78  0.0150033986332
-0.2  0.8  0.011736555797
-0.2  0.82  0.00918103593352
-0.2  0.84  0.00718195544506
-0.2  0.86  0.0056181551176
-0.2  0.88  0.00439485696715
-0.2  0.9  0.00343791998572
-0.2  0.92  0.00268934664235
-0.2  0.94  0.00210376779936
-0.2  0.96  0.00164569300362
-0.2  0.98  0.00128735949993
-0.18  -1  0.00119479599949
-0.18  -0.98  0.00152736466948
-0.18  -0.96  0.00195250305037
-0.18  -0.94  0.00249597770452
-0.18  -0.92  0.00319072725664
-0.18  -0.9  0.00407885872049
-0.18  -0.88  0.00521419949859
-0.18  -0.86  0.00666555972497
-0.18  -0.84  0.00852090267339
-0.18  -0.82  0.010892675989
-0.18  -0.8  0.0139246268558
-0.18  -0.78  0.0178005141499
-0.18  -0.76  0.0227552456007
-0.18  -0.74  0.029089114954
-0.18  -0.72  0.0371860020171
-0.18  -0.7  0.0475366386432
-0.18  -0.68  0.060768350748
-0.18  -0.66  0.0776830789478
-0.18  -0.64  0.0993059821524
-0.18  -0.62  0.126947569855
-0.18  -0.6  0.162283128797
-0.18  -0.58  0.207454257868
-0.18  -0.56  0.26519866499
-0.18  -0.54  0.339016092681
-0.18  -0.52  0.433380428597
-0.18  -0.5  0.554010856552
-0.18  -0.48  0.708218481787
-0.18  -0.46  0.905349438577
-0.18  -0.44  1.1573513358
-0.18  -0.42  1.47949737129
-0.18  -0.4  1.89131200176
-0.18  -0.38  2.41775427075
-0.18  -0.36  3.09073051316
-0.18  -0.34  3.95102811751
-0.18  -0.32  5.05078754647
-0.18  -0.3  6.45666243844
-0.18  -0.28  8.25385931609
-0.18  -0.26  10.5513017382
-0.18  -0.24  13.4882318813
-0.18  -0.22  17.2426496557
-0.18  -0.2  22.0421008302
-0.18  -0.18  19.8660065106
-0.18  -0.16  17.6810515077
-0.18  -0.14  15.4882103604
-0.18  -0.12  13.2884611247
-0.18  -0.1  11.0827849382
-0.18  -0.08  8.8721655816
-0.18  -0.06  6.65758904073
-0.18  -0.04  4.44004306622
-0.18  -0.02  2.22051673318
-0.18  6.17561557e-16  5.84922155694e-13
-0.18  0.02  2.22051673318
-0.18  0.04  4.44004306622
-0.18  0.06  6.65758904073
-0.18  0.08  8.87216558161
-0.18  0.1  11.0827849382
-0.18  0.12  13.2884611247
-0.18  0.14  15.4882103604
-0.18  0.16  17.6810515077
-0.18  0.18  19.8660065106
-0.18  0.2  22.0421008302
-0.18  0.22  17.2426496557
-0.18  0.24  13.4882318813
-0.18  0.26  10.5513017382
-0.18  0.28  8.25385931609
-0.18  0.3  6.45666243844
-0.18  0.32  5.05078754647
-0.18  0.34  3.95102811751
-0.18  0.36  3.09073051316
-0.18  0.38  2.41775427075
-0.18  0.4  1.89131200176
-0.18  0.42  1.47949737129
-0.18  0.44  1.1573513358
-0.18  0.46  0.905349438577
-0.18  0.48  0.708218481787
-0.18  0.5  0.554010856552
-0.18  0.52  0.433380428597
-0.18  0.54  0.339016092681
-0.18  0.56  0.26519866499
-0.18  0.58  0.207454257868
-0.18  0.6  0.162283128797
-0.18  0.62  0.126947569855
-0.18  0.64  0.0993059821524
-0.18  0.66  0.0776830789478
-0.18  0.68  0.060768350748
-0.18  0.7  0.0475366386432
-0.18  0.72  0.0371860020171
-0.18  0.74  0.029089114954
-0.18  0.76  0.0227552456007
-0.18  0.78  0.0178005141499
-0.18  0.8  0.0139246268558
-0.18  0.82  0.010892675989
-0.18  0.84  0.00852090267339
-0.18  0.86  0.00666555972497
-0.18  0.88  0.00521419949859
-0.18  0.9  0.00407885872049
-0.18  0.92  0.00319072725664
-0.18  0.94  0.00249597770452
-0.18  0.96  0.00195250305037
-0.18  0.98  0.00152736466948
-0.16  -1  0.00141754435879
-0.16  -0.98  0.00181211451324
-0.16  -0.96  0.00231651234667
-0.16  -0.94  0.00296130813647
-0.16  -0.92  0.00378558132519
-0.16  -0.9  0.00483928902674
-0.16  -0.88  0.00618629380077
-0.16  -0.86  0.00790823420093
-0.16  -0.84  0.0101094726812
-0.16  -0.82  0.0129234207404
-0.16  -0.8  0.0165206246556
-0.16  -0.78  0.0211191018613
-0.16  -0.76  0.0269975544343
-0.16  -0.74  0.0345122605221
-0.16  -0.72  0.044118667461
-0.16  -0.7  0.0563989952872
-0.16  -0.68  0.0720975236212
-0.16  -0.66  0.0921657005738
-0.16  -0.64  0.117819807611
-0.16  -0.62  0.150614675297
-0.16  -0.6  0.192537917646
-0.16  -0.58  0.246130396379
-0.16  -0.56  0.314640216133
-0.16  -0.54  0.402219583865
-0.16  -0.52  0.514176463622
-0.16  -0.5  0.657296278819
-0.16  -0.48  0.840253159599
-0.16  -0.46  1.07413565992
-0.16  -0.44  1.3731188068
-0.16  -0.42  1.75532321284
-0.16  -0.4  2.24391332072
-0.16  -0.38  2.86850134157
-0.16  -0.36  3.66694197615
-0.16  -0.34  4.68762669257
-0.16  -0.32  5.99241661086
-0.16  -0.3  7.66039174899
-0.16  -0.28  9.79264386285
-0.16  -0.26  12.518403362
-0.16  -0.24  16.0028716379
-0.16  -0.22  20.457233503
-0.16  -0.2  26.1514565675
-0.16  -0.18  23.5696683557
-0.16  -0.16  20.9773675447
-0.16  -0.14  18.3757103585
-0.16  -0.12  15.7658571943
-0.16  -0.1  13.1489721053
-0.16  -0.08  10.5262222805
-0.16  -0.06  7.89877752508
-0.16  -0.04  5.26780973822
-0.16  -0.02  2.63449239038
-0.16  6.17561557e-16  6.93970437203e-13
-0.16  0.02  2.63449239038
-0.16  0.04  5.26780973822
-0.16  0.06  7.89877752508
-0.16  0.08  10.5262222805
-0.16  0.1  13.1489721053
-0.16  0.12  15.7658571943
-0.16  0.14  18.3757103585
-0.16  0.16  20.9773675447
-0.16  0.18  23.5696683557
-0.16  0.2  26.1514565675
-0.16  0.22  20.457233503
-0.16  0.24  16.0028716379
-0.16  0.26  12.518403362
-0.16  0.28  9.79264386285
-0.16  0.3  7.66039174899
-0.16  0.32  5.99241661086
-0.16  0.34  4.68762669257
-0.16  0.36  3.66694197615
-0.16  0.38  2.86850134157
-0.16  0.4  2.24391332072
-0.16  0.42  1.75532321284
-0.16  0.44  1.3731188068
-0.16  0.46  1.07413565992
-0.16  0.48  0.840253159599
-0.16  0.5  0.657296278819
-0.16  0.52  0.514176463622
-0.16  0.54  0.402219583865
-0.16  0.56  0.314640216133
-0.16  0.58  0.246130396379
-0.16  0.6  0.192537917646
-0.16  0.62  0.150614675297
-0.16  0.64  0.117819807611
-0.16  0.66  0.0921657005738
-0.16  0.68  0.0720975236212
-0.16  0.7  0.0563989952872
-0.16  0.72  0.044118667461
-0.16  0.74  0.0345122605221
-0.16  0.76  0.0269975544343
-0.16  0.78  0.0211191018613
-0.16  0.8  0.0165206246556
-0.16  0.82  0.0129234207404
-0.16  0.84  0.0101094726812
-0.16  0.86  0.00790823420093
-0.16  0.88  0.00618629380077
-0.16  0.9  0.00483928902674
-0.16  0.92  0.00378558132519
-0.16  0.94  0.00296130813647
-0.16  0.96  0.00231651234667
-0.16  0.98  0.00181211451324
-0.14  -1  0.00168182016846
-0.14  -0.98  0.00214995087598
-0.14  -0.96  0.00274838467026
-0.14  -0.94  0.00351339111051
-0.14  -0.92  0.00449133530288
-0.14  -0.9  0.00574148797228
-0.14  -0.88  0.00733961771117
-0.14  -0.86  0.00938258312239
-0.14  -0.84  0.0119942031742
-0.14  -0.82  0.0153327615548
-0.14  -0.8  0.0196005998466
-0.14  -0.78  0.0250563809378
-0.14  -0.76  0.0320307659263
-0.14  -0.74  0.0409464546525
-0.14  -0.72  0.0523438044682
-0.14  -0.7  0.066913579929
-0.14  -0.68  0.0855388182882
-0.14  -0.66  0.109348348151
-0.14  -0.64  0.139785204925
-0.14  -0.62  0.178694089543
-0.14  -0.6  0.228433171126
-0.14  -0.58  0.292017009651
-0.14  -0.56  0.373299260809
-0.14  -0.54  0.477206236333
-0.14  -0.52  0.610035475295
-0.14  -0.5  0.779837422029
-0.14  -0.48  0.996903343208
-0.14  -0.46  1.2743890555
-0.14  -0.44  1.62911226633
-0.14  -0.42  2.08257185266
-0.14  -0.4  2.6622508535
-0.14  -0.38  3.40328214746
-0.14  -0.36  4.35057776768
-0.14  -0.34  5.5615509066
-0.14  -0.32  7.10959558441
-0.14  -0.3  9.08853487502
-0.14  -0.28  11.6183072854
-0.14  -0.26  14.8522359251
-0.14  -0.24  18.9863210326
-0.14  -0.22  24.2711190537
-0.14  -0.2  31.0269282347
-0.14  -0.18  27.9638117557
-0.14  -0.16  24.8882227911
-0.14  -0.14  21.8015331224
-0.14  -0.12  18.7051194822
-0.14  -0.1  15.6003629403
-0.14  -0.08  12.4886482876
-0.14  -0.06  9.37136341834
-0.14  -0.04  6.24989871139
-0.14  -0.02  3.1256464098
-0.14  6.17561557e-16  8.2334882176e-13
-0.14  0.02  3.1256464098
-0.14  0.04  6.24989871139
-0.14  0.06  9.37136341834
-0.14  0.08  12.4886482876
-0.14  0.1  15.6003629403
-0.14  0.12  18.7051194822
-0.14  0.14  21.8015331224
-0.14  0.16  24.8882227911
-0.14  0.18  27.9638117557
-0.14  0.2  31.0269282347
-0.14  0.22  24.2711190537
-0.14  0.24  18.9863210326
-0.14  0.26  14.8522359251
-0.14  0.28  11.6183072854
-0.14  0.3  9.08853487502
-0.14  0.32  7.10959558441
-0.14  0.34  5.5615509066
-0.14  0.36  4.35057776768
-0.14  0.38  3.40328214746
-0.14  0.4  2.6622508535
-0.14  0.42  2.08257185266
-0.14  0.44  1.62911226633
-0.14  0.46  1.2743890555
-0.14  0.48  0.996903343208
-0.14  0.5  0.779837422029
-0.14  0.52  0.610035475295
-0.14  0.54  0.477206236333
-0.14  0.56  0.373299260809
-0.14  0.58  0.292017009651
-0.14  0.6  0.228433171126
-0.14  0.62  0.178694089543
-0.14  0.64  0.139785204925
-0.14  0.66  0.109348348151
-0.14  0.68  0.0855388182882
-0.14  0.7  0.066913579929
-0.14  0.72  0.0523438044682
-0.14  0.74  0.0409464546525
-0.14  0.76  0.0320307659263
-0.14  0.78  0.0250563809378
-0.14  0.8  0.0196005998466
-0.14  0.82  0.0153327615548
-0.14  0.84  0.0119942031742
-0.14  0.86  0.00938258312239
-0.14  0.88  0.00733961771117
-0.14  0.9  0.00574148797228
-0.14  0.92  0.00449133530288
-0.14  0.94  0.00351339111051
-0.14  0.96  0.00274838467026
-0.14  0.98  0.00214995087598
-0.12  -1  0.00199536547939
-0.12  -0.98  0.00255077079034
-0.12  -0.96  0.00326077186965
-0.12  -0.94  0.00416840008759
-0.12  -0.92  0.00532866449565
-0.12  -0.9  0.00681188578605
-0.12  -0.88  0.0087079582511
-0.12  -0.86  0.0111317980489
-0.12  -0.84  0.0142303079814
-0.12  -0.82  0.0181912809014
-0.12  -0.8  0.0232547813629
-0.12  -0.78  0.0297276953264
-0.12  -0.76  0.0380023297416
-0.12  -0.74  0.0485801892791
-0.12  -0.72  0.0621023712609
-0.12  -0.7  0.0793884209482
-0.12  -0.68  0.101486002107
-0.12  -0.66  0.129734393261
-0.12  -0.64  0.165845657977
-0.12  -0.62  0.212008408706
-0.12  -0.6  0.271020453055
-0.12  -0.58  0.346458361827
-0.12  -0.56  0.442894235942
-0.12  -0.54  0.566172809903
-0.12  -0.52  0.723765686388
-0.12  -0.5  0.92522417119
-0.12  -0.48  1.18275815371
-0.12  -0.46  1.51197611751
-0.12  -0.44  1.93283113097
-0.12  -0.42  2.4708301524
-0.12  -0.4  3.15857994224
-0.12  -0.38  4.03776327637
-0.12  -0.36  5.16166523379
-0.12  -0.34  6.59840267052
-0.12  -0.32  8.43505261002
-0.12  -0.3  10.7829297614
-0.12  -0.28  13.7843330226
-0.12  -0.26  17.6211698566
-0.12  -0.24  22.5259812431
-0.12  -0.22  28.7960353992
-0.12  -0.2  36.8113444542
-0.12  -0.18  33.1771646553
-0.12  -0.16  29.5281870988
-0.12  -0.14  25.8660393103
-0.12  -0.12  22.1923546897
-0.12  -0.1  18.5087717824
-0.12  -0.08  14.8169335489
-0.12  -0.06  11.1184866316
-0.12  -0.04  7.41508062055
-0.12  -0.02  3.70836731766
-0.12  6.17561557e-16  9.76847493714e-13
-0.12  0.02  3.70836731766
-0.12  0.04  7.41508062055
-0.12  0.06  11.1184866316
-0.12  0.08  14.8169335489
-0.12  0.1  18.5087717824
-0.12  0.12  22.1923546897
-0.12  0.14  25.8660393103
-0.12  0.16  29.5281870988
-0.12  0.18  33.1771646553
-0.12  0.2  36.8113444542
-0.12  0.22  28.7960353992
-0.12  0.24  22.5259812431
-0.12  0.26  17.6211698566
-0.12  0.28  13.7843330226
-0.12  0.3  10.7829297614
-0.12  0.32  8.43505261002
-0.12  0.34  6.59840267052
-0.12  0.36  5.16166523379
-0.12  0.38  4.03776327637
-0.12  0.4  3.15857994224
-0.12  0.42  2.4708301524
-0.12  0.44  1.93283113097
-0.12  0.46  1.51197611751
-0.12  0.48  1.18275815371
-0.12  0.5  0.92522417119
-0.12  0.52  0.723765686388
-0.12  0.54  0.566172809903
-0.12  0.56  0.442894235942
-0.12  0.58  0.346458361827
-0.12  0.6  0.271020453055
-0.12  0.62  0.212008408706
-0.12  0.64  0.165845657977
-0.12  0.66  0.129734393261
-0.12  0.68  0.101486002107
-0.12  0.7  0.0793884209482
-0.12  0.72  0.0621023712609
-0.12  0.74  0.0485801892791
-0.12  0.76  0.0380023297416
-0.12  0.78  0.0297276953264
-0.12  0.8  0.0232547813629
-0.12  0.82  0.0181912809014
-0.12  0.84  0.0142303079814
-0.12  0.86  0.0111317980489
-0.12  0.88  0.0087079582511
-0.12  0.9  0.00681188578605
-0.12  0.92  0.00532866449565
-0.12  0.94  0.00416840008759
-0.12  0.96  0.00326077186965
-0.12  0.98  0.00255077079034
-0.1  -1  0.00236736570949
-0.1  -0.98  0.00302631641381
-0.1  -0.96  0.00386868450438
-0.1  -0.94  0.00494552378135
-0.1  -0.92  0.00632209875068
-0.1  -0.9  0.00808184014079
-0.1  -0.88  0.0103314014281
-0.1  -0.86  0.0132071228345
-0.1  -0.84  0.0168832945637
-0.1  -0.82  0.0215827200894
-0.1  -0.8  0.027590219711
-0.1  -0.78  0.0352698927915
-0.1  -0.76  0.0450871848993
-0.1  -0.74  0.0576370972876
-0.1  -0.72  0.0736802484156
-0.1  -0.7  0.0941889731103
-0.1  -0.68  0.120406253322
-0.1  -0.66  0.153921052119
-0.1  -0.64  0.196764616717
-0.1  -0.62  0.251533587244
-0.1  -0.6  0.321547372529
-0.1  -0.58  0.411049331077
-0.1  -0.56  0.525463950304
-0.1  -0.54  0.671725611
-0.1  -0.52  0.85869886262
-0.1  -0.5  1.09771568121
-0.1  -0.48  1.40326227182
-0.1  -0.46  1.79385704079
-0.1  -0.44  2.2931729495
-0.1  -0.42  2.93147227272
-0.1  -0.4  3.7474407186
-0.1  -0.38  4.79053207157
-0.1  -0.36  6.12396546125
-0.1  -0.34  7.82855691399
-0.1  -0.32  10.0076174079
-0.1  -0.3  12.7932142902
-0.1  -0.28  16.3541755448
-0.1  -0.26  20.90632203
-0.1  -0.24  26.725547835
-0.1  -0.22  34.1645415226
-0.1  -0.2  43.6741616918
-0.1  -0.18  39.3624540237
-0.1  -0.16  35.0331898207
-0.1  -0.14  30.6883000313
-0.1  -0.12  26.3297225735
-0.1  -0.1  21.9594014706
-0.1  -0.08  17.5792859834
-0.1  -0.06  13.1913297413
-0.1  -0.04  8.79748987117
-0.1  -0.02  4.39972612372
-0.1  6.17561557e-16  1.15896324954e-12
-0.1  0.02  4.39972612372
-0.1  0.04  8.79748987117
-0.1  0.06  13.1913297413
-0.1  0.08  17.5792859834
-0.1  0.1  21.9594014706
-0.1  0.12  26.3297225736
-0.1  0.14  30.6883000313
-0.1  0.16  35.0331898207
-0.1  0.18  39.3624540237
-0.1  0.2  43.6741616918
-0.1  0.22  34.1645415226
-0.1  0.24  26.725547835
-0.1  0.26  20.90632203
-0.1  0.28  16.3541755448
-0.1  0.3  12.7932142902
-0.1  0.32  10.0076174079
-0.1  0.34  7.82855691399
-0.1  0.36  6.12396546125
-0.1  0.38  4.79053207157
-0.1  0.4  3.7474407186
-0.1  0.42  2.93147227272
-0.1  0.44  2.2931729495
-0.1  0.46  1.79385704079
-0.1  0.48  1.40326227182
-0.1  0.5  1.09771568121
-0.1  0.52  0.85869886262
-0.1  0.54  0.671725611
-0.1  0.56  0.525463950304
-0.1  0.58  0.411049331077
-0.1  0.6  0.321547372529
-0.1  0.62  0.251533587244
-0.1  0.64  0.196764616717
-0.1  0.66  0.153921052119
-0.1  0.68  0.120406253322
-0.1  0.7  0.0941889731103
-0.1  0.72  0.0736802484156
-0.1  0.74  0.0576370972876
-0.1  0.76  0.0450871848993
-0.1  0.78  0.0352698927915
-0.1  0.8  0.027590219711
-0.1  0.82  0.0215827200894
-0.1  0.84  0.0168832945637
-0.1  0.86  0.0132071228345
-0.1  0.88  0.0103314014281
-0.1  0.9  0.00808184014079
-0.1  0.92  0.00632209875068
-0.1  0.94  0.00494552378135
-0.1  0.96  0.00386868450438
-0.1  0.98  0.00302631641381
-0.08  -1  0.00280871873367
-0.08  -0.98  0.00359051901926
-0.08  -0.96  0.00458993158452
-0.08  -0.94  0.00586752829814
-0.08  -0.92  0.00750074106672
-0.08  -0.9  0.00958855478684
-0.08  -0.88  0.0122575065693
-0.08  -0.86  0.0156693548337
-0.08  -0.84  0.0200308830769
-0.08  -0.82  0.0256064324982
-0.08  -0.8  0.0327339230511
-0.08  -0.78  0.0418453339173
-0.08  -0.76  0.0534928846724
-0.08  -0.74  0.0683825039186
-0.08  -0.72  0.0874166138322
-0.08  -0.7  0.11174882369
-0.08  -0.68  0.142853847211
-0.08  -0.66  0.182616881227
-0.08  -0.64  0.233447862694
-0.08  -0.62  0.29842752888
-0.08  -0.6  0.381494133062
-0.08  -0.58  0.487682132097
-0.08  -0.56  0.623427312125
-0.08  -0.54  0.796956845297
-0.08  -0.52  1.01878791787
-0.08  -0.5  1.3023651503
-0.08  -0.48  1.66487544164
-0.08  -0.46  2.12828962411
-0.08  -0.44  2.72069405963
-0.08  -0.42  3.47799288323
-0.08  -0.4  4.44608406189
-0.08  -0.38  5.68364115427
-0.08  -0.36  7.26566936676
-0.08  -0.34  9.28805142939
-0.08  -0.32  11.8733588057
-0.08  -0.3  15.1782804391
-0.08  -0.28  19.403119274
-0.08  -0.26  24.80393211
-0.08  -0.24  31.7080485582
-0.08  -0.22  40.5339096604
-0.08  -0.2  51.816428543
-0.08  -0.18  46.7008800442
-0.08  -0.16  41.5645019082
-0.08  -0.14  36.4095850745
-0.08  -0.12  31.2384287515
-0.08  -0.1  26.0533393904
-0.08  -0.08  20.8566296572
-0.08  -0.06  15.6506174006
-0.08  -0.04  10.4376246185
-0.08  -0.02  5.21997642238
-0.08  6.17561557e-16  1.37503123306e-12
-0.08  0.02  5.21997642238
-0.08  0.04  10.4376246185
-0.08  0.06  15.6506174006
-0.08  0.08  20.8566296572
-0.08  0.1  26.0533393904
-0.08  0.12  31.2384287515
-0.08  0.14  36.4095850745
-0.08  0.16  41.5645019082
-0.08  0.18  46.7008800442
-0.08  0.2  51.816428543
-0.08  0.22  40.5339096604
-0.08  0.24  31.7080485582
-0.08  0.26  24.80393211
-0.08  0.28  19.403119274
-0.08  0.3  15.1782804391
-0.08  0.32  11.8733588057
-0.08  0.34  9.28805142939
-0.08  0.36  7.26566936676
-0.08  0.38  5.68364115427
-0.08  0.4  4.44608406189
-0.08  0.42  3.47799288323
-0.08  0.44  2.72069405963
-0.08  0.46  2.12828962411
-0.08  0.48  1.66487544164
-0.08  0.5  1.3023651503
-0.08  0.52  1.01878791787
-0.08  0.54  0.796956845297
-0.08  0.56  0.623427312125
-0.08  0.58  0.487682132097
-0.08  0.6  0.381494133062
-0.08  0.62  0.29842752888
-0.08  0.64  0.233447862694
-0.08  0.66  0.182616881227
-0.08  0.68  0.142853847211
-0.08  0.7  0.11174882369
-0.08  0.72  0.0874166138322
-0.08  0.74  0.0683825039186
-0.08  0.76  0.0534928846724
-0.08  0.78  0.0418453339173
-0.08  0.8  0.0327339230511
-0.08  0.82  0.0256064324982
-0.08  0.84  0.0200308830769
-0.08  0.86  0.0156693548337
-0.08  0.88  0.0122575065693
-0.08  0.9  0.00958855478684
-0.08  0.92  0.00750074106672
-0.08  0.94  0.00586752829814
-0.08  0.96  0.00458993158452
-0.08  0.98  0.00359051901926
-0.06  -1  0.00333235414082
-0.06  -0.98  0.00425990711641
-0.06  -0.96  0.00544564229177
-0.06  -0.94  0.00696142407792
-0.06  -0.92  0.0088991201765
-0.06  -0.9  0.0113761694489
-0.06  -0.88  0.0145426995886
-0.06  -0.86  0.0185906259812
-0.06  -0.84  0.0237652832109
-0.06  -0.82  0.0303802941691
-0.06  -0.8  0.0388365779447
-0.06  -0.78  0.0496466485169
-0.06  -0.76  0.0634656769315
-0.06  -0.74  0.0811311995613
-0.06  -0.72  0.103713879068
-0.06  -0.7  0.13258239456
-0.06  -0.68  0.169486393771
-0.06  -0.66  0.216662534787
-0.06  -0.64  0.276970044237
-0.06  -0.62  0.354064007791
-0.06  -0.6  0.452616895657
-0.06  -0.58  0.578601749195
-0.06  -0.56  0.739654191841
-0.06  -0.54  0.945535204948
-0.06  -0.52  1.20872271618
-0.06  -0.5  1.54516785516
-0.06  -0.48  1.97526171112
-0.06  -0.46  2.52507118522
-0.06  -0.44  3.22791883959
-0.06  -0.42  4.12640249351
-0.06  -0.4  5.27497696956
-0.06  -0.38  6.74325446273
-0.06  -0.36  8.62022355956
-0.06  -0.34  11.0196426114
-0.06  -0.32  14.0869343403
-0.06  -0.3  18.0079995428
-0.06  -0.28  23.0204840671
-0.06  -0.26  29.4281819268
-0.06  -0.24  37.6194474882
-0.06  -0.22  48.0907326466
-0.06  -0.2  61.4766755204
-0.06  -0.18  55.4074244351
-0.06  -0.16  49.313460399
-0.06  -0.14  43.1975014565
-0.06  -0.12  37.0622754621
-0.06  -0.1  30.9105188637
-0.06  -0.08  24.7449754824
-0.06  -0.06  18.5683952886
-0.06  -0.04  12.3835331751
-0.06  -0.02  6.19314772874
-0.06  6.17561557e-16  1.63138123028e-12
-0.06  0.02  6.19314772875
-0.06  0.04  12.3835331751
-0.06  0.06  18.5683952886
-0.06  0.08  24.7449754824
-0.06  0.1  30.9105188637
-0.06  0.12  37.0622754621
-0.06  0.14  43.1975014565
-0.06  0.16  49.313460399
-0.06  0.18  55.4074244351
-0.06  0.2  61.4766755204
-0.06  0.22  48.0907326466
-0.06  0.24  37.6194474882
-0.06  0.26  29.4281819268
-0.06  0.28  23.0204840671
-0.06  0.3  18.0079995428
-0.06  0.32  14.0869343403
-0.06  0.34  11.0196426114
-0.06  0.36  8.62022355956
-0.06  0.38  6.74325446273
-0.06  0.4  5.27497696956
-0.06  0.42  4.12640249351
-0.06  0.44  3.22791883959
-0.06  0.46  2.52507118522
-0.06  0.48  1.97526171112
-0.06  0.5  1.54516785516
-0.06  0.52  1.20872271618
-0.06  0.54  0.945535204948
-0.06  0.56  0.739654191841
-0.06  0.58  0.578601749195
-0.06  0.6  0.452616895657
-0.06  0.62  0.354064007791
-0.06  0.64  0.276970044237
-0.06  0.66  0.216662534787
-0.06  0.68  0.169486393771
-0.06  0.7  0.13258239456
-0.06  0.72  0.103713879068
-0.06  0.74  0.0811311995613
-0.06  0.76  0.0634656769315
-0.06  0.78  0.0496466485169
-0.06  0.8  0.0388365779447
-0.06  0.82  0.0303802941691
-0.06  0.84  0.0237652832109
-0.06  0.86  0.0185906259812
-0.06  0.88  0.0145426995886
-0.06  0.9  0.0113761694489
-0.06  0.92  0.0088991201765
-0.06  0.94  0.00696142407792
-0.06  0.96  0.00544564229177
-0.06  0.98  0.00425990711641
-0.04  -1  0.00395361201061
-0.04  -0.98  0.00505409066017
-0.04  -0.96  0.00646088496611
-0.04  -0.94  0.00825925717445
-0.04  -0.92  0.0105582020778
-0.04  -0.9  0.0134970529143
-0.04  -0.88  0.0172539260025
-0.04  -0.86  0.0220565159218
-0.04  -0.84  0.0281958955044
-0.04  -0.82  0.0360441570244
-0.04  -0.8  0.0460769637692
-0.04  -0.78  0.0589023787893
-0.04  -0.76  0.0752977180618
-0.04  -0.74  0.0962566616468
-0.04  -0.72  0.123049478123
-0.04  -0.7  0.157300012356
-0.04  -0.68  0.201084102629
-0.04  -0.66  0.257055391949
-0.04  -0.64  0.328606158649
-0.04  -0.62  0.420072913793
-0.04  -0.6  0.536999226149
-0.04  -0.58  0.686471703878
-0.04  -0.56  0.877549495936
-0.04  -0.54  1.12181334419
-0.04  -0.52  1.43406746289
-0.04  -0.5  1.83323678469
-0.04  -0.48  2.34351395294
-0.04  -0.46  2.99582557665
-0.04  -0.44  3.82970661405
-0.04  -0.42  4.89569648648
-0.04  -0.4  6.25840214491
-0.04  -0.38  8.00041373389
-0.04  -0.36  10.2273101714
-0.04  -0.34  13.0740580202
-0.04  -0.32  16.7131914697
-0.04  -0.3  21.3652691974
-0.04  -0.28  27.3122418721
-0.04  -0.26  34.9145404718
-0.04  -0.24  44.6329210931
-0.04  -0.22  57.0563902142
-0.04  -0.2  72.9379028874
-0.04  -0.18  65.737148414
-0.04  -0.16  58.507073702
-0.04  -0.14  51.2509035263
-0.04  -0.12  43.9718743012
-0.04  -0.1  36.6732326365
-0.04  -0.08  29.3582338897
-0.04  -0.06  22.0301407138
-0.04  -0.04  14.6922216024
-0.04  -0.02  7.34774943151
-0.04  6.17561557e-16  1.93552310269e-12
-0.04  0.02  7.34774943152
-0.04  0.04  14.6922216024
-0.04  0.06  22.0301407138
-0.04  0.08  29.3582338897
-0.04  0.1  36.6732326365
-0.04  0.12  43.9718743012
-0.04  0.14  51.2509035263
-0.04  0.16  58.507073702
-0.04  0.18  65.737148414
-0.04  0.2  72.9379028874
-0.04  0.22  57.0563902142
-0.04  0.24  44.6329210931
-0.04  0.26  34.9145404718
-0.04  0.28  27.3122418721
-0.04  0.3  21.3652691974
-0.04  0.32  16.7131914697
-0.04  0.34  13.0740580202
-0.04  0.36  10.2273101714
-0.04  0.38  8.00041373389
-0.04  0.4  6.25840214491
-0.04  0.42  4.89569648648
-0.04  0.44  3.82970661405
-0.04  0.46  2.99582557665
-0.04  0.48  2.34351395294
-0.04  0.5  1.83323678469
-0.04  0.52  1.43406746289
-0.04  0.54  1.12181334419
-0.04  0.56  0.877549495936
-0.04  0.58  0.686471703878
-0.04  0.6  0.536999226149
-0.04  0.62  0.420072913793
-0.04  0.64  0.328606158649
-0.04  0.66  0.257055391949
-0.04  0.68  0.201084102629
-0.04  0.7  0.157300012356
-0.04  0.72  0.123049478123
-0.04  0.74  0.0962566616468
-0.04  0.76  0.0752977180618
-0.04  0.78  0.0589023787893
-0.04  0.8  0.0460769637692
-0.04  0.82  0.0360441570244
-0.04  0.84  0.0281958955044
-0.04  0.86  0.0220565159218
-0.04  0.88  0.0172539260025
-0.04  0.9  0.0134970529143
-0.04  0.92  0.0105582020778
-0.04  0.94  0.00825925717445
-0.04  0.96  0.00646088496611
-0.04  0.98  0.00505409066017
-0.02  -1  0.00469069230636
-0.02  -0.98  0.00599633553107
-0.02  -0.96  0.00766540149147
-0.02  -0.94  0.00979904805542
-0.02  -0.92  0.0125265901466
-0.02  -0.9  0.0160133371948
-0.02  -0.88  0.0204706121231
-0.02  -0.86  0.0261685590953
-0.02  -0.84  0.0334525162708
-0.02  -0.82  0.0427639458778
-0.02  -0.8  0.054667190122
-0.02  -0.78  0.0698836745416
-0.02  -0.76  0.0893356317846
-0.02  -0.74  0.114201995798
-0.02  -0.72  0.145989854034
-0.02  -0.7  0.186625788209
-0.02  -0.68  0.238572639551
-0.02  -0.66  0.304978775381
-0.02  -0.64  0.389868903692
-0.02  -0.62  0.49838800053
-0.02  -0.6  0.637113133979
-0.02  -0.58  0.814452083632
-0.02  -0.56  1.04115291485
-0.02  -0.54  1.33095539184
-0.02  -0.52  1.70142371
-0.02  -0.5  2.17501101742
-0.02  -0.48  2.78042024342
-0.02  -0.46  3.55434371048
-0.02  -0.44  4.5436869632
-0.02  -0.42  5.80841159471
-0.02  -0.4  7.42516936727
-0.02  -0.38  9.49194788173
-0.02  -0.36  12.1340093583
-0.02  -0.34  15.511482463
-0.02  -0.32  19.8290673013
-0.02  -0.3  25.3484417739
-0.02  -0.28  32.4041212125
-0.02  -0.26  41.4237325088
-0.02  -0.24  52.9539314986
-0.02  -0.22  67.6935343904
-0.02  -0.2  86.5358712483
-0.02  -0.18  77.9926648038
-0.02  -0.16  69.4146718862
-0.02  -0.14  60.8057184721
-0.02  -0.12  52.1696443473
-0.02  -0.1  43.5103013942
-0.02  -0.08  34.8315518734
-0.02  -0.06  26.1372667012
-0.02  -0.04  17.4313237234
-0.02  -0.02  8.71760598536
-0.02  6.17561557e-16  2.29636679123e-12
-0.02  0.02  8.71760598536
-0.02  0.04  17.4313237234
-0.02  0.06  26.1372667012
-0.02  0.08  34.8315518734
-0.02  0.1  43.5103013942
-0.02  0.12  52.1696443473
-0.02  0.14  60.8057184721
-0.02  0.16  69.4146718862
-0.02  0.18  77.9926648038
-0.02  0.2  86.5358712483
-0.02  0.22  67.6935343904
-0.02  0.24  52.9539314986
-0.02  0.26  41.4237325088
-0.02  0.28  32.4041212125
-0.02  0.3  25.3484417739
-0.02  0.32  19.8290673013
-0.02  0.34  15.511482463
-0.02  0.36  12.1340093583
-0.02  0.38  9.49194788173
-0.02  0.4  7.42516936727
-0.02  0.42  5.80841159471
-0.02  0.44  4.5436869632
-0.02  0.46  3.55434371048
-0.02  0.48  2.78042024342
-0.02  0.5  2.17501101742
-0.02  0.52  1.70142371
-0.02  0.54  1.33095539184
-0.02  0.56  1.04115291485
-0.02  0.58  0.814452083632
-0.02  0.6  0.637113133979
-0.02  0.62  0.49838800053
-0.02  0.64  0.389868903692
-0.02  0.66  0.304978775381
-0.02  0.68  0.238572639551
-0.02  0.7  0.186625788209
-0.02  0.72  0.145989854034
-0.02  0.74  0.114201995798
-0.02  0.76  0.0893356317846
-0.02  0.78  0.0698836745416
-0.02  0.8  0.054667190122
-0.02  0.82  0.0427639458778
-0.02  0.84  0.0334525162708
-0.02  0.86  0.0261685590953
-0.02  0.88  0.0204706121231
-0.02  0.9  0.0160133371948
-0.02  0.92  0.0125265901466
-0.02  0.94  0.00979904805542
-0.02  0.96  0.00766540149147
-0.02  0.98  0.00599633553107
2.8449465e-16  -1  0.000959485188661
2.8449465e-16  -0.98  0.00122655564521
2.8449465e-16  -0.96  0.00156796453825
2.8449465e-16  -0.94  0.00200440379758
2.8449465e-16  -0.92  0.00256232490325
2.8449465e-16  -0.9  0.00327554204283
2.8449465e-16  -0.88  0.00418728150391
2.8449465e-16  -0.86  0.00535280151002
2.8449465e-16  -0.84  0.00684274128187
2.8449465e-16  -0.82  0.00874740230195
2.8449465e-16  -0.8  0.011182221259
2.8449465e-16  -0.78  0.014294766374
2.8449465e-16  -0.76  0.0182736811367
2.8449465e-16  -0.74  0.0233601175108
2.8449465e-16  -0.72  0.0298623515446
2.8449465e-16  -0.7  0.038174467203
2.8449465e-16  -0.68  0.0488002407999
2.8449465e-16  -0.66  0.0623836736076
2.8449465e-16  -0.64  0.0797480231446
2.8449465e-16  -0.62  0.101945698733
2.8449465e-16  -0.6  0.130322045367
2.8449465e-16  -0.58  0.166596881671
2.8449465e-16  -0.56  0.212968733757
2.8449465e-16  -0.54  0.272248082336
2.8449465e-16  -0.52  0.348027698847
2.8449465e-16  -0.5  0.444900394247
2.8449465e-16  -0.48  0.568737377677
2.8449465e-16  -0.46  0.7270440956
2.8449465e-16  -0.44  0.929415117933
2.8449465e-16  -0.42  1.18811564067
2.8449465e-16  -0.4  1.51882484842
2.8449465e-16  -0.38  1.9415861901
2.8449465e-16  -0.36  2.48202216175
2.8449465e-16  -0.34  3.1728872212
2.8449465e-16  -0.32  4.05605295295
2.8449465e-16  -0.3  5.18504579903
2.8449465e-16  -0.28  6.62829116138
2.8449465e-16  -0.26  8.47326049235
2.8449465e-16  -0.24  10.8317727184
2.8449465e-16  -0.22  13.8467713023
2.8449465e-16  -0.2  17.7009876853
2.8449465e-16  -0.18  15.9534673809
2.8449465e-16  -0.16  14.1988314732
2.8449465e-16  -0.14  12.437862569
2.8449465e-16  -0.12  10.6713460998
2.8449465e-16  -0.1  8.90006997161
2.8449465e-16  -0.08  7.1248242131
2.8449465e-16  -0.06  5.34640062361
2.8449465e-16  -0.04  3.56559241985
2.8449465e-16  -0.02  1.7831938821
2.8449465e-16  6.17561557e-16  4.69723823269e-13
2.8449465e-16  0.02  1.7831938821
2.8449465e-16  0.04  3.56559241985
2.8449465e-16  0.06  5.34640062361
2.8449465e-16  0.08  7.1248242131
2.8449465e-16  0.1  8.90006997161
2.8449465e-16  0.12  10.6713460998
2.8449465e-16  0.14  12.437862569
2.8449465e-16  0.16  14.1988314732
2.8449465e-16  0.18  15.9534673809
2.8449465e-16  0.2  17.7009876853
2.8449465e-16  0.22  13.8467713023
2.8449465e-16  0.24  10.8317727184
2.8449465e-16  0.26  8.47326049235
2.8449465e-16  0.28  6.62829116138
2.8449465e-16  0.3  5.18504579903
2.8449465e-16  0.32  4.05605295295
2.8449465e-16  0.34  3.1728872212
2.8449465e-16  0.36  2.48202216175
2.8449465e-16  0.38  1.9415861901
2.8449465e-16  0.4  1.51882484842
2.8449465e-16  0.42  1.18811564067
2.8449465e-16  0.44  0.929415117933
2.8449465e-16  0.46  0.7270440956
2.8449465e-16  0.48  0.568737377677
2.8449465e-16  0.5  0.444900394247
2.8449465e-16  0.52  0.348027698847
2.8449465e-16  0.54  0.272248082336
2.8449465e-16  0.56  0.212968733757
2.8449465e-16  0.58  0.166596881671
2.8449465e-16  0.6  0.130322045367
2.8449465e-16  0.62  0.101945698733
2.8449465e-16  0.64  0.0797480231446
2.8449465e-16  0.66  0.0623836736076
2.8449465e-16  0.68  0.0488002407999
2.8449465e-16  0.7  0.038174467203
2.8449465e-16  0.72  0.0298623515446
2.8449465e-16  0.74  0.0233601175108
2.8449465e-16  0.76  0.0182736811367
2.8449465e-16  0.78  0.014294766374
2.8449465e-16  0.8  0.011182221259
2.8449465e-16  0.82  0.00874740230195
2.8449465e-16  0.84  0.00684274128187
2.8449465e-16  0.86  0.00535280151002
2.8449465e-16  0.88  0.00418728150391
2.8449465e-16  0.9  0.00327554204283
2.8449465e-16  0.92  0.00256232490325
2.8449465e-16  0.94  0.00200440379758
2.8449465e-16  0.96  0.00156796453825
2.8449465e-16  0.98  0.00122655564521
0.02  -1  0.00188758091504
0.02  -0.98  0.00241298464478
0.02  -0.96  0.00308463327296
0.02  -0.94  0.00394323372477
0.02  -0.92  0.00504082360276
0.02  -0.9  0.00644392505432
0.02  -0.88  0.00823757651091
0.02  -0.86  0.0105304866523
0.02  -0.84  0.013461622965
0.02  -0.82  0.0172086342097
0.02  -0.8  0.0219986172645
0.02  -0.78  0.0281218808914
0.02  -0.76  0.035949540617
0.02  -0.74  0.0459560111064
0.02  -0.72  0.0587477592358
0.02  -0.7  0.0751000605175
0.02  -0.68  0.0960039865877
0.02  -0.66  0.122726471553
0.02  -0.64  0.156887097663
0.02  -0.62  0.200556254097
0.02  -0.6  0.256380618014
0.02  -0.58  0.327743562969
0.02  -0.56  0.418970216624
0.02  -0.54  0.535589595803
0.02  -0.52  0.684669706225
0.02  -0.5  0.875245916454
0.02  -0.48  1.11886856875
0.02  -0.46  1.4303030161
0.02  -0.44  1.82842451295
0.02  -0.42  2.33736219662
0.02  -0.4  2.98796149336
0.02  -0.38  3.81965358158
0.02  -0.36  4.88284521595
0.02  -0.34  6.24197375331
0.02  -0.32  7.97941253794
0.02  -0.3  10.2004633417
0.02  -0.28  13.0397384383
0.02  -0.26  16.6693191125
0.02  -0.24  21.3091850722
0.02  -0.22  27.240546862
0.02  -0.2  34.8228893234
0.02  -0.18  31.3850186671
0.02  -0.16  27.9331495904
0.02  -0.14  24.4688217041
0.02  -0.12  20.993580176
0.02  -0.1  17.5089750415
0.02  -0.08  14.0165605124
0.02  -0.06  10.5178942839
0.02  -0.04  7.01453683918
0.02  -0.02  3.50805075414
0.02  6.17561557e-16  9.24080678493e-13
0.02  0.02  3.50805075415
0.02  0.04  7.01453683918
0.02  0.06  10.5178942839
0.02  0.08  14.0165605124
0.02  0.1  17.5089750415
0.02  0.12  20.993580176
0.02  0.14  24.4688217041
0.02  0.16  27.9331495904
0.02  0.18  31.3850186671
0.02  0.2  34.8228893234
0.02  0.22  27.240546862
0.02  0.24  21.3091850722
0.02  0.26  16.6693191125
0.02  0.28  13.0397384383
0.02  0.3  10.2004633417
0.02  0.32  7.97941253794
0.02  0.34  6.24197375331
0.02  0.36  4.88284521595
0.02  0.38  3.81965358158
0.02  0.4  2.98796149336
0.02  0.42  2.33736219662
0.02  0.44  1.82842451295
0.02  0.46  1.4303030161
0.02  0.48  1.11886856875
0.02  0.5  0.875245916454
0.02  0.52  0.684669706225
0.02  0.54  0.535589595803
0.02  0.56  0.418970216624
0.02  0.58  0.327743562969
0.02  0.6  0.256380618014
0.02  0.62  0.200556254097
0.02  0.64  0.156887097663
0.02  0.66  0.122726471553
0.02  0.68  0.0960039865877
0.02  0.7  0.0751000605175
0.02  0.72  0.0587477592358
0.02  0.74  0.0459560111064
0.02  0.76  0.035949540617
0.02  0.78  0.0281218808914
0.02  0.8  0.0219986172645
0.02  0.82  0.0172086342097
0.02  0.84  0.013461622965
0.02  0.86  0.0105304866523
0.02  0.88  0.00823757651091
0.02  0.9  0.00644392505432
0.02  0.92  0.00504082360276
0.02  0.94  0.00394323372477
0.02  0.96  0.00308463327296
0.02  0.98  0.00241298464478
0.04  -1  0.00274686485481
0.04  -0.98  0.003511448258
0.04  -0.96  0.00448885166192
0.04  -0.94  0.00573831301567
0.04  -0.92  0.00733555901281
0.04  -0.9  0.00937739469484
0.04  -0.88  0.01198757056
0.04  -0.86  0.0153242827679
0.04  -0.84  0.0195897610092
0.04  -0.82  0.0250425251355
0.04  -0.8  0.0320130533938
0.04  -0.78  0.0409238118781
0.04  -0.76  0.0523148591305
0.04  -0.74  0.0668765777243
0.04  -0.72  0.0854915166064
0.04  -0.7  0.109287880157
0.04  -0.68  0.139707905806
0.04  -0.66  0.178595274395
0.04  -0.64  0.228306851013
0.04  -0.62  0.291855528631
0.04  -0.6  0.373092831925
0.04  -0.58  0.476942348451
0.04  -0.56  0.609698134839
0.04  -0.54  0.779406183647
0.04  -0.52  0.996352070632
0.04  -0.5  1.27368433749
