-0.52  0.1  0.497441767318
-0.52  0.12  0.596441744895
-0.52  0.14  0.695175696112
-0.52  0.16  0.793599583418
-0.52  0.18  0.891669507557
-0.52  0.2  2.35554735596
-0.52  0.22  1.84265003227
-0.52  0.24  1.44143106818
-0.52  0.26  1.12757359668
-0.52  0.28  0.882055509965
-0.52  0.3  0.689996577566
-0.52  0.32  0.539756593178
-0.52  0.34  0.422229891207
-0.52  0.36  0.330293475397
-0.52  0.38  0.258375312031
-0.52  0.4  0.202116623064
-0.52  0.42  0.158107711598
-0.52  0.44  0.123681308781
-0.52  0.46  0.096750917378
-0.52  0.48  0.0756843544572
-0.52  0.5  0.0592048289034
-0.52  0.52  0.0463135583387
-0.52  0.54  0.0362292354478
-0.52  0.56  0.0283406749172
-0.52  0.58  0.022169771038
-0.52  0.6  0.0173425209285
-0.52  0.62  0.0135663571644
-0.52  0.64  0.0106124160075
-0.52  0.66  0.00830166655292
-0.52  0.68  0.00649406011855
-0.52  0.7  0.00508004224868
-0.52  0.72  0.00397391289537
-0.52  0.74  0.00310863235519
-0.52  0.76  0.00243175816233
-0.52  0.78  0.00190226668336
-0.52  0.8  0.00148806677846
-0.52  0.82  0.00116405483864
-0.52  0.84  0.000910593319453
-0.52  0.86  0.000712320559056
-0.52  0.88  0.000557219746746
-0.52  0.9  0.000435890614438
-0.52  0.92  0.000340979710185
-0.52  0.94  0.00026673472405
-0.52  0.96  0.00020865585514
-0.52  0.98  0.000163223090054
-0.5  -1  0.000151487051621
-0.5  -0.98  0.000193653117878
-0.5  -0.96  0.000247556009986
-0.5  -0.94  0.000316462645951
-0.5  -0.92  0.000404549282757
-0.5  -0.9  0.000517154628747
-0.5  -0.88  0.000661103409237
-0.5  -0.86  0.000845119995858
-0.5  -0.84  0.00108035716867
-0.5  -0.82  0.00138107205794
-0.5  -0.8  0.00176549023281
-0.5  -0.78  0.00225691030691
-0.5  -0.76  0.00288511600845
-0.5  -0.74  0.00368818129666
-0.5  -0.72  0.00471477792824
-0.5  -0.7  0.00602712532943
-0.5  -0.68  0.00770476155813
-0.5  -0.66  0.00984936390452
-0.5  -0.64  0.0125909112945
-0.5  -0.62  0.0160955619837
-0.5  -0.6  0.0205757239896
-0.5  -0.58  0.0263029286037
-0.5  -0.56  0.0336242872175
-0.5  -0.54  0.0429835288654
-0.5  -0.52  0.0549478935203
-0.5  -0.5  0.0702425110738
-0.5  -0.48  0.0897943496256
-0.5  -0.46  0.114788396676
-0.5  -0.44  0.146739478224
-0.5  -0.42  0.187584068538
-0.5  -0.4  0.239797654967
-0.5  -0.38  0.30654477097
-0.5  -0.36  0.391870790489
-0.5  -0.34  0.500947107831
-0.5  -0.32  0.640384562808
-0.5  -0.3  0.818634107019
-0.5  -0.28  1.04649899466
-0.5  -0.26  1.33778954045
-0.5  -0.24  1.71016012788
-0.5  -0.22  2.18617919677
-0.5  -0.2  1.17378680949
-0.5  -0.18  1.05790535027
-0.5  -0.16  0.941552041596
-0.5  -0.14  0.82477877965
-0.5  -0.12  0.707637647919
-0.5  -0.1  0.590180893967
-0.5  -0.08  0.472460906134
-0.5  -0.06  0.354530190168
-0.5  -0.04  0.236441345807
-0.5  -0.02  0.118247043317
-0.5  6.17561557e-16  3.11482973526e-14
-0.5  0.02  0.118247043317
-0.5  0.04  0.236441345807
-0.5  0.06  0.354530190168
-0.5  0.08  0.472460906134
-0.5  0.1  0.590180893967
-0.5  0.12  0.707637647919
-0.5  0.14  0.82477877965
-0.5  0.16  0.941552041596
-0.5  0.18  1.05790535027
-0.5  0.2  2.79469705935
-0.5  0.22  2.18617919677
-0.5  0.24  1.71016012788
-0.5  0.26  1.33778954045
-0.5  0.28  1.04649899466
-0.5  0.3  0.818634107019
-0.5  0.32  0.640384562808
-0.5  0.34  0.500947107831
-0.5  0.36  0.391870790489
-0.5  0.38  0.30654477097
-0.5  0.4  0.239797654967
-0.5  0.42  0.187584068538
-0.5  0.44  0.146739478224
-0.5  0.46  0.114788396676
-0.5  0.48  0.0897943496256
-0.5  0.5  0.0702425110738
-0.5  0.52  0.0549478935203
-0.5  0.54  0.0429835288654
-0.5  0.56  0.0336242872175
-0.5  0.58  0.0263029286037
-0.5  0.6  0.0205757239896
-0.5  0.62  0.0160955619837
-0.5  0.64  0.0125909112945
-0.5  0.66  0.00984936390452
-0.5  0.68  0.00770476155813
-0.5  0.7  0.00602712532943
-0.5  0.72  0.00471477792824
-0.5  0.74  0.00368818129666
-0.5  0.76  0.00288511600845
-0.5  0.78  0.00225691030691
-0.5  0.8  0.00176549023281
-0.5  0.82  0.00138107205794
-0.5  0.84  0.00108035716867
-0.5  0.86  0.000845119995858
-0.5  0.88  0.000661103409237
-0.5  0.9  0.000517154628747
-0.5  0.92  0.000404549282757
-0.5  0.94  0.000316462645951
-0.5  0.96  0.000247556009986
-0.5  0.98  0.000193653117878
-0.48  -1  0.00017972910484
-0.48  -0.98  0.000229756280509
-0.48  -0.96  0.000293708403435
-0.48  -0.94  0.000375461450094
-0.48  -0.92  0.000479970265944
-0.48  -0.9  0.000613568866079
-0.48  -0.88  0.000784354323868
-0.48  -0.86  0.0010026775141
-0.48  -0.84  0.00128177045334
-0.48  -0.82  0.00163854825899
-0.48  -0.8  0.00209463433179
-0.48  -0.78  0.00267767089547
-0.48  -0.76  0.00342299432202
-0.48  -0.74  0.00437577677989
-0.48  -0.72  0.00559376400488
-0.48  -0.7  0.00715077512319
-0.48  -0.68  0.00914117664204
-0.48  -0.66  0.011685601765
-0.48  -0.64  0.0149382616657
-0.48  -0.62  0.0190962918367
-0.48  -0.6  0.0244116999738
-0.48  -0.58  0.0312066395249
-0.48  -0.56  0.0398929345961
-0.48  -0.54  0.0509970395699
-0.48  -0.52  0.0651919461734
-0.48  -0.5  0.0833379718063
-0.48  -0.48  0.106534901203
-0.48  -0.46  0.136188641603
-0.48  -0.44  0.174096431238
-0.48  -0.42  0.222555765393
-0.48  -0.4  0.284503641788
-0.48  -0.38  0.363694564587
-0.48  -0.36  0.464928095398
-0.48  -0.34  0.594339742568
-0.48  -0.32  0.759772818834
-0.48  -0.3  0.971253804676
-0.48  -0.28  1.24160002795
-0.48  -0.26  1.58719648971
-0.48  -0.24  2.02898891772
-0.48  -0.22  2.59375323403
-0.48  -0.2  1.39261838082
-0.48  -0.18  1.25513289469
-0.48  -0.16  1.11708759122
-0.48  -0.14  0.978544041695
-0.48  -0.12  0.839564039637
-0.48  -0.1  0.700209573236
-0.48  -0.08  0.560542797703
-0.48  -0.06  0.420626007543
-0.48  -0.04  0.280521608774
-0.48  -0.02  0.140292091092
-0.48  6.17561557e-16  3.69553406748e-14
-0.48  0.02  0.140292091092
-0.48  0.04  0.280521608774
-0.48  0.06  0.420626007543
-0.48  0.08  0.560542797703
-0.48  0.1  0.700209573236
-0.48  0.12  0.839564039637
-0.48  0.14  0.978544041695
-0.48  0.16  1.11708759122
-0.48  0.18  1.25513289469
-0.48  0.2  3.31571837593
-0.48  0.22  2.59375323403
-0.48  0.24  2.02898891772
-0.48  0.26  1.58719648971
-0.48  0.28  1.24160002795
-0.48  0.3  0.971253804676
-0.48  0.32  0.759772818834
-0.48  0.34  0.594339742568
-0.48  0.36  0.464928095398
-0.48  0.38  0.363694564587
-0.48  0.4  0.284503641788
-0.48  0.42  0.222555765393
-0.48  0.44  0.174096431238
-0.48  0.46  0.136188641603
-0.48  0.48  0.106534901203
-0.48  0.5  0.0833379718063
-0.48  0.52  0.0651919461734
-0.48  0.54  0.0509970395699
-0.48  0.56  0.0398929345961
-0.48  0.58  0.0312066395249
-0.48  0.6  0.0244116999738
-0.48  0.62  0.0190962918367
-0.48  0.64  0.0149382616657
-0.48  0.66  0.011685601765
-0.48  0.68  0.00914117664204
-0.48  0.7  0.00715077512319
-0.48  0.72  0.00559376400488
-0.48  0.74  0.00437577677989
-0.48  0.76  0.00342299432202
-0.48  0.78  0.00267767089547
-0.48  0.8  0.00209463433179
-0.48  0.82  0.00163854825899
-0.48  0.84  0.00128177045334
-0.48  0.86  0.0010026775141
-0.48  0.88  0.000784354323868
-0.48  0.9  0.000613568866079
-0.48  0.92  0.000479970265944
-0.48  0.94  0.000375461450094
-0.48  0.96  0.000293708403435
-0.48  0.98  0.000229756280509
-0.46  -1  0.000213236384107
-0.46  -0.98  0.000272590232534
-0.46  -0.96  0.000348465085751
-0.46  -0.94  0.000445459526773
-0.46  -0.92  0.000569452143433
-0.46  -0.9  0.000727957814731
-0.46  -0.88  0.000930583168646
-0.46  -0.86  0.00118960881557
-0.46  -0.84  0.00152073364505
-0.46  -0.82  0.00194402629581
-0.46  -0.8  0.00248514146517
-0.46  -0.78  0.00317687477543
-0.46  -0.76  0.00406115043356
-0.46  -0.74  0.00519156215144
-0.46  -0.72  0.00663662132523
-0.46  -0.7  0.00848390933781
-0.46  -0.68  0.010845385645
-0.46  -0.66  0.0138641733553
-0.46  -0.64  0.017723233559
-0.46  -0.62  0.0226564541382
-0.46  -0.6  0.0289628251191
-0.46  -0.58  0.0370245597023
-0.46  -0.56  0.0473302592379
-0.46  -0.54  0.0605045261183
-0.46  -0.52  0.0773458193499
-0.46  -0.5  0.0988748471348
-0.46  -0.48  0.126396429414
-0.46  -0.46  0.161578579705
-0.46  -0.44  0.206553599185
-0.46  -0.42  0.26404731007
-0.46  -0.4  0.337544260814
-0.46  -0.38  0.431498915776
-0.46  -0.36  0.55160562904
-0.46  -0.34  0.705143764827
-0.46  -0.32  0.901418881348
-0.46  -0.3  1.15232671716
-0.46  -0.28  1.47307416181
-0.46  -0.26  1.88310090696
-0.46  -0.24  2.40725763694
-0.46  -0.22  3.07731216589
-0.46  -0.2  1.6522471874
-0.46  -0.18  1.48912998969
-0.46  -0.16  1.32534860669
-0.46  -0.14  1.16097608857
-0.46  -0.12  0.996085749146
-0.46  -0.1  0.830751133193
-0.46  -0.08  0.665045983651
-0.46  -0.06  0.499044208724
-0.46  -0.04  0.332819848916
-0.46  -0.02  0.16644704401
-0.46  6.17561557e-16  4.38450034341e-14
-0.46  0.02  0.166447044011
-0.46  0.04  0.332819848916
-0.46  0.06  0.499044208724
-0.46  0.08  0.665045983651
-0.46  0.1  0.830751133193
-0.46  0.12  0.996085749146
-0.46  0.14  1.16097608857
-0.46  0.16  1.32534860669
-0.46  0.18  1.48912998969
-0.46  0.2  3.93387480469
-0.46  0.22  3.07731216589
-0.46  0.24  2.40725763694
-0.46  0.26  1.88310090696
-0.46  0.28  1.47307416181
-0.46  0.3  1.15232671716
-0.46  0.32  0.901418881348
-0.46  0.34  0.705143764827
-0.46  0.36  0.55160562904
-0.46  0.38  0.431498915776
-0.46  0.4  0.337544260814
-0.46  0.42  0.26404731007
-0.46  0.44  0.206553599185
-0.46  0.46  0.161578579705
-0.46  0.48  0.126396429414
-0.46  0.5  0.0988748471348
-0.46  0.52  0.0773458193499
-0.46  0.54  0.0605045261183
-0.46  0.56  0.0473302592379
-0.46  0.58  0.0370245597023
-0.46  0.6  0.0289628251191
-0.46  0.62  0.0226564541382
-0.46  0.64  0.017723233559
-0.46  0.66  0.0138641733553
-0.46  0.68  0.010845385645
-0.46  0.7  0.00848390933781
-0.46  0.72  0.00663662132523
-0.46  0.74  0.00519156215144
-0.46  0.76  0.00406115043356
-0.46  0.78  0.00317687477543
-0.46  0.8  0.00248514146517
-0.46  0.82  0.00194402629581
-0.46  0.84  0.00152073364505
-0.46  0.86  0.00118960881557
-0.46  0.88  0.000930583168646
-0.46  0.9  0.000727957814731
-0.46  0.92  0.000569452143433
-0.46  0.94  0.000445459526773
-0.46  0.96  0.000348465085751
-0.46  0.98  0.000272590232534
-0.44  -1  0.000252990496711
-0.44  -0.98  0.000323409809336
-0.44  -0.96  0.00041343017281
-0.44  -0.94  0.000528507493761
-0.44  -0.92  0.000675616317655
-0.44  -0.9  0.000863672538365
-0.44  -0.88  0.00110407376796
-0.44  -0.86  0.00141139011714
-0.44  -0.84  0.00180424725282
-0.44  -0.82  0.00230645525273
-0.44  -0.8  0.00294845167397
-0.44  -0.78  0.00376914629644
-0.44  -0.76  0.00481827934621
-0.44  -0.74  0.00615943612484
-0.44  -0.72  0.00787390075377
-0.44  -0.7  0.0100655825994
-0.44  -0.68  0.012867313957
-0.44  -0.66  0.0164489006804
-0.44  -0.64  0.0210274136855
-0.44  -0.62  0.0268803450693
-0.44  -0.6  0.0343624262048
-0.44  -0.58  0.0439271271121
-0.44  -0.56  0.0561541401305
-0.44  -0.54  0.0717845136047
-0.44  -0.52  0.0917655649519
-0.44  -0.5  0.117308295175
-0.44  -0.48  0.149960784572
-0.44  -0.46  0.191702017968
-0.44  -0.44  0.245061825983
-0.44  -0.42  0.313274211667
-0.44  -0.4  0.400473355253
-0.44  -0.38  0.511944176363
-0.44  -0.36  0.654442639627
-0.44  -0.34  0.836605216616
-0.44  -0.32  1.06947232055
-0.44  -0.3  1.36715743783
-0.44  -0.28  1.74770251076
-0.44  -0.26  2.23417141406
-0.44  -0.24  2.85604779799
-0.44  -0.22  3.65102201786
-0.44  -0.2  1.96027914457
-0.44  -0.18  1.76675166078
-0.44  -0.16  1.57243616622
-0.44  -0.14  1.37741932995
-0.44  -0.12  1.18178813385
-0.44  -0.1  0.985629833811
-0.44  -0.08  0.789031920815
-0.44  -0.06  0.592082081932
-0.44  -0.04  0.394868161197
-0.44  -0.02  0.197478120428
-0.44  6.17561557e-16  5.20191206746e-14
-0.44  0.02  0.197478120428
-0.44  0.04  0.394868161197
-0.44  0.06  0.592082081933
-0.44  0.08  0.789031920815
-0.44  0.1  0.985629833811
-0.44  0.12  1.18178813385
-0.44  0.14  1.37741932995
-0.44  0.16  1.57243616622
-0.44  0.18  1.76675166078
-0.44  0.2  4.66727545116
-0.44  0.22  3.65102201786
-0.44  0.24  2.85604779799
-0.44  0.26  2.23417141406
-0.44  0.28  1.74770251076
-0.44  0.3  1.36715743783
-0.44  0.32  1.06947232055
-0.44  0.34  0.836605216616
-0.44  0.36  0.654442639627
-0.44  0.38  0.511944176363
-0.44  0.4  0.400473355253
-0.44  0.42  0.313274211667
-0.44  0.44  0.245061825983
-0.44  0.46  0.191702017968
-0.44  0.48  0.149960784572
-0.44  0.5  0.117308295175
-0.44  0.52  0.0917655649519
-0.44  0.54  0.0717845136047
-0.44  0.56  0.0561541401305
-0.44  0.58  0.0439271271121
-0.44  0.6  0.0343624262048
-0.44  0.62  0.0268803450693
-0.44  0.64  0.0210274136855
-0.44  0.66  0.0164489006804
-0.44  0.68  0.012867313957
-0.44  0.7  0.0100655825994
-0.44  0.72  0.00787390075377
-0.44  0.74  0.00615943612484
-0.44  0.76  0.00481827934621
-0.44  0.78  0.00376914629644
-0.44  0.8  0.00294845167397
-0.44  0.82  0.00230645525273
-0.44  0.84  0.00180424725282
-0.44  0.86  0.00141139011714
-0.44  0.88  0.00110407376796
-0.44  0.9  0.000863672538365
-0.44  0.92  0.000675616317655
-0.44  0.94  0.000528507493761
-0.44  0.96  0.00041343017281
-0.44  0.98  0.000323409809336
-0.42  -1  0.000300156053078
-0.42  -0.98  0.000383703787924
-0.42  -0.96  0.000490506839218
-0.42  -0.94  0.000627038269862
-0.42  -0.92  0.000801572904668
-0.42  -0.9  0.00102468884657
-0.42  -0.88  0.00130990858868
-0.42  -0.86  0.00167451857844
-0.42  -0.84  0.00214061690547
-0.42  -0.82  0.00273645261091
-0.42  -0.8  0.00349813779037
-0.42  -0.78  0.00447183625678
-0.42  -0.76  0.00571656141233
-0.42  -0.74  0.0073077529016
-0.42  -0.72  0.00934184881766
-0.42  -0.7  0.0119421305711
-0.42  -0.68  0.0152661946644
-0.42  -0.66  0.0195155042181
-0.42  -0.64  0.0249475991404
-0.42  -0.62  0.0318917049702
-0.42  -0.6  0.0407686864047
-0.42  -0.58  0.0521165548447
-0.42  -0.56  0.0666230759047
-0.42  -0.54  0.0851674531486
-0.42  -0.52  0.108873614394
-0.42  -0.5  0.139178330138
-0.42  -0.48  0.177918292579
-0.42  -0.46  0.227441432893
-0.42  -0.44  0.290749223403
-0.42  -0.42  0.371678589226
-0.42  -0.4  0.475134454607
-0.42  -0.38  0.607387017975
-0.42  -0.36  0.776451772813
-0.42  -0.34  0.992575306457
-0.42  -0.32  1.26885631985
-0.42  -0.3  1.62203950666
-0.42  -0.28  2.07353040689
-0.42  -0.26  2.65069274246
-0.42  -0.24  3.38850686327
-0.42  -0.22  4.33168981771
-0.42  -0.2  2.32573815465
-0.42  -0.18  2.09613093045
-0.42  -0.16  1.86558878497
-0.42  -0.14  1.63421454515
-0.42  -0.12  1.4021114091
-0.42  -0.1  1.16938289998
-0.42  -0.08  0.93613281994
-0.42  -0.06  0.702465203718
-0.42  -0.04  0.468484272301
-0.42  -0.02  0.234294386419
-0.42  6.17561557e-16  6.17171559772e-14
-0.42  0.02  0.234294386419
-0.42  0.04  0.468484272301
-0.42  0.06  0.702465203718
-0.42  0.08  0.93613281994
-0.42  0.1  1.16938289998
-0.42  0.12  1.4021114091
-0.42  0.14  1.63421454515
-0.42  0.16  1.86558878497
-0.42  0.18  2.09613093045
-0.42  0.2  5.53740553997
-0.42  0.22  4.33168981771
-0.42  0.24  3.38850686327
-0.42  0.26  2.65069274246
-0.42  0.28  2.07353040689
-0.42  0.3  1.62203950666
-0.42  0.32  1.26885631985
-0.42  0.34  0.992575306457
-0.42  0.36  0.776451772813
-0.42  0.38  0.607387017975
-0.42  0.4  0.475134454607
-0.42  0.42  0.371678589226
-0.42  0.44  0.290749223403
-0.42  0.46  0.227441432893
-0.42  0.48  0.177918292579
-0.42  0.5  0.139178330138
-0.42  0.52  0.108873614394
-0.42  0.54  0.0851674531486
-0.42  0.56  0.0666230759047
-0.42  0.58  0.0521165548447
-0.42  0.6  0.0407686864047
-0.42  0.62  0.0318917049702
-0.42  0.64  0.0249475991404
-0.42  0.66  0.0195155042181
-0.42  0.68  0.0152661946644
-0.42  0.7  0.0119421305711
-0.42  0.72  0.00934184881766
-0.42  0.74  0.0073077529016
-0.42  0.76  0.00571656141233
-0.42  0.78  0.00447183625678
-0.42  0.8  0.00349813779037
-0.42  0.82  0.00273645261091
-0.42  0.84  0.00214061690547
-0.42  0.86  0.00167451857844
-0.42  0.88  0.00130990858868
-0.42  0.9  0.00102468884657
-0.42  0.92  0.000801572904668
-0.42  0.94  0.000627038269862
-0.42  0.96  0.000490506839218
-0.42  0.98  0.000383703787924
-0.4  -1  0.00035611478443
-0.4  -0.98  0.000455238501175
-0.4  -0.96  0.000581953072472
-0.4  -0.94  0.000743938348109
-0.4  -0.92  0.000951011846085
-0.4  -0.9  0.00121572376756
-0.4  -0.88  0.00155411763281
-0.4  -0.86  0.00198670263842
-0.4  -0.84  0.00253969666786
-0.4  -0.82  0.0032466152911
-0.4  -0.8  0.00415030305853
-0.4  -0.78  0.00530553020091
-0.4  -0.76  0.00678231211452
-0.4  -0.74  0.00867015281731
-0.4  -0.72  0.0110834695611
-0.4  -0.7  0.0141685273722
-0.4  -0.68  0.0181123038042
-0.4  -0.66  0.0231538211754
-0.4  -0.64  0.0295986331071
-0.4  -0.62  0.0378373433556
-0.4  -0.6  0.0483692793188
-0.4  -0.58  0.0618327550068
-0.4  -0.56  0.0790437576408
-0.4  -0.54  0.101045402575
-0.4  -0.52  0.12917115388
-0.4  -0.5  0.165125642233
-0.4  -0.48  0.211087978264
-0.4  -0.46  0.269843822954
-0.4  -0.44  0.344954219492
-0.4  -0.42  0.440971419108
-0.4  -0.4  0.563714781504
-0.4  -0.38  0.720623471538
-0.4  -0.36  0.92120732819
-0.4  -0.34  1.17762323187
-0.4  -0.32  1.50541190218
-0.4  -0.3  1.92443978167
-0.4  -0.28  2.46010309067
-0.4  -0.26  3.14486702798
-0.4  -0.24  4.02023340452
-0.4  -0.22  5.13925596315
-0.4  -0.2  2.75933046525
-0.4  -0.18  2.48691707791
-0.4  -0.16  2.21339446992
-0.4  -0.14  1.93888463848
-0.4  -0.12  1.66351002113
-0.4  -0.1  1.38739344109
-0.4  -0.08  1.11065805255
-0.4  -0.06  0.833427285663
-0.4  -0.04  0.555824791567
-0.4  -0.02  0.277974387181
-0.4  6.17561557e-16  7.32232166272e-14
-0.4  0.02  0.277974387181
-0.4  0.04  0.555824791567
-0.4  0.06  0.833427285663
-0.4  0.08  1.11065805255
-0.4  0.1  1.38739344109
-0.4  0.12  1.66351002113
-0.4  0.14  1.93888463848
-0.4  0.16  2.21339446992
-0.4  0.18  2.48691707791
-0.4  0.2  6.56975583184
-0.4  0.22  5.13925596315
-0.4  0.24  4.02023340452
-0.4  0.26  3.14486702798
-0.4  0.28  2.46010309067
-0.4  0.3  1.92443978167
-0.4  0.32  1.50541190218
-0.4  0.34  1.17762323187
-0.4  0.36  0.92120732819
-0.4  0.38  0.720623471538
-0.4  0.4  0.563714781504
-0.4  0.42  0.440971419108
-0.4  0.44  0.344954219492
-0.4  0.46  0.269843822954
-0.4  0.48  0.211087978264
-0.4  0.5  0.165125642233
-0.4  0.52  0.12917115388
-0.4  0.54  0.101045402575
-0.4  0.56  0.0790437576408
-0.4  0.58  0.0618327550068
-0.4  0.6  0.0483692793188
-0.4  0.62  0.0378373433556
-0.4  0.64  0.0295986331071
-0.4  0.66  0.0231538211754
-0.4  0.68  0.0181123038042
-0.4  0.7  0.0141685273722
-0.4  0.72  0.0110834695611
-0.4  0.74  0.00867015281731
-0.4  0.76  0.00678231211452
-0.4  0.78  0.00530553020091
-0.4  0.8  0.00415030305853
-0.4  0.82  0.0032466152911
-0.4  0.84  0.00253969666786
-0.4  0.86  0.00198670263842
-0.4  0.88  0.00155411763281
-0.4  0.9  0.00121572376756
-0.4  0.92  0.000951011846085
-0.4  0.94  0.000743938348109
-0.4  0.96  0.000581953072472
-0.4  0.98  0.000455238501175
-0.38  -1  0.000422506021083
-0.38  -0.98  0.000540109583158
-0.38  -0.96  0.000690447821481
-0.38  -0.94  0.000882632356568
-0.38  -0.92  0.00112831100718
-0.38  -0.9  0.00144237373517
-0.38  -0.88  0.00184385508842
-0.38  -0.86  0.00235708783666
-0.38  -0.84  0.00301317771913
-0.38  -0.82  0.00385188868477
-0.38  -0.8  0.00492405288467
-0.38  -0.78  0.00629465148017
-0.38  -0.76  0.00804675298677
-0.38  -0.74  0.0102865478469
-0.38  -0.72  0.013149784364
-0.38  -0.7  0.016809996064
-0.38  -0.68  0.0214890191239
-0.38  -0.66  0.0274704373011
-0.38  -0.64  0.0351167692282
-0.38  -0.62  0.0448914397506
-0.38  -0.6  0.0573868669348
-0.38  -0.58  0.0733603670297
-0.38  -0.56  0.0937800534894
-0.38  -0.54  0.119883511882
-0.38  -0.52  0.153252806822
-0.38  -0.5  0.195910366906
-0.38  -0.48  0.250441558998
-0.38  -0.46  0.320151380776
-0.38  -0.44  0.409264768287
-0.38  -0.42  0.523182658638
-0.38  -0.4  0.668809327139
-0.38  -0.38  0.854970837972
-0.38  -0.36  1.09294996963
-0.38  -0.34  1.39717003557
-0.38  -0.32  1.78606904484
-0.38  -0.3  2.2832171831
-0.38  -0.28  2.91874534205
-0.38  -0.26  3.73117127657
-0.38  -0.24  4.76973406843
-0.38  -0.22  6.09737838262
-0.38  -0.2  3.27375831248
-0.38  -0.18  2.95055831796
-0.38  -0.16  2.62604230843
-0.38  -0.14  2.30035502529
-0.38  -0.12  1.97364173235
-0.38  -0.1  1.64604815105
-0.38  -0.08  1.31772039545
-0.38  -0.06  0.988804907077
-0.38  -0.04  0.659448389597
-0.38  -0.02  0.329797743384
-0.38  6.17561557e-16  8.68743766355e-14
-0.38  0.02  0.329797743384
-0.38  0.04  0.659448389598
-0.38  0.06  0.988804907078
-0.38  0.08  1.31772039545
-0.38  0.1  1.64604815105
-0.38  0.12  1.97364173235
-0.38  0.14  2.30035502529
-0.38  0.16  2.62604230843
-0.38  0.18  2.95055831796
-0.38  0.2  7.79456938425
-0.38  0.22  6.09737838262
-0.38  0.24  4.76973406843
-0.38  0.26  3.73117127657
-0.38  0.28  2.91874534205
-0.38  0.3  2.2832171831
-0.38  0.32  1.78606904484
-0.38  0.34  1.39717003557
-0.38  0.36  1.09294996963
-0.38  0.38  0.854970837972
-0.38  0.4  0.668809327139
-0.38  0.42  0.523182658638
-0.38  0.44  0.409264768287
-0.38  0.46  0.320151380776
-0.38  0.48  0.250441558998
-0.38  0.5  0.195910366906
-0.38  0.52  0.153252806822
-0.38  0.54  0.119883511882
-0.38  0.56  0.0937800534894
-0.38  0.58  0.0733603670297
-0.38  0.6  0.0573868669348
-0.38  0.62  0.0448914397506
-0.38  0.64  0.0351167692282
-0.38  0.66  0.0274704373011
-0.38  0.68  0.0214890191239
-0.38  0.7  0.016809996064
-0.38  0.72  0.013149784364
-0.38  0.74  0.0102865478469
-0.38  0.76  0.00804675298677
-0.38  0.78  0.00629465148017
-0.38  0.8  0.00492405288467
-0.38  0.82  0.00385188868477
-0.38  0.84  0.00301317771913
-0.38  0.86  0.00235708783666
-0.38  0.88  0.00184385508842
-0.38  0.9  0.00144237373517
-0.38  0.92  0.00112831100718
-0.38  0.94  0.000882632356568
-0.38  0.96  0.000690447821481
-0.38  0.98  0.000540109583158
-0.36  -1  0.000501274717187
-0.36  -0.98  0.000640803361461
-0.36  -0.96  0.000819169477297
-0.36  -0.94  0.001047183384
-0.36  -0.92  0.00133866442796
-0.36  -0.9  0.00171127853828
-0.36  -0.88  0.00218760891409
-0.36  -0.86  0.00279652473514
-0.36  -0.84  0.00357493084978
-0.36  -0.82  0.00457000448454
-0.36  -0.8  0.00584205453653
-0.36  -0.78  0.00746817674319
-0.36  -0.76  0.00954692626008
-0.36  -0.74  0.0122042908396
-0.36  -0.72  0.0156013266301
-0.36  -0.7  0.0199439193821
-0.36  -0.68  0.0254952626625
-0.36  -0.66  0.0325918093518
-0.36  -0.64  0.0416636632024
-0.36  -0.62  0.0532606463392
-0.36  -0.6  0.0680856225889
-0.36  -0.58  0.0870370962792
-0.36  -0.56  0.111263668315
-0.36  -0.54  0.142233649973
-0.36  -0.52  0.181824053539
-0.36  -0.5  0.232434353274
-0.36  -0.48  0.297131911486
-0.36  -0.46  0.379837883598
-0.36  -0.44  0.485564869471
-0.36  -0.42  0.620720714402
-0.36  -0.4  0.793496872433
-0.36  -0.38  1.01436486966
-0.36  -0.36  1.29671095697
-0.36  -0.34  1.65764741683
-0.36  -0.32  2.11904969552
-0.36  -0.3  2.70888221854
-0.36  -0.28  3.46289324381
-0.36  -0.26  4.42678147318
-0.36  -0.24  5.65896573517
-0.36  -0.22  7.23412560251
-0.36  -0.2  3.88409203736
-0.36  -0.18  3.50063718048
-0.36  -0.16  3.11562096111
-0.36  -0.14  2.72921510509
-0.36  -0.12  2.34159195809
-0.36  -0.1  1.95292440869
-0.36  -0.08  1.56338581133
-0.36  -0.06  1.17314990891
-0.36  -0.04  0.782390755397
-0.36  -0.02  0.391282638103
-0.36  6.17561557e-16  1.03070551438e-13
-0.36  0.02  0.391282638103
-0.36  0.04  0.782390755397
-0.36  0.06  1.17314990891
-0.36  0.08  1.56338581133
-0.36  0.1  1.95292440869
-0.36  0.12  2.34159195809
-0.36  0.14  2.72921510509
-0.36  0.16  3.11562096111
-0.36  0.18  3.50063718048
-0.36  0.2  9.24772753218
-0.36  0.22  7.23412560251
-0.36  0.24  5.65896573517
-0.36  0.26  4.42678147318
-0.36  0.28  3.46289324381
-0.36  0.3  2.70888221854
-0.36  0.32  2.11904969552
-0.36  0.34  1.65764741683
-0.36  0.36  1.29671095697
-0.36  0.38  1.01436486966
-0.36  0.4  0.793496872433
-0.36  0.42  0.620720714402
-0.36  0.44  0.485564869471
-0.36  0.46  0.379837883598
-0.36  0.48  0.297131911486
-0.36  0.5  0.232434353274
-0.36  0.52  0.181824053539
-0.36  0.54  0.142233649973
-0.36  0.56  0.111263668315
-0.36  0.58  0.0870370962793
-0.36  0.6  0.0680856225889
-0.36  0.62  0.0532606463392
-0.36  0.64  0.0416636632024
-0.36  0.66  0.0325918093518
-0.36  0.68  0.0254952626625
-0.36  0.7  0.0199439193821
-0.36  0.72  0.0156013266301
-0.36  0.74  0.0122042908396
-0.36  0.76  0.00954692626008
-0.36  0.78  0.00746817674319
-0.36  0.8  0.00584205453653
-0.36  0.82  0.00457000448454
-0.36  0.84  0.00357493084978
-0.36  0.86  0.00279652473514
-0.36  0.88  0.00218760891409
-0.36  0.9  0.00171127853828
-0.36  0.92  0.00133866442796
-0.36  0.94  0.001047183384
-0.36  0.96  0.000819169477297
-0.36  0.98  0.000640803361461
-0.34  -1  0.000594728428832
-0.34  -0.98  0.000760269695011
-0.34  -0.96  0.000971888985174
-0.34  -0.94  0.00124241200945
-0.34  -0.92  0.00158823448436
-0.34  -0.9  0.00203031583575
-0.34  -0.88  0.0025954494966
-0.34  -0.86  0.00331788678921
-0.34  -0.84  0.00424141281134
-0.34  -0.82  0.00542200014017
-0.34  -0.8  0.00693120118876
-0.34  -0.78  0.00886048481688
-0.34  -0.76  0.0113267800273
-0.34  -0.74  0.0144795627371
-0.34  -0.72  0.018509915135
-0.34  -0.7  0.0236621066895
-0.34  -0.68  0.0302483987044
-0.34  -0.66  0.0386679696861
-0.34  -0.64  0.0494311085442
-0.34  -0.62  0.0631901419119
-0.34  -0.6  0.0807789700139
-0.34  -0.58  0.103263607251
-0.34  -0.56  0.132006790636
-0.34  -0.54  0.168750571842
-0.34  -0.52  0.215721898546
-0.34  -0.5  0.275767584101
-0.34  -0.48  0.352526845689
-0.34  -0.46  0.450651868083
-0.34  -0.44  0.576089760794
-0.34  -0.42  0.736442997349
-0.34  -0.4  0.941430181985
-0.34  -0.38  1.20347506968
-0.34  -0.36  1.53845953854
-0.34  -0.34  1.96668615027
-0.34  -0.32  2.51410863708
-0.34  -0.3  3.21390489184
-0.34  -0.28  4.1084877962
-0.34  -0.26  5.25207575818
-0.34  -0.24  6.71397875277
-0.34  -0.22  8.58279902425
-0.34  -0.2  4.60821157665
-0.34  -0.18  4.15326841526
-0.34  -0.16  3.69647280325
-0.34  -0.14  3.23802848168
-0.34  -0.12  2.77813992698
-0.34  -0.1  2.31701225972
-0.34  -0.08  1.85485115317
-0.34  -0.06  1.39186274151
-0.34  -0.04  0.928253527928
-0.34  -0.02  0.464230292512
-0.34  6.17561557e-16  1.22286213554e-13
-0.34  0.02  0.464230292512
-0.34  0.04  0.928253527929
-0.34  0.06  1.39186274151
-0.34  0.08  1.85485115317
-0.34  0.1  2.31701225972
-0.34  0.12  2.77813992698
-0.34  0.14  3.23802848168
-0.34  0.16  3.69647280325
-0.34  0.18  4.15326841526
-0.34  0.2  10.9718010442
-0.34  0.22  8.58279902425
-0.34  0.24  6.71397875277
-0.34  0.26  5.25207575818
-0.34  0.28  4.1084877962
-0.34  0.3  3.21390489184
-0.34  0.32  2.51410863708
-0.34  0.34  1.96668615027
-0.34  0.36  1.53845953854
-0.34  0.38  1.20347506968
-0.34  0.4  0.941430181985
-0.34  0.42  0.736442997349
-0.34  0.44  0.576089760794
-0.34  0.46  0.450651868083
-0.34  0.48  0.352526845689
-0.34  0.5  0.275767584101
-0.34  0.52  0.215721898546
-0.34  0.54  0.168750571842
-0.34  0.56  0.132006790636
-0.34  0.58  0.103263607251
-0.34  0.6  0.0807789700139
-0.34  0.62  0.0631901419119
-0.34  0.64  0.0494311085442
-0.34  0.66  0.0386679696861
-0.34  0.68  0.0302483987044
-0.34  0.7  0.0236621066895
-0.34  0.72  0.018509915135
-0.34  0.74  0.0144795627371
-0.34  0.76  0.0113267800273
-0.34  0.78  0.00886048481688
-0.34  0.8  0.00693120118876
-0.34  0.82  0.00542200014017
-0.34  0.84  0.00424141281134
-0.34  0.86  0.00331788678921
-0.34  0.88  0.0025954494966
-0.34  0.9  0.00203031583575
-0.34  0.92  0.00158823448436
-0.34  0.94  0.00124241200945
-0.34  0.96  0.000971888985174
-0.34  0.98  0.000760269695011
-0.32  -1  0.000705604914699
-0.32  -0.98  0.000902008391207
-0.32  -0.96  0.00115308031571
-0.32  -0.94  0.00147403752276
-0.32  -0.92  0.00188433241717
-0.32  -0.9  0.00240883193513
-0.32  -0.88  0.0030793246663
-0.32  -0.86  0.00393644747987
-0.32  -0.84  0.00503214842247
-0.32  -0.82  0.00643283515791
-0.32  -0.8  0.00822339976779
-0.32  -0.78  0.0105123638459
-0.32  -0.76  0.0134384557178
-0.32  -0.74  0.0171790184136
-0.32  -0.72  0.0219607579808
-0.32  -0.7  0.0280734835647
-0.32  -0.68  0.0358876720077
-0.32  -0.66  0.0458769215144
-0.32  -0.64  0.0586466552411
-0.32  -0.62  0.0749708144625
-0.32  -0.6  0.0958387651958
-0.32  -0.58  0.122515261173
-0.32  -0.56  0.156617097369
-0.32  -0.54  0.200211099852
-0.32  -0.52  0.255939390894
-0.32  -0.5  0.327179521312
-0.32  -0.48  0.418249175292
-0.32  -0.46  0.534667854304
-0.32  -0.44  0.683491400137
-0.32  -0.42  0.873739631625
-0.32  -0.4  1.11694301306
-0.32  -0.38  1.4278414865
-0.32  -0.36  1.82527782234
-0.32  -0.34  2.33333963205
-0.32  -0.32  2.98281925735
-0.32  -0.3  3.81308001621
-0.32  -0.28  4.87444191405
-0.32  -0.26  6.23123141199
-0.32  -0.24  7.96568009106
-0.32  -0.22  10.1829085004
-0.32  -0.2  5.46733026171
-0.32  -0.18  4.92757107916
-0.32  -0.16  4.38561408968
-0.32  -0.14  3.84170101822
-0.32  -0.12  3.29607446216
-0.32  -0.1  2.74897778317
-0.32  -0.08  2.20065499858
-0.32  -0.06  1.65135067265
-0.32  -0.04  1.10130980737
-0.32  -0.02  0.550777733278
-0.32  6.17561557e-16  1.45084292428e-13
-0.32  0.02  0.550777733278
-0.32  0.04  1.10130980737
-0.32  0.06  1.65135067265
-0.32  0.08  2.20065499858
-0.32  0.1  2.74897778317
-0.32  0.12  3.29607446216
-0.32  0.14  3.84170101822
-0.32  0.16  4.38561408968
-0.32  0.18  4.92757107916
-0.32  0.2  13.0172972479
-0.32  0.22  10.1829085004
-0.32  0.24  7.96568009106
-0.32  0.26  6.23123141199
-0.32  0.28  4.87444191405
-0.32  0.3  3.81308001622
-0.32  0.32  2.98281925735
-0.32  0.34  2.33333963205
-0.32  0.36  1.82527782234
-0.32  0.38  1.4278414865
-0.32  0.4  1.11694301306
-0.32  0.42  0.873739631625
-0.32  0.44  0.683491400137
-0.32  0.46  0.534667854304
-0.32  0.48  0.418249175292
-0.32  0.5  0.327179521312
-0.32  0.52  0.255939390894
-0.32  0.54  0.200211099852
-0.32  0.56  0.156617097369
-0.32  0.58  0.122515261173
-0.32  0.6  0.0958387651958
-0.32  0.62  0.0749708144625
-0.32  0.64  0.0586466552411
-0.32  0.66  0.0458769215144
-0.32  0.68  0.0358876720077
-0.32  0.7  0.0280734835647
-0.32  0.72  0.0219607579808
-0.32  0.74  0.0171790184136
-0.32  0.76  0.0134384557178
-0.32  0.78  0.0105123638459
-0.32  0.8  0.00822339976779
-0.32  0.82  0.00643283515791
-0.32  0.84  0.00503214842247
-0.32  0.86  0.00393644747987
-0.32  0.88  0.0030793246663
-0.32  0.9  0.00240883193513
-0.32  0.92  0.00188433241717
-0.32  0.94  0.00147403752276
-0.32  0.96  0.00115308031571
-0.32  0.98  0.000902008391207
-0.3  -1  0.00083715233964
-0.3  -0.98  0.00107017173399
-0.3  -0.96  0.00136805153136
-0.3  -0.94  0.00174884547313
-0.3  -0.92  0.00223563251733
-0.3  -0.9  0.00285791559594
-0.3  -0.88  0.003653409713
-0.3  -0.86  0.00467032775565
-0.3  -0.84  0.00597030255533
-0.3  -0.82  0.00763212229786
-0.3  -0.8  0.00975650567617
-0.3  -0.78  0.0124722061956
-0.3  -0.76  0.0159438155984
-0.3  -0.74  0.0203817393531
-0.3  -0.72  0.0260549487977
-0.3  -0.7  0.0333072828128
-0.3  -0.68  0.0425782870267
-0.3  -0.66  0.0544298535643
-0.3  -0.64  0.0695802759085
-0.3  -0.62  0.088947782852
-0.3  -0.6  0.113706190023
-0.3  -0.58  0.145356041882
-0.3  -0.56  0.185815555927
-0.3  -0.54  0.23753688101
-0.3  -0.52  0.303654715875
-0.3  -0.5  0.388176295322
-0.3  -0.48  0.496224258581
-0.3  -0.46  0.634347119524
-0.3  -0.44  0.810916155527
-0.3  -0.42  1.03663276943
-0.3  -0.4  1.32517707452
-0.3  -0.38  1.69403701158
-0.3  -0.36  2.16556824879
-0.3  -0.34  2.76834910224
-0.3  -0.32  3.53891259541
-0.3  -0.3  4.52396063337
-0.3  -0.28  5.78319448714
-0.3  -0.26  7.39293313683
-0.3  -0.24  9.45073877199
-0.3  -0.22  12.0813297893
-0.3  -0.2  6.48661627042
-0.3  -0.18  5.8462286355
-0.3  -0.16  5.20323345183
-0.3  -0.14  4.55791750965
-0.3  -0.12  3.9105686343
-0.3  -0.1  3.26147555786
-0.3  -0.08  2.61092779036
-0.3  -0.06  1.95921549067
-0.3  -0.04  1.30662933704
-0.3  -0.02  0.653460397497
-0.3  6.17561557e-16  1.72132665633e-13
-0.3  0.02  0.653460397497
-0.3  0.04  1.30662933704
-0.3  0.06  1.95921549067
-0.3  0.08  2.61092779036
-0.3  0.1  3.26147555786
-0.3  0.12  3.9105686343
-0.3  0.14  4.55791750965
-0.3  0.16  5.20323345183
-0.3  0.18  5.8462286355
-0.3  0.2  15.4441396593
-0.3  0.22  12.0813297893
-0.3  0.24  9.45073877199
-0.3  0.26  7.39293313683
-0.3  0.28  5.78319448714
-0.3  0.3  4.52396063337
-0.3  0.32  3.53891259541
-0.3  0.34  2.76834910224
-0.3  0.36  2.16556824879
-0.3  0.38  1.69403701158
-0.3  0.4  1.32517707452
-0.3  0.42  1.03663276943
-0.3  0.44  0.810916155527
-0.3  0.46  0.634347119524
-0.3  0.48  0.496224258581
-0.3  0.5  0.388176295322
-0.3  0.52  0.303654715875
-0.3  0.54  0.23753688101
-0.3  0.56  0.185815555927
-0.3  0.58  0.145356041882
-0.3  0.6  0.113706190023
-0.3  0.62  0.088947782852
-0.3  0.64  0.0695802759085
-0.3  0.66  0.0544298535643
-0.3  0.68  0.0425782870267
-0.3  0.7  0.0333072828128
-0.3  0.72  0.0260549487977
-0.3  0.74  0.0203817393531
-0.3  0.76  0.0159438155984
-0.3  0.78  0.0124722061956
-0.3  0.8  0.00975650567617
-0.3  0.82  0.00763212229786
-0.3  0.84  0.00597030255533
-0.3  0.86  0.00467032775565
-0.3  0.88  0.003653409713
-0.3  0.9  0.00285791559594
-0.3  0.92  0.00223563251733
-0.3  0.94  0.00174884547313
-0.3  0.96  0.00136805153136
-0.3  0.98  0.00107017173399
-0.28  -1  0.000993224430789
-0.28  -0.98  0.00126968612642
-0.28  -0.96  0.00162310028795
-0.28  -0.94  0.00207488645417
-0.28  -0.92  0.00265242624232
-0.28  -0.9  0.00339072287876
-0.28  -0.88  0.00433452265593
-0.28  -0.86  0.00554102689207
-0.28  -0.84  0.00708335875847
-0.28  -0.82  0.00905499508999
-0.28  -0.8  0.0115754317797
-0.28  -0.78  0.0147974261228
-0.28  -0.76  0.0189162550501
-0.28  -0.74  0.0241815503689
-0.28  -0.72  0.0309124283162
-0.28  -0.7  0.0395168303862
-0.28  -0.68  0.0505162476333
-0.28  -0.66  0.0645773269266
-0.28  -0.64  0.0825522747307
-0.28  -0.62  0.105530507185
-0.28  -0.6  0.134904676861
-0.28  -0.58  0.172455077915
-0.28  -0.56  0.220457545215
-0.28  -0.54  0.281821386935
-0.28  -0.52  0.360265710373
-0.28  -0.5  0.460544827639
-0.28  -0.48  0.588736402487
-0.28  -0.46  0.752609802157
-0.28  -0.44  0.962096979073
-0.28  -0.42  1.22989442137
-0.28  -0.4  1.57223265494
-0.28  -0.38  2.00985993456
-0.28  -0.36  2.56929974318
-0.28  -0.34  3.28445831314
-0.28  -0.32  4.19867959719
-0.28  -0.3  5.36737223589
-0.28  -0.28  6.86136773518
-0.28  -0.26  8.77121338495
-0.28  -0.24  11.2126601013
-0.28  -0.22  14.3336777967
-0.28  -0.2  7.69592993756
-0.28  -0.18  6.93615347388
-0.28  -0.16  6.17328333058
-0.28  -0.14  5.40765976483
-0.28  -0.12  4.63962426186
-0.28  -0.1  3.86951938267
-0.28  -0.08  3.09768861129
-0.28  -0.06  2.32447620149
-0.28  -0.04  1.55022702331
-0.28  -0.02  0.775286409194
-0.28  6.17561557e-16  2.04223724582e-13
-0.28  0.02  0.775286409194
-0.28  0.04  1.55022702331
-0.28  0.06  2.32447620149
-0.28  0.08  3.09768861129
-0.28  0.1  3.86951938267
-0.28  0.12  4.63962426186
-0.28  0.14  5.40765976483
-0.28  0.16  6.17328333058
-0.28  0.18  6.93615347388
-0.28  0.2  18.3234234629
-0.28  0.22  14.3336777967
-0.28  0.24  11.2126601013
-0.28  0.26  8.77121338495
-0.28  0.28  6.86136773518
-0.28  0.3  5.36737223589
-0.28  0.32  4.19867959719
-0.28  0.34  3.28445831314
-0.28  0.36  2.56929974318
-0.28  0.38  2.00985993456
-0.28  0.4  1.57223265494
-0.28  0.42  1.22989442137
-0.28  0.44  0.962096979073
-0.28  0.46  0.752609802157
-0.28  0.48  0.588736402487
-0.28  0.5  0.460544827639
-0.28  0.52  0.360265710373
-0.28  0.54  0.281821386935
-0.28  0.56  0.220457545215
-0.28  0.58  0.172455077915
-0.28  0.6  0.134904676861
-0.28  0.62  0.105530507185
-0.28  0.64  0.0825522747307
-0.28  0.66  0.0645773269266
-0.28  0.68  0.0505162476333
-0.28  0.7  0.0395168303862
-0.28  0.72  0.0309124283162
-0.28  0.74  0.0241815503689
-0.28  0.76  0.0189162550501
-0.28  0.78  0.0147974261228
-0.28  0.8  0.0115754317797
-0.28  0.82  0.00905499508999
-0.28  0.84  0.00708335875847
-0.28  0.86  0.00554102689207
-0.28  0.88  0.00433452265593
-0.28  0.9  0.00339072287876
-0.28  0.92  0.00265242624232
-0.28  0.94  0.00207488645417
-0.28  0.96  0.00162310028795
-0.28  0.98  0.00126968612642
-0.26  -1  0.00117839337383
-0.26  -0.98  0.00150639641136
-0.26  -0.96  0.00192569832667
-0.26  -0.94  0.00246171194872
-0.26  -0.92  0.00314692370791
-0.26  -0.9  0.00402286255649
-0.26  -0.88  0.00514261693341
-0.26  -0.86  0.00657405232032
-0.26  -0.84  0.00840392439683
-0.26  -0.82  0.0107431370829
-0.26  -0.8  0.0137334641452
-0.26  -0.78  0.0175561417463
-0.26  -0.76  0.0224428527105
-0.26  -0.74  0.028689768234
-0.26  -0.72  0.0366754980723
-0.26  -0.7  0.0468840371202
-0.26  -0.68  0.0599340991185
-0.26  -0.66  0.0766166153298
-0.26  -0.64  0.0979426708824
-0.26  -0.62  0.125204784084
-0.26  -0.6  0.160055242686
-0.26  -0.58  0.204606244872
-0.26  -0.56  0.261557914242
-0.26  -0.54  0.334361947484
-0.26  -0.52  0.427430812978
-0.26  -0.5  0.546405179351
-0.26  -0.48  0.698495782138
-0.26  -0.46  0.892920448238
-0.26  -0.44  1.14146276509
-0.26  -0.42  1.45918625411
-0.26  -0.4  1.86534733265
-0.26  -0.38  2.38456239677
-0.26  -0.36  3.04829975874
-0.26  -0.34  3.89678686191
-0.26  -0.32  4.98144836433
-0.26  -0.3  6.36802285725
-0.26  -0.28  8.14054711493
-0.26  -0.26  10.4064493511
-0.26  -0.24  13.3030601712
-0.26  -0.22  17.0059358335
-0.26  -0.2  9.13069852367
-0.26  -0.18  8.22927531795
-0.26  -0.16  7.32418167135
-0.26  -0.14  6.4158212759
-0.26  -0.12  5.50459928063
-0.26  -0.1  4.59092211095
-0.26  -0.08  3.67519728731
-0.26  -0.06  2.75783324347
-0.26  -0.04  1.83923914431
-0.26  -0.02  0.919824703353
-0.26  6.17561557e-16  2.42297587903e-13
-0.26  0.02  0.919824703354
-0.26  0.04  1.83923914431
-0.26  0.06  2.75783324347
-0.26  0.08  3.67519728731
-0.26  0.1  4.59092211095
-0.26  0.12  5.50459928063
-0.26  0.14  6.4158212759
-0.26  0.16  7.32418167135
-0.26  0.18  8.22927531795
-0.26  0.2  21.7394982696
-0.26  0.22  17.0059358335
-0.26  0.24  13.3030601712
-0.26  0.26  10.4064493511
-0.26  0.28  8.14054711493
-0.26  0.3  6.36802285725
-0.26  0.32  4.98144836433
-0.26  0.34  3.89678686191
-0.26  0.36  3.04829975874
-0.26  0.38  2.38456239677
-0.26  0.4  1.86534733265
-0.26  0.42  1.45918625411
-0.26  0.44  1.14146276509
-0.26  0.46  0.892920448238
-0.26  0.48  0.698495782138
-0.26  0.5  0.546405179351
-0.26  0.52  0.427430812978
-0.26  0.54  0.334361947484
-0.26  0.56  0.261557914242
-0.26  0.58  0.204606244872
-0.26  0.6  0.160055242686
-0.26  0.62  0.125204784084
-0.26  0.64  0.0979426708824
-0.26  0.66  0.0766166153298
-0.26  0.68  0.0599340991185
-0.26  0.7  0.0468840371202
-0.26  0.72  0.0366754980723
-0.26  0.74  0.028689768234
-0.26  0.76  0.0224428527105
-0.26  0.78  0.0175561417463
-0.26  0.8  0.0137334641452
-0.26  0.82  0.0107431370829
-0.26  0.84  0.00840392439683
-0.26  0.86  0.00657405232032
-0.26  0.88  0.00514261693341
-0.26  0.9  0.00402286255649
-0.26  0.92  0.00314692370791
-0.26  0.94  0.00246171194872
-0.26  0.96  0.00192569832667
-0.26  0.98  0.00150639641136
-0.24  -1  0.00139808375674
-0.24  -0.98  0.00178723709816
-0.24  -0.96  0.00228471036132
-0.24  -0.94  0.00292065414294
-0.24  -0.92  0.00373361138771
-0.24  -0.9  0.0047728533788
-0.24  -0.88  0.00610136594572
-0.24  -0.86  0.00779966687621
-0.24  -0.84  0.00997068589575
-0.24  -0.82  0.012746002978
-0.24  -0.8  0.0162938230744
-0.24  -0.78  0.0208291705908
-0.24  -0.76  0.0266269214731
-0.24  -0.74  0.0340384627438
-0.24  -0.72  0.04351298918
-0.24  -0.7  0.0556247278743
-0.24  -0.68  0.0711077406861
-0.24  -0.66  0.0909004138754
-0.24  -0.64  0.116202331321
-0.24  -0.62  0.148546978268
-0.24  -0.6  0.189894681989
-0.24  -0.58  0.242751422263
-0.24  -0.56  0.310320712481
-0.24  -0.54  0.396697756481
-0.24  -0.52  0.507117648509
-0.24  -0.5  0.648272659041
-0.24  -0.48  0.828717836376
-0.24  -0.46  1.05938950648
-0.24  -0.44  1.35426809607
-0.24  -0.42  1.73122545088
-0.24  -0.4  2.21310800313
-0.24  -0.38  2.82912143593
-0.24  -0.36  3.61660076594
-0.24  -0.34  4.62327312433
-0.24  -0.32  5.91015037752
-0.24  -0.3  7.55522690215
-0.24  -0.28  9.65820662703
-0.24  -0.26  12.3465458362
-0.24  -0.24  15.7831779721
-0.24  -0.22  20.1763886195
-0.24  -0.2  10.8329540688
-0.24  -0.18  9.76347661765
-0.24  -0.16  8.68964443755
-0.24  -0.14  7.61193648165
-0.24  -0.12  6.5308334318
-0.24  -0.1  5.44681748415
-0.24  -0.08  4.36037213406
-0.24  -0.06  3.27198196046
-0.24  -0.04  2.18213240971
-0.24  -0.02  1.0913095791
-0.24  6.17561557e-16  2.87469642538e-13
-0.24  0.02  1.0913095791
-0.24  0.04  2.18213240971
-0.24  0.06  3.27198196046
-0.24  0.08  4.36037213406
-0.24  0.1  5.44681748415
-0.24  0.12  6.5308334318
-0.24  0.14  7.61193648165
-0.24  0.16  8.68964443755
-0.24  0.18  9.76347661765
-0.24  0.2  25.792439168
-0.24  0.22  20.1763886195
-0.24  0.24  15.7831779721
-0.24  0.26  12.3465458362
-0.24  0.28  9.65820662703
-0.24  0.3  7.55522690215
-0.24  0.32  5.91015037752
-0.24  0.34  4.62327312433
-0.24  0.36  3.61660076594
-0.24  0.38  2.82912143593
-0.24  0.4  2.21310800313
-0.24  0.42  1.73122545088
-0.24  0.44  1.35426809607
-0.24  0.46  1.05938950648
-0.24  0.48  0.828717836376
-0.24  0.5  0.648272659041
-0.24  0.52  0.507117648509
-0.24  0.54  0.396697756481
-0.24  0.56  0.310320712481
-0.24  0.58  0.242751422263
-0.24  0.6  0.189894681989
-0.24  0.62  0.148546978268
-0.24  0.64  0.116202331321
-0.24  0.66  0.0909004138754
-0.24  0.68  0.0711077406861
-0.24  0.7  0.0556247278743
-0.24  0.72  0.04351298918
-0.24  0.74  0.0340384627438
-0.24  0.76  0.0266269214731
-0.24  0.78  0.0208291705908
-0.24  0.8  0.0162938230744
-0.24  0.82  0.012746002978
-0.24  0.84  0.00997068589575
-0.24  0.86  0.00779966687621
-0.24  0.88  0.00610136594572
-0.24  0.9  0.0047728533788
-0.24  0.92  0.00373361138771
-0.24  0.94  0.00292065414294
-0.24  0.96  0.00228471036132
-0.24  0.98  0.00178723709816
-0.22  -1  0.00165873148498
-0.22  -0.98  0.00212043551149
-0.22  -0.96  0.00271065377315
-0.22  -0.94  0.0034651579065
-0.22  -0.92  0.00442967649943
-0.22  -0.9  0.0056626665852
-0.22  -0.88  0.00723885657548
-0.22  -0.86  0.00925377536041
-0.22  -0.84  0.0118295420731
-0.22  -0.82  0.0151222674216
-0.22  -0.8  0.0193315151641
-0.22  -0.78  0.0247123971639
-0.22  -0.76  0.031591035074
-0.22  -0.74  0.0403843257467
-0.22  -0.72  0.0516252082971
-0.22  -0.7  0.0659949641956
-0.22  -0.68  0.0843645080154
-0.22  -0.66  0.107847171363
-0.22  -0.64  0.137866179091
-0.22  -0.62  0.176240907359
-0.22  -0.6  0.225297151423
-0.22  -0.58  0.288008086204
-0.22  -0.56  0.368174462904
-0.22  -0.54  0.470654962925
-0.22  -0.52  0.601660670268
-0.22  -0.5  0.769131509625
-0.22  -0.48  0.983217465144
-0.22  -0.46  1.2568937453
-0.22  -0.44  1.6067471775
-0.22  -0.42  2.05398149369
-0.22  -0.4  2.62570243503
-0.22  -0.38  3.35656056225
-0.22  -0.36  4.29085133859
-0.22  -0.34  5.48519976576
-0.22  -0.32  7.01199228222
-0.22  -0.3  8.96376392211
-0.22  -0.28  11.4588066298
-0.22  -0.26  14.6483386353
-0.22  -0.24  18.7256694094
-0.22  -0.22  23.9379156613
-0.22  -0.2  12.8525647355
-0.22  -0.18  11.5837023286
-0.22  -0.16  10.3096733313
-0.22  -0.14  9.03104598912
-0.22  -0.12  7.74839059839
-0.22  -0.1  6.46227925211
-0.22  -0.08  5.17328558473
-0.22  -0.06  3.88198451626
-0.22  -0.04  2.58895199586
-0.22  -0.02  1.29476474495
-0.22  6.17561557e-16  3.41063219392e-13
-0.22  0.02  1.29476474495
-0.22  0.04  2.58895199586
-0.22  0.06  3.88198451626
-0.22  0.08  5.17328558473
-0.22  0.1  6.46227925211
-0.22  0.12  7.74839059839
-0.22  0.14  9.03104598913
-0.22  0.16  10.3096733313
-0.22  0.18  11.5837023286
-0.22  0.2  30.6009784579
-0.22  0.22  23.9379156613
-0.22  0.24  18.7256694094
-0.22  0.26  14.6483386353
-0.22  0.28  11.4588066298
-0.22  0.3  8.96376392211
-0.22  0.32  7.01199228222
-0.22  0.34  5.48519976576
-0.22  0.36  4.29085133859
-0.22  0.38  3.35656056225
-0.22  0.4  2.62570243503
-0.22  0.42  2.05398149369
-0.22  0.44  1.6067471775
-0.22  0.46  1.2568937453
-0.22  0.48  0.983217465144
-0.22  0.5  0.769131509625
-0.22  0.52  0.601660670268
-0.22  0.54  0.470654962925
-0.22  0.56  0.368174462904
-0.22  0.58  0.288008086204
-0.22  0.6  0.225297151423
-0.22  0.62  0.176240907359
-0.22  0.64  0.137866179091
-0.22  0.66  0.107847171363
-0.22  0.68  0.0843645080154
-0.22  0.7  0.0659949641956
-0.22  0.72  0.0516252082971
-0.22  0.74  0.0403843257467
-0.22  0.76  0.031591035074
-0.22  0.78  0.0247123971639
-0.22  0.8  0.0193315151641
-0.22  0.82  0.0151222674216
-0.22  0.84  0.0118295420731
-0.22  0.86  0.00925377536041
-0.22  0.88  0.00723885657548
-0.22  0.9  0.0056626665852
-0.22  0.92  0.00442967649943
-0.22  0.94  0.0034651579065
-0.22  0.96  0.00271065377315
-0.22  0.98  0.00212043551149
-0.2  -1  0.00196797232354
-0.2  -0.98  0.00251575281368
-0.2  -0.96  0.00321600672114
-0.2  -0.94  0.00411117466477
-0.2  -0.92  0.00525551051033
-0.2  -0.9  0.00671836956014
-0.2  -0.88  0.00858841200258
-0.2  -0.86  0.010978976382
-0.2  -0.84  0.0140349487611
-0.2  -0.82  0.0179415438994
-0.2  -0.8  0.0229355306508
-0.2  -0.78  0.0293195819259
-0.2  -0.76  0.0374806189312
-0.2  -0.74  0.0479132614858
-0.2  -0.72  0.0612498056773
-0.2  -0.7  0.0782985457298
-0.2  -0.68  0.100092762673
-0.2  -0.66  0.127953348891
-0.2  -0.64  0.163568864075
-0.2  -0.62  0.20909787455
-0.2  -0.6  0.267299778529
-0.2  -0.58  0.341702046256
-0.2  -0.56  0.436814011063
-0.2  -0.54  0.558400168661
-0.2  -0.52  0.713829548649
-0.2  -0.5  0.912522332767
-0.2  -0.48  1.1665207883
-0.2  -0.46  1.49121911943
-0.2  -0.44  1.90629647106
-0.2  -0.42  2.43690963201
-0.2  -0.4  3.11521772439
-0.2  -0.38  3.98233128667
-0.2  -0.36  5.0908038795
-0.2  -0.34  6.50781722412
-0.2  -0.32  8.31925291663
-0.2  -0.3  10.6348974944
-0.2  -0.28  13.5950963205
-0.2  -0.26  17.3792595615
-0.2  -0.24  22.2167357835
-0.2  -0.22  28.4007121896
-0.2  -0.2  15.2486957142
-0.2  -0.18  13.7432765902
-0.2  -0.16  12.2317276573
-0.2  -0.14  10.7147231003
-0.2  -0.12  9.19293953706
-0.2  -0.1  7.66705571718
-0.2  -0.08  6.13775221893
-0.2  -0.06  4.6057111459
-0.2  -0.04  3.07161582267
-0.2  -0.02  1.53615049008
-0.2  6.17561557e-16  4.04648360763e-13
-0.2  0.02  1.53615049008
-0.2  0.04  3.07161582267
-0.2  0.06  4.6057111459
-0.2  0.08  6.13775221893
-0.2  0.1  7.66705571718
-0.2  0.12  9.19293953706
-0.2  0.14  10.7147231003
-0.2  0.16  12.2317276573
-0.2  0.18  13.7432765902
-0.2  0.2  36.3059839546
-0.2  0.22  28.4007121896
-0.2  0.24  22.2167357835
-0.2  0.26  17.3792595615
-0.2  0.28  13.5950963205
-0.2  0.3  10.6348974944
-0.2  0.32  8.31925291663
-0.2  0.34  6.50781722412
-0.2  0.36  5.0908038795
-0.2  0.38  3.98233128667
-0.2  0.4  3.11521772439
-0.2  0.42  2.43690963201
-0.2  0.44  1.90629647106
-0.2  0.46  1.49121911943
-0.2  0.48  1.1665207883
-0.2  0.5  0.912522332767
-0.2  0.52  0.713829548649
-0.2  0.54  0.558400168661
-0.2  0.56  0.436814011063
-0.2  0.58  0.341702046256
-0.2  0.6  0.267299778529
-0.2  0.62  0.20909787455
-0.2  0.64  0.163568864075
-0.2  0.66  0.127953348891
-0.2  0.68  0.100092762673
-0.2  0.7  0.0782985457298
-0.2  0.72  0.0612498056773
-0.2  0.74  0.0479132614858
-0.2  0.76  0.0374806189312
-0.2  0.78  0.0293195819259
-0.2  0.8  0.0229355306508
-0.2  0.82  0.0179415438994
-0.2  0.84  0.0140349487611
-0.2  0.86  0.010978976382
-0.2  0.88  0.00858841200258
-0.2  0.9  0.00671836956014
-0.2  0.92  0.00525551051033
-0.2  0.94  0.00411117466477
-0.2  0.96  0.00321600672114
-0.2  0.98  0.00251575281368
-0.18  -1  0.00233486558934
-0.18  -0.98  0.00298476996128
-0.18  -0.96  0.00381557369403
-0.18  -0.94  0.00487762970125
-0.18  -0.92  0.00623530651229
-0.18  -0.9  0.00797088948599
-0.18  -0.88  0.0101895679182
-0.18  -0.86  0.0130258102991
-0.18  -0.84  0.0166515141084
-0.18  -0.82  0.0212864240869
-0.18  -0.8  0.0272114504098
-0.18  -0.78  0.0347856939418
-0.18  -0.76  0.0444682104331
-0.18  -0.74  0.0568458327274
-0.18  -0.72  0.0726687372169
-0.18  -0.7  0.092895910137
-0.18  -0.68  0.118753269297
-0.18  -0.66  0.151807963859
-0.18  -0.64  0.194063355286
-0.18  -0.62  0.248080436016
-0.18  -0.6  0.317133044738
-0.18  -0.58  0.405406285478
-0.18  -0.56  0.51825017617
-0.18  -0.54  0.66250389972
-0.18  -0.52  0.846910309589
-0.18  -0.5  1.08264581203
-0.18  -0.48  1.38399773983
-0.18  -0.46  1.76923027141
-0.18  -0.44  2.2616913765
-0.18  -0.42  2.89122787757
-0.18  -0.4  3.69599439025
-0.18  -0.38  4.72476577814
-0.18  -0.36  6.03989327397
-0.18  -0.34  7.72108343015
-0.18  -0.32  9.87022893141
-0.18  -0.3  12.6175840528
-0.18  -0.28  16.1296590419
-0.18  -0.26  20.619311884
